ply
format ascii 1.0
comment PCL generated
element vertex 1556
property float x
property float y
property float z
element camera 0
property float view_px
property float view_py
property float view_pz
property float x_axisx
property float x_axisy
property float x_axisz
property float y_axisx
property float y_axisy
property float y_axisz
property float z_axisx
property float z_axisy
property float z_axisz
property float focal
property float scalex
property float scaley
property float centerx
property float centery
property int viewportx
property int viewporty
property float k1
property float k2
end_header
0.097917102 0.374486 1.6261801
0.106779 0.123902 1.33318
0.0250303 0.070883803 1.40087
0.017664 0.31603399 1.67852
-0.160015 0.0262553 1.32787
-0.112829 0.059863999 1.40408
-0.56518698 0.0517901 1.25221
-0.130344 0.043524399 1.46735
-0.52534997 0.0148756 1.3126
0.00180523 0.28072101 1.77772
-0.236747 -0.066844597 1.35815
-0.124002 0.0321288 1.51657
-0.206837 -0.0064929398 1.4710799
-0.14755701 -0.0095807798 1.58336
-0.221907 -0.058950301 1.5180399
-0.22696801 -0.067231603 1.56681
-0.243636 -0.093959399 1.5723
-0.084552899 0.060598299 1.81366
0.110417 0.14101601 1.37149
0.0114442 0.323385 1.60172
0.0605064 0.0617465 1.31516
0.098756097 0.32831299 1.69982
0.32625601 0.18871599 1.7448699
-0.43529201 0.031556301 1.32137
0.385221 0.209951 1.80049
-0.216111 -0.0210103 1.35847
0.031171899 0.095701098 1.56995
-0.0118914 0.068817496 1.53044
-0.185193 -0.031706002 1.37782
-0.476046 0.0250748 1.33093
-0.44672301 0.0281075 1.3447
-0.094227701 0.048377201 1.50787
-0.58709401 0.0493965 1.33429
-0.116522 0.043044601 1.50212
-0.380101 0.0105332 1.38547
-0.403359 -0.00153424 1.36748
0.034092002 0.273251 1.80001
-0.080037802 0.023249701 1.57196
-0.0362425 0.21476901 1.79286
-0.147495 0.042279501 1.6238199
-0.14608499 0.069982097 1.6815
-0.224126 -0.026141901 1.38438
-0.188233 -0.0074317502 1.46811
0.029186901 0.131676 1.5972
0.128057 0.30816001 1.34749
0.126626 0.304968 1.3578
0.112543 0.41181999 1.45091
0.118783 0.29384801 1.35712
0.113989 0.28253901 1.34825
0.113239 0.284852 1.37342
0.122329 0.45214799 1.51244
0.116046 0.312749 1.40527
0.106905 0.274786 1.37659
0.0359997 0.070046201 1.20427
0.112828 0.27351999 1.38704
0.0462301 0.060260799 1.21359
0.0325642 0.053415101 1.20871
0.096704297 0.382783 1.48005
0.0105924 0.0603288 1.22614
-0.0053543299 0.050526299 1.21624
0.078048803 0.38094801 1.50081
0.090341099 0.301397 1.44266
0.086103097 0.38512599 1.5046901
0.00159895 0.049040399 1.23067
0.018243199 0.055380199 1.25258
0.083678797 0.386217 1.5192699
0.000191422 0.0458901 1.24958
-0.026149699 0.0421401 1.2457401
-0.099298097 0.032405101 1.23545
-0.056361899 0.061593801 1.29375
-0.0247328 0.075779296 1.31196
0.063780099 0.27932501 1.4835401
0.067218803 0.307715 1.50609
0.0591175 0.385263 1.55797
-0.109864 0.0411699 1.26538
-0.101819 0.052879699 1.28071
0.123921 0.109144 1.38513
-0.068300903 0.0726263 1.31136
-0.080582999 0.069861397 1.31256
-0.060833301 0.077406399 1.3259799
-0.072618097 0.0704991 1.3226
-0.041097101 0.083461702 1.3451
0.064603098 0.38604 1.58342
-0.053598098 0.080644101 1.34261
0.11187 0.082708903 1.39319
0.35835499 0.31642699 1.62301
-0.162184 0.0040280502 1.26054
-0.150438 0.01438 1.27147
-0.066184998 0.073941201 1.33829
0.0583 0.37797499 1.58108
-0.13399599 0.034983601 1.29836
-0.15136801 0.0183584 1.28535
0.293176 0.310258 1.60857
-0.058630198 0.078508496 1.3549401
-0.035187501 0.085824497 1.36602
0.139146 0.090526901 1.42773
-0.169323 -0.001302 1.27575
0.482182 0.27656701 1.65118
-0.177057 -0.012285 1.2704901
-0.087211102 0.051517598 1.33787
0.098533399 0.109329 1.43603
0.48791099 0.28045401 1.67458
0.080104701 0.379686 1.61771
-0.138487 0.037877802 1.33347
-0.16556001 0.0154624 1.31305
-0.112786 0.056566499 1.35783
-0.019605899 0.087972797 1.41221
-0.065894 0.068263903 1.39127
-0.0314839 0.084674597 1.40879
-0.105875 0.063346803 1.37621
-0.37879801 0.0057260701 1.26018
-0.54284197 0.070669897 1.26125
-0.20346101 -0.0307173 1.30768
-0.0128472 0.0822924 1.43498
0.0614045 0.077700198 1.46099
0.073204897 0.36598 1.6404099
-0.101909 0.065046303 1.40154
-0.093294799 0.061108898 1.4056
-0.032096699 0.077063702 1.4327
0.44739699 0.26944301 1.7009701
0.045451399 0.30773801 1.60405
-0.166484 0.0218962 1.3611701
-0.074737199 0.082955703 1.42615
0.038088899 0.24669901 1.56814
-0.12983 0.030728601 1.38975
-0.089426301 0.069997199 1.42223
0.0328997 0.32587299 1.61988
0.45720401 0.26779401 1.71523
-0.37880901 0.0286486 1.30855
-0.199958 -0.0153898 1.35277
-0.053459302 0.075448297 1.45566
-0.547593 0.057672501 1.29105
0.104505 0.345384 1.67471
-0.52089798 0.0188633 1.28782
-0.47307801 0.0299094 1.30539
-0.0033181501 0.071839102 1.4835401
-0.049596898 0.059134498 1.46657
0.085513301 0.096015498 1.529
0.0193929 0.30635899 1.64258
-0.080004402 0.0618264 1.4728301
0.0605141 0.085467599 1.53262
0.0216251 0.30331701 1.65572
0.067544296 0.31711501 1.6921901
0.39560601 0.245571 1.76995
-0.064419799 0.059764199 1.5158401
-0.480849 0.0060286601 1.35904
-0.018815599 0.061956901 1.55365
0.0097320499 0.17051101 1.63036
-0.0076115499 0.051720701 1.5657901
-0.248684 -0.078098901 1.42137
-0.201611 -0.0236085 1.4683
0.0052271099 0.25385299 1.67884
-0.054152802 0.0382833 1.56621
-0.12779599 0.026463799 1.54917
-0.0087879701 0.0506256 1.60165
0.0117569 0.084129199 1.62735
0.061318401 0.28062001 1.74138
-0.26986399 -0.117746 1.44252
-0.0302891 0.0343058 1.6003799
-0.24834099 -0.076288201 1.48856
-0.0107801 0.22721601 1.71454
-0.62599498 -0.0094480496 1.39513
-0.056259699 0.12931 1.66833
-0.272044 -0.13593499 1.47821
-0.234844 -0.0625071 1.5243599
-0.091231696 0.120388 1.6601599
-0.048319701 0.142691 1.6868401
-0.097793601 -0.0031441001 1.62365
-0.054769602 0.144289 1.7031699
-0.219308 -0.064759403 1.57952
-0.108758 0.102491 1.68944
-0.28563499 -0.118373 1.55293
-0.054503299 0.177586 1.76819
-0.269633 -0.231162 1.5761
-0.27705899 -0.347581 1.54698
-0.063803501 0.18094499 1.81251
-0.260059 -0.224975 1.67045
0.112132 0.24563301 1.35715
0.118224 0.432944 1.5221
0.0908776 0.300069 1.44214
-0.0144051 0.038866799 1.2334
0.0064191199 0.050007001 1.2653199
0.103303 0.080012597 1.3310601
0.068608798 0.39771199 1.57016
0.134459 0.051285699 1.35342
0.057208698 0.389166 1.57182
0.064015001 0.070798904 1.35535
0.055045299 0.31100801 1.53027
0.074456498 0.40137801 1.60967
-0.084011503 0.075294398 1.37352
0.089797303 0.0972495 1.4476399
-0.547867 0.086583599 1.2472
-0.136921 0.049431901 1.35215
0.44913301 0.27191901 1.67766
-0.47795099 0.018263901 1.25125
-0.15558501 0.030179201 1.36581
-0.58539897 0.087463103 1.26916
-0.143352 0.038999598 1.37834
-0.51449698 0.0306805 1.26033
0.41643199 0.255117 1.6867
0.142886 0.34649399 1.6763901
-0.41101101 0.029402999 1.31549
0.0474126 0.15617301 1.54097
0.033459201 0.25043401 1.60183
-0.132698 0.049871501 1.43354
-0.23064201 -0.0524984 1.34548
0.049665 0.079355098 1.51369
-0.022852801 0.069637202 1.49097
0.039965201 0.086887799 1.53781
-0.47728401 0.0245467 1.33114
-0.44872999 0.0259482 1.3396699
-0.62778699 0.051977199 1.30089
-0.064057797 0.050799001 1.49152
0.058260199 0.094126299 1.56534
-0.50645399 0.020992501 1.33522
-0.194353 -0.0134313 1.45081
-0.59655601 0.0446846 1.34734
-0.20743699 -0.031148201 1.49222
0.00924219 0.22970299 1.69971
-0.30393699 -0.13068999 1.42714
-0.083086997 0.0099506704 1.59527
0.356507 0.17815401 1.83553
-0.0147989 0.140944 1.68599
-0.105449 -0.0038533099 1.61129
-0.092289001 0.044750199 1.7744
-0.158233 -0.234102 1.74509
0.064042397 0.093947403 1.25711
0.0434389 0.079126999 1.24384
0.00170156 0.049088102 1.23039
0.040697802 0.074889399 1.26729
0.082469799 0.399896 1.53202
0.102928 0.40745601 1.55718
0.073265001 0.37605801 1.5320899
-0.0463151 0.079332098 1.3282599
0.0173096 0.084767297 1.35675
0.152256 0.370711 1.6163599
-0.104402 0.063721403 1.37501
0.093843602 0.287837 1.59004
-0.0370133 0.075668603 1.41959
-0.46354601 0.034088399 1.26621
-0.553711 0.069146402 1.27397
-0.159868 0.0278427 1.38334
0.063768297 0.32841599 1.63639
0.0067452802 0.061478999 1.4623899
-0.094418697 0.067486897 1.43407
-0.0242681 0.071444802 1.47149
-0.087041304 0.046337001 1.5434099
-0.48381501 -0.020601099 1.38264
-0.090916999 0.021607401 1.55971
-0.18057799 -0.0087598898 1.5267
-0.108974 0.0132833 1.56542
-0.18541899 0.00237783 1.5446301
-0.14074899 -0.0055122501 1.57072
-0.22928201 -0.084465899 1.52046
-0.0164878 0.141964 1.71824
-0.203679 -0.0544063 1.58447
-0.287193 -0.179803 1.50431
-0.26287699 -0.13206699 1.5894001
-0.070719503 0.102489 1.79926
-0.109248 -0.021541201 1.82847
0.00156129 0.049318898 1.2309099
0.101072 0.095962003 1.31599
0.0258727 0.054392699 1.28743
0.071154602 0.39820799 1.57151
0.106566 0.113218 1.39884
0.069374502 0.29426301 1.52113
0.0590364 0.243568 1.4987
0.055143401 0.31501499 1.54865
0.085118197 0.393848 1.6083699
-0.109438 0.058373399 1.3317699
0.025369899 0.072874002 1.3818099
0.036189102 0.090743497 1.41269
-0.0130745 0.085074998 1.4017
0.104953 0.37066299 1.62482
0.045093101 0.287312 1.55992
0.045114402 0.367901 1.62095
-0.13858099 0.0378717 1.37903
0.40039501 0.26706001 1.6863199
-0.51341701 -0.00263498 1.24704
-0.50977498 0.0203548 1.28413
0.0315453 0.256531 1.59973
-0.57379401 0.0121204 1.2690001
0.41267699 0.239528 1.71857
-0.0221994 0.064651497 1.48953
-0.59382999 0.065045103 1.30998
-0.20084301 -0.072230898 1.36778
0.136234 0.318863 1.70171
-0.602485 0.0590888 1.3266799
-0.49169099 0.0141409 1.34214
-0.40544301 0.0099678598 1.3803
0.0256925 0.31808901 1.69248
-0.61852098 0.0552659 1.34199
0.0309758 0.116127 1.59802
-0.026427001 0.042029802 1.54913
-0.0093870899 0.054322001 1.56748
-0.341925 -0.056829799 1.39898
-0.170204 0.0016550201 1.49175
0.0146096 0.061281301 1.58304
-0.21584401 -0.039232198 1.46108
-0.023123 0.0424379 1.57241
-0.0142369 0.26524901 1.70398
-0.22341201 -0.109857 1.45722
0.041581299 0.30552199 1.7481
-0.0289024 0.034733601 1.60077
-0.44003901 -0.085470103 1.41609
-0.0297886 0.065934703 1.6845599
-0.0175697 0.117759 1.82925
-0.057641398 0.0857879 1.6394399
0.105587 0.0912617 1.3116
0.0655559 0.067173302 1.31733
0.091093302 0.077455901 1.34083
-0.076585002 0.076936103 1.36651
0.070816502 0.112001 1.46604
0.026916699 0.317184 1.63317
0.051564101 0.033544298 1.517
0.031521998 0.099212497 1.57107
0.019417601 0.051698301 1.5789599
-0.44677499 -0.092200696 1.40715
-0.0137211 0.139854 1.6865799
-0.23215701 -0.077381998 1.5782599
-0.0483432 0.084393099 1.34835
-0.020723199 0.089686498 1.35943
0.0628222 0.28965899 1.5182101
-0.0088481503 0.090871602 1.4026099
0.020758299 0.34499699 1.6530499
-0.532709 0.026748801 1.29965
0.00099351106 0.28784099 1.74218
-0.0711779 0.182101 1.80345
-0.055172 0.068332396 1.44461
0.010238 0.134372 1.64564
-0.19309101 0.0391123 1.5691299
-0.081091203 0.022180701 1.62508
0.038397901 0.034918901 1.55338
0.083772503 0.112325 1.26071
0.0272753 0.067808703 1.22963
0.010357 0.051469501 1.24369
-0.0443017 0.0534699 1.2589999
-0.109275 0.025885001 1.23923
-0.115254 0.027949199 1.25094
-0.087543398 0.056777298 1.28072
0.054861601 0.066899702 1.34654
-0.049302001 0.0825008 1.33015
0.0802145 0.067231297 1.3673199
-0.11292 0.046851199 1.31205
0.073888399 0.38375601 1.52355
-0.165043 0.0077586202 1.2922601
0.047151402 0.083168499 1.3904001
0.0715914 0.109141 1.40871
-0.42152101 0.0269031 1.29545
-0.0070621702 0.086807698 1.41986
-0.238028 -0.090539902 1.30964
-0.12648 0.052068099 1.41565
-0.38214099 0.015741199 1.3284
-0.44407201 0.0291014 1.32513
-0.098421998 0.058773302 1.4649
0.018616199 0.056153402 1.60285
-0.19528501 -0.018700801 1.52918
-0.26460901 -0.10668 1.51457
-0.021285299 0.110622 1.6682301
0.134241 0.351439 1.39318
0.056660201 0.0681611 1.3139
0.081703998 0.34889901 1.47653
-0.108041 0.056770399 1.33267
-0.432657 0.030051701 1.31847
-0.13848799 0.034592099 1.4799401
-0.198653 -0.0294955 1.52511
-0.147653 -0.186929 1.67384
-0.0089171799 0.047444198 1.2131799
0.0134396 0.0608261 1.2278
-0.099168703 0.0451378 1.28078
-0.1684 -0.080375202 1.30191
-0.0218718 0.0818436 1.42496
0.057708502 0.0864079 1.4655401
-0.153327 0.0250296 1.44403
-0.0231288 0.067072399 1.5061899
-0.104651 0.0123683 1.58453
-0.055904701 0.129071 1.66923
0.050329302 0.065627299 1.28746
0.10618 0.391231 1.50393
-0.066206403 0.077341102 1.36042
-0.58487803 0.086436898 1.2668999
0.029017501 0.092183799 1.44649
0.0079890499 0.085860997 1.43163
0.0187454 0.082820997 1.47007
-0.31289899 0.020274401 1.36212
-0.39146101 0.035722401 1.3557
-0.092704698 0.042211398 1.50844
0.0219354 0.043509498 1.28246
-0.018647799 0.0979186 1.65183
-0.033749301 0.082613803 1.39095
0.018011199 0.078085698 1.4676501
-0.154247 0.0084384 1.5339
0.068739101 0.086344503 1.1884201
0.050823402 0.060187601 1.17598
0.121014 0.099303603 1.20757
0.059123602 0.090621397 1.20548
-0.024511499 0.0105918 1.20856
-0.110327 -0.016241999 1.18284
0.091033503 0.124482 1.2772501
-0.066937096 0.019504299 1.20901
-0.122391 -0.0026114199 1.20166
0.0260954 0.0631947 1.25456
-0.1148 0.0133679 1.2135
-0.106837 0.024770901 1.22632
-0.137272 -0.0084232101 1.2178299
-0.40626499 -0.064343497 1.14379
-0.29484501 -0.074221797 1.17705
-0.104274 0.038979899 1.25342
0.0068508699 0.056505401 1.28194
0.046386302 0.059002001 1.29396
-0.32160801 -0.072486199 1.1893899
-0.16780201 -0.015771201 1.24629
-0.12541801 0.0488609 1.27482
-0.17758501 -0.029241299 1.24754
-0.301779 -0.080061801 1.2116801
-0.182941 -0.020568701 1.25922
-0.474664 0.0091984803 1.20355
-0.337632 -0.023691099 1.22777
-0.59610897 0.081081703 1.19406
-0.19036099 -0.044748198 1.26847
-0.53870898 0.069849901 1.2189699
-0.383488 0.0148497 1.24717
0.110431 0.41699699 1.46095
-0.124654 0.0491722 1.32551
-0.045698099 0.0826874 1.35771
-0.11851 0.0542011 1.3437001
-0.100025 0.066034399 1.36173
0.070953898 0.087415896 1.4116499
-0.204661 -0.064714499 1.3160599
0.149551 0.43424001 1.50413
-0.16840599 0.0191103 1.34435
0.105819 0.445418 1.4974999
0.0603236 0.096500002 1.42
-0.0238658 0.085933 1.39891
-0.207756 -0.0301829 1.33222
-0.23743901 -0.059072301 1.33075
-0.125017 0.051051799 1.37749
-0.086496502 0.0698919 1.39806
-0.55449599 0.071490601 1.27371
-0.19019599 -0.0107023 1.36189
-0.32246399 0.028454799 1.34463
-0.433314 0.0286601 1.31698
-0.37728101 0.032535899 1.33672
-0.199705 -0.0175026 1.3867
0.068122201 0.092278801 1.4928401
-0.61129397 0.068764903 1.31138
-0.224603 -0.061443899 1.42055
-0.070299998 0.0622718 1.48013
0.0160347 0.108102 1.5132101
-0.185075 -0.0082112299 1.46966
0.049025901 0.369394 1.59281
-0.0501635 0.057526901 1.54328
0.41734499 0.262541 1.70568
-0.1353 0.0182245 1.5311
0.030867301 0.14608601 1.5933599
0.46659699 0.27176699 1.74114
-0.075454503 0.027486101 1.5587699
-0.17825601 -0.0062966002 1.5405
0.40207699 0.220787 1.75507
0.144923 0.329963 1.6799901
-0.24685 -0.097079001 1.5581501
-0.180709 -0.0318208 1.58377
-0.088698 0.093165398 1.63271
0.0026710799 0.13146099 1.66512
-0.077711903 0.130592 1.66901
-0.083776496 0.133826 1.67941
-0.068658702 0.136574 1.6868401
-0.082888 0.138763 1.69124
-0.0230696 0.15729 1.71346
-0.0094645899 0.263203 1.7211
-0.060364101 0.184513 1.78433
-0.054251 0.19860999 1.8078901
-0.0391366 0.212346 1.81559
-0.087781399 0.057677198 1.28079
-0.357153 -0.0146423 1.23088
-0.286102 -0.086541504 1.23348
-0.47759101 0.0077957199 1.22522
-0.0452337 0.083094001 1.3566
-0.0593228 0.071602903 1.35668
-0.50714397 0.042091999 1.23982
-0.42743099 0.027134201 1.26241
-0.40061101 0.028507899 1.27765
-0.36405799 0.0214257 1.2848901
0.096105002 0.443479 1.49193
-0.448019 0.031255301 1.2724299
-0.170027 0.0174076 1.36423
-0.123013 0.054481398 1.38416
-0.18691701 -0.0044450802 1.3622299
0.0137061 0.082614399 1.43174
0.0303159 0.089904398 1.44661
0.085333101 0.42320499 1.52404
-0.59228897 0.066976801 1.28793
0.029045699 0.090204902 1.4787
-0.39132401 0.029417399 1.35193
-0.072322696 0.065365903 1.46014
-0.00361396 0.072636902 1.49506
0.0264428 0.045256 1.58657
-0.0233701 0.040108498 1.57262
0.400235 0.25679201 1.7725101
0.0257027 0.34659201 1.66606
-0.114899 -0.0101393 1.20195
-0.027565001 0.0446559 1.2464
0.12637 0.30790401 1.35895
-0.088172503 0.038349401 1.24034
-0.138431 -0.0120839 1.21861
-0.053454898 0.065285899 1.27645
-0.098600604 0.046188701 1.26509
-0.179216 -0.033103801 1.2358
-0.49154499 0.0086483601 1.22
-0.067540199 0.0757562 1.33872
-0.53426898 0.075169504 1.22692
-0.38095099 0.0242236 1.2718
-0.054720901 0.079800397 1.3712699
-0.39420199 0.03056 1.29941
-0.043152601 0.080368802 1.40516
-0.108453 0.0605257 1.38928
-0.36623001 0.0294689 1.32195
0.0458249 0.101056 1.45209
0.077344097 0.102794 1.4889899
-0.209692 -0.040236901 1.4385999
-0.116983 0.028862201 1.53172
-0.066399798 0.041487899 1.5484
-0.0954092 0.0184466 1.57455
-0.027840599 0.127216 1.66924
-0.0321596 0.18340699 1.76996
-0.0148318 0.0343569 1.23155
-0.080756903 0.0543379 1.2608401
-0.025108101 0.077334099 1.3117599
0.12549099 0.30950201 1.41626
-0.197539 -0.072907098 1.2516201
-0.0059440201 0.082821801 1.36002
-0.155379 0.0145783 1.32313
-0.26785001 -0.058502201 1.31374
-0.430489 0.0284626 1.29035
-0.125535 0.058045901 1.38691
-0.021063199 0.081441998 1.42527
-0.166052 0.0172721 1.3945
0.0736444 0.41159499 1.53118
-0.126892 0.0431136 1.44004
-0.059807401 0.062318102 1.52087
0.060916699 0.38258499 1.6065
-0.203454 -0.042091802 1.51279
0.082064599 0.36115 1.63208
-0.13738599 0.00775012 1.55383
0.016177399 0.059766602 1.6101201
-0.155256 -0.038735401 1.56954
-0.104316 0.098355599 1.64814
0.364591 0.165418 1.83971
0.0037690001 0.280316 1.74347
-0.21555901 -0.103865 1.20796
-0.36443099 -0.0031593901 1.24283
-0.27061 -0.064851202 1.2589
-0.43187001 0.0276387 1.29072
0.0078878095 0.075610302 1.43332
0.032414801 0.071783602 1.45438
0.055855699 0.35464501 1.54221
0.078259602 0.395188 1.5606101
0.047694098 0.076202899 1.28471
-0.073954701 0.068490401 1.29348
-0.0442692 0.068613902 1.2996401
-0.15171701 0.0042276299 1.32151
-0.0208095 0.080567598 1.42487
-0.095643699 0.053837199 1.46225
-0.16090301 0.022771601 1.46626
-0.036196001 0.079300098 1.58512
0.37915799 0.210245 1.7998
-0.095987096 0.066213101 1.41452
0.0178174 0.046090402 1.57019
-0.099046998 0.076212101 1.40731
0.027284101 0.0575823 1.46284
0.0126937 0.00141726 1.1588
0.080415599 0.087748297 1.1836801
0.0280948 0.025217401 1.1792901
0.021778701 0.033332601 1.2098401
-0.0265055 0.0392428 1.22215
0.033061601 0.070353404 1.24953
0.092395797 0.081121601 1.27929
-0.089490198 0.039115001 1.24088
-0.46494401 -0.022679601 1.16318
-0.51436597 0.094996199 1.16225
-0.34091899 -0.089486897 1.19041
-0.17998099 -0.034805801 1.23508
-0.40850201 0.0039564599 1.18928
-0.52711397 0.084778398 1.18073
-0.47451401 0.0100332 1.1901
-0.177646 -0.0081131598 1.2713
-0.460435 -0.000170101 1.22515
-0.20116501 -0.066492699 1.2816499
0.59357899 0.113769 1.48527
-0.35063201 0.0032080601 1.25709
-0.42137399 0.021165799 1.24427
-0.49739099 0.00038425601 1.22479
0.151737 0.43895599 1.42603
-0.113648 0.060175799 1.35874
0.085665897 0.107942 1.44205
0.127414 0.459773 1.45408
0.0827154 0.11228 1.4538701
-0.20099901 -0.055574 1.40503
0.0136191 0.088566199 1.4734499
-0.063221201 0.063220501 1.48774
0.013021 0.076988302 1.51504
0.073416702 0.345433 1.52554
0.0756047 0.40865499 1.53095
0.0118081 0.070211902 1.61994
-0.030286999 0.0120088 1.23523
-0.082064897 0.052712802 1.2661901
-0.0976616 0.065989897 1.31224
-0.39726499 0.0221911 1.25877
0.082085103 0.085605897 1.40198
0.01041 0.085776299 1.39336
0.179004 0.445703 1.4350899
0.083171502 0.099672101 1.43758
-0.114291 0.0412498 1.50123
-0.18304101 -0.0053680199 1.5262901
0.057439201 0.071169302 1.25947
-0.087449402 0.0311759 1.24945
0.110575 0.286493 1.34877
-0.113134 0.053803299 1.30905
-0.053234801 0.082308598 1.34253
-0.48914099 0.0216721 1.2395999
0.098047897 0.102928 1.41993
0.082172401 0.0950673 1.41855
-0.034787599 0.083039597 1.39079
-0.19594599 -0.074492998 1.35551
0.097904801 0.11286 1.4365
-0.19406 -0.022781899 1.49984
-0.069816202 0.066811502 1.62126
-0.456404 -0.015782399 1.18146
-0.440595 -0.0253502 1.18696
0.0941002 0.100149 1.3330801
0.0812613 0.098181002 1.3471299
-0.14758 0.030118501 1.3401901
-0.39835301 0.028796701 1.2790999
0.0056607299 0.080943301 1.43761
0.000266569 0.081123501 1.45363
-0.00375941 0.076421097 1.49125
-0.055794999 0.0388459 1.6143301
-0.19439 -0.106722 1.25367
0.034228299 0.0216706 1.39498
-0.031339601 0.066170096 1.48822
0.067177303 0.073131002 1.17961
0.089713097 0.095862098 1.19461
-0.13001999 -0.0336021 1.19156
-0.158939 -0.049984802 1.19091
-0.12673999 0.00442965 1.21711
-0.490888 0.043568499 1.11849
-0.026231 0.058130398 1.2634701
-0.31020001 -0.071683399 1.20038
-0.052988902 0.064213902 1.26638
-0.300908 -0.076592401 1.21407
-0.067749701 0.061915699 1.27484
-0.0098222103 0.075604402 1.29489
-0.045966402 0.073514201 1.29023
-0.111 0.049247 1.27891
0.418742 0.129142 1.42577
-0.465298 -0.0098864203 1.1848201
-0.10473 0.0577401 1.28877
-0.29063699 -0.074935198 1.26316
-0.126982 0.044574801 1.30854
0.417238 0.19724099 1.44958
0.043266602 0.074482404 1.35651
-0.048529401 0.077974997 1.33084
0.56950003 0.170597 1.50705
0.53110701 0.19744501 1.51433
0.55522299 0.199369 1.5251499
0.089097202 0.091354802 1.40504
-0.485917 0.028173801 1.2436301
-0.443771 0.028800899 1.25589
-0.46147901 0.024484299 1.25542
0.387036 0.22563 1.4816099
0.177873 0.40053099 1.39239
0.52334499 0.200698 1.53782
0.547656 0.216801 1.54334
-0.34705099 0.018475801 1.3037601
0.097006001 0.116699 1.43335
0.33862799 0.25517899 1.48706
-0.194828 -0.0763347 1.3892601
0.39903501 0.270383 1.50841
0.52991402 0.23392101 1.57725
0.37874499 0.29408401 1.52475
0.52964801 0.245536 1.58249
0.083838001 0.39034399 1.49999
-0.025240401 0.0202206 1.20336
-0.139126 0.0121691 1.23146
-0.34725401 -0.043409798 1.18337
-0.449159 -0.050091799 1.1616
-0.0117228 0.063450299 1.2835701
-0.45753801 -0.0155242 1.1786799
0.154135 0.32596499 1.3349299
-0.34085399 -0.021838101 1.2312
-0.274914 -0.080293298 1.25763
-0.450075 0.0126988 1.21461
0.0398863 0.079000898 1.35203
0.37452301 0.156828 1.44511
-0.39370701 0.0147231 1.23561
0.40184799 0.216691 1.47522
0.448762 0.223248 1.49594
0.49028301 0.197621 1.52731
0.38133401 0.31594199 1.54511
-0.026813701 0.045311499 1.2459
0.0054885899 0.061528198 1.2817301
0.084071398 0.086379804 1.30458
-0.053072199 0.067859501 1.27754
-0.087687597 0.058390599 1.28035
-0.124775 0.047304101 1.27754
-0.41940901 0.0211567 1.24338
0.065799303 0.067746997 1.4235801
0.070767298 0.086116903 1.44722
-0.0692214 0.0299978 1.22736
-0.040332299 0.034028601 1.2354
-0.13838799 0.0157429 1.24744
-0.056945998 0.032019999 1.2976201
-0.27548999 -0.080315098 1.2598799
-0.177893 -0.0488993 1.29321
-0.39647299 0.016069099 1.23638
0.064541399 0.102367 1.38202
-0.35207301 0.0179529 1.27846
-0.026447801 0.081450902 1.37079
0.36745101 0.311398 1.53853
0.036206398 0.056043901 1.32125
0.0723515 0.0524696 1.35148
0.0040032598 0.031205701 1.24591
-0.071632601 0.044939999 1.25869
0.0146076 0.062811203 1.2747101
-0.33655 -0.019828901 1.21474
0.030985 0.085565403 1.45052
0.0248235 0.019119499 1.1479
-0.47548601 -0.0217038 1.1051
-0.0496566 0.0108264 1.1578701
-0.062589698 0.00224932 1.16158
0.0056517101 0.032345898 1.16043
-0.39501601 -0.058811001 1.1594501
-0.30653399 -0.070098698 1.18048
-0.47720999 0.0479941 1.10772
-0.0693435 0.0099277301 1.19096
-0.087128296 0.0028202799 1.19437
-0.045295399 0.0247401 1.19394
-0.090544797 0.0207846 1.20034
-0.170164 -0.0050777202 1.209
-0.30730101 -0.074278504 1.2283601
-0.149672 -0.017190499 1.22302
-0.101487 0.0118747 1.2139699
-0.084083699 0.0199349 1.22177
-0.129086 0.0127756 1.22878
0.0608146 0.098379098 1.21851
-0.097406402 0.030862899 1.23395
0.049841899 0.089152299 1.2250201
-0.415474 0.00111868 1.20719
-0.110062 0.0284853 1.23915
-0.13407999 0.021322399 1.24359
-0.393931 -0.000286344 1.22651
-0.072891802 0.049566399 1.25015
-0.038762499 0.050083101 1.25755
-0.40234199 0.0119401 1.23048
0.14745399 0.151971 1.23137
-0.13603 0.0294993 1.26185
-0.4075 0.015630201 1.24501
-0.139911 0.026791601 1.28254
-0.22951999 -0.063565098 1.3179899
-0.412276 0.021541599 1.25486
-0.0284786 0.074553303 1.28183
-0.075087398 0.061933301 1.28345
-0.134166 0.034719799 1.299
0.34195399 0.021334801 1.37947
-0.53779298 0.083625197 1.21404
0.40224701 0.00095703098 1.40573
-0.111522 0.0602029 1.30592
-0.135042 0.041409198 1.3247401
-0.101594 0.065215297 1.33008
0.158822 0.234855 1.2665499
-0.066938601 0.078642197 1.33873
-0.1689 0.0151627 1.36905
0.017951701 0.079818003 1.35839
0.45753101 0.105854 1.43047
0.59421402 0.091151901 1.4706
-0.045293201 0.083081797 1.37734
-0.100409 0.036188301 1.41386
-0.11371 0.062726401 1.40354
0.0529854 0.084253103 1.41277
0.571953 0.125728 1.47858
0.0147354 0.087337598 1.4147201
0.161088 0.296354 1.29333
0.57981998 0.136356 1.48645
0.151595 0.29754299 1.3015
0.40443501 0.16259 1.4454401
0.56437898 0.14847399 1.48976
0.063957699 0.107162 1.44192
-0.0174569 0.054597098 1.47686
0.17135 0.32860699 1.32547
0.0765872 0.110833 1.4892401
0.12699901 0.31170401 1.34254
0.133487 0.32179201 1.3411
0.45639199 0.21014901 1.49447
0.0687382 0.111841 1.5163
0.36581799 0.25089699 1.4927
0.13927799 0.371638 1.36282
-0.051754002 0.102226 1.63463
0.099715501 0.35147399 1.44041
0.083026297 0.307899 1.48279
-0.054566301 0.110995 1.65677
-0.046823099 0.12767 1.655
-0.077135503 0.12923899 1.6716599
-0.43522599 -0.115349 1.07945
-0.332614 -0.072393298 1.17606
-0.34805 -0.070661202 1.18397
0.096519202 0.090767197 1.18308
-0.43436301 -0.0093447501 1.1741199
-0.33084899 -0.065846503 1.2207299
-0.070976101 0.0338904 1.22364
-0.36800101 -0.023449199 1.21457
-0.43091601 0.0069546001 1.2196
-0.12116 0.038674001 1.26587
0.0407467 0.054081101 1.32252
0.54616302 0.0530941 1.4773999
0.39376301 0.11115 1.42656
-0.47775999 -0.00101755 1.36824
0.54838401 0.105788 1.4717
0.52866602 0.123105 1.4795901
0.204854 0.30534101 1.3197
0.45434901 0.17053799 1.4764301
0.362014 0.193648 1.47402
0.355102 0.249211 1.4430701
0.38277799 0.20848 1.50737
0.187601 0.36381599 1.36103
0.171483 0.37778401 1.3583601
0.0333707 0.082481802 1.61778
0.13647699 0.39195701 1.3932199
-0.0192171 0.147121 1.69085
0.0066452199 0.064947002 1.19726
-0.103954 0.023122501 1.2258101
-0.00073053001 0.0604956 1.2221299
-0.129191 0.0122892 1.22989
-0.165654 -0.0166847 1.24868
-0.14895301 0.0203408 1.2326
-0.122545 0.0220115 1.24191
-0.109077 0.027933801 1.2388099
-0.086979501 0.045303099 1.25412
-0.45613199 0.0154057 1.22624
-0.156417 0.026237899 1.29712
0.103507 0.090060703 1.40631
0.142744 0.40606499 1.3525701
-0.32172099 -0.0985654 1.1452301
-0.46002999 -0.0161587 1.1553299
0.0234806 0.056201901 1.22987
0.042549498 0.0693933 1.23695
-0.25609499 -0.081136003 1.2810301
-0.080483101 0.050453302 1.26226
-0.123267 0.038603898 1.26616
0.026046 0.056650002 1.2870899
-0.056081198 0.075002298 1.2933199
0.17184301 0.194094 1.24051
0.53423899 0.046458501 1.49371
0.46054 0.111357 1.45347
-0.043175101 0.086264104 1.41406
0.16397101 0.30222699 1.29944
0.376037 0.155948 1.44672
0.45223099 0.169201 1.47349
0.32552901 0.182831 1.45173
0.52130902 0.16433699 1.49633
0.067197897 0.117508 1.45939
0.395192 0.17838199 1.47075
0.47402301 0.220403 1.50035
0.37195 0.231132 1.47844
0.15791 0.36236399 1.35598
0.042639598 0.073723301 1.58403
0.13089401 0.33261099 1.39288
-0.0124696 0.121597 1.65222
-0.36522499 -0.0068182498 1.2114
-0.408126 -0.029245 1.2204601
-0.0267173 0.071262397 1.27649
0.44882599 0.117321 1.43985
0.138814 0.30306199 1.32595
0.116072 0.292918 1.35807
-0.47526199 -0.034875199 1.05416
-0.29508299 -0.072098501 1.17703
0.068514697 0.0512187 1.16011
0.059405699 0.059795499 1.16706
0.093900003 0.068372399 1.16591
-0.127012 0.00370497 1.2174799
-0.117267 0.0341115 1.24777
0.43027899 -0.0116551 1.3979599
0.155081 0.190704 1.24357
0.43374601 0.149404 1.44414
-0.423439 -0.0212235 1.18277
-0.067150198 0.0489089 1.23722
0.171785 0.140173 1.21122
0.39173299 0.18442599 1.4644099
-0.45946401 -0.0403529 1.14814
-0.43529901 -0.00145606 1.1988699
-0.072441302 0.054374501 1.2900701
-0.0084286602 0.0876422 1.38083
0.404046 0.162918 1.44594
0.193353 0.307475 1.3240401
-0.427279 -0.054671701 1.15658
-0.45117301 0.0404623 1.3497699
-0.39639899 0.032767002 1.3796
0.393015 0.108278 1.42812
0.034661502 0.0910777 1.60428
-0.0733217 0.14315499 1.75692
-0.48587099 -0.090732098 1.0138201
-0.50152999 -0.084560797 1.0361201
-0.450207 -0.090609498 1.08814
-0.192893 -0.125891 1.26209
-0.14857 -0.086154997 1.25582
-0.16407099 -0.060995199 1.17791
-0.171736 -0.055727102 1.17374
-0.153661 -0.053277601 1.17383
-0.147499 -0.0384349 1.1857001
-0.14268801 -0.023679299 1.18938
-0.136906 -0.026293101 1.24347
-0.154191 -0.0205222 1.24482
-0.089826398 -0.0031622101 1.18493
-0.332205 0.014538 1.25431
-0.034070499 0.00062787998 1.13975
0.0189196 0.000721241 1.13354
-0.149721 0.0044071302 1.29398
0.043170299 0.0289148 1.14818
0.34961599 0.0075954902 1.37907
0.041954599 0.041140102 1.15799
0.54971999 0.0093453899 1.42755
0.062520199 0.068846799 1.18277
0.37502599 0.050330698 1.4025199
0.095758297 0.107879 1.22843
0.43086299 0.104145 1.43538
0.134838 0.140063 1.22059
0.20276301 0.134342 1.20406
0.079040803 0.219621 1.4541399
0.34289801 0.25522199 1.49286
0.180306 0.26035601 1.27126
0.32340801 0.32848299 1.63134
0.337906 0.36979899 1.59712
-0.49689001 -0.25139499 1.18705
-0.30941299 -0.26351601 1.25501
-0.13189299 -0.15580299 1.2621
-0.157069 -0.085320599 1.1608
-0.48728901 -0.0131744 1.05574
-0.0264592 -0.0490661 1.1426899
-0.13004 -0.029369401 1.17384
-0.48825401 0.0274365 1.01797
-0.519912 0.040651601 1.08916
0.063181601 0.0078445701 1.14324
-0.31822699 0.031768698 1.35639
0.372235 0.0084712002 1.3863699
0.32799599 0.087545402 1.40406
0.54289699 0.078473397 1.43277
0.32364899 0.124226 1.4155999
0.156578 0.13102899 1.2019399
0.55858999 0.13735101 1.48306
0.46606401 0.150675 1.45388
0.37332299 0.15553799 1.44265
0.15391999 0.169311 1.2339799
0.063046701 0.20185199 1.49924
0.32842001 0.181886 1.4558001
0.087693602 0.201113 1.43594
0.169609 0.19356699 1.24036
0.0709107 0.241147 1.4819
0.139542 0.37165001 1.37418
-0.45004499 -0.071633101 1.0375
-0.39739901 -0.065081596 1.13832
-0.61919802 -0.027705399 1.1764801
0.434439 -0.0516885 1.37479
0.076783597 0.0081501203 1.14205
0.29437801 -0.022105001 1.34864
0.138111 0.120007 1.1945699
0.23055799 0.38658401 1.49042
-0.43712199 -0.14524101 1.1143301
-0.409291 -0.14156801 1.12933
-0.255878 -0.15142199 1.21494
-0.260609 -0.044225398 1.37002
-0.18276601 0.00339297 1.33727
-0.037137501 0.0235609 1.20823
0.55126202 0.077710398 1.444
0.44858801 0.120235 1.4316
0.143528 0.382083 1.42378
-0.43900001 -0.1464 1.112
0.26309401 -0.0137869 1.34174
0.129168 -0.043814398 1.21592
-0.185866 -0.0048696902 1.37967
-0.333148 0.0088267801 1.34781
-0.35623601 -0.081581302 1.16185
-0.21720199 -0.122287 1.25053
-0.49708599 -0.0140226 1.04948
-0.31739399 -0.052855399 1.23283
-0.44795501 -0.0120664 1.16801
-0.110792 -0.0130553 1.1802
0.0103144 0.0159587 1.1446199
-0.114115 0.0096432101 1.2187001
-0.520042 0.053293101 1.1302299
0.52950501 -0.042972099 1.4293801
0.116435 0.111873 1.1957901
0.20946901 0.170881 1.2496099
0.176539 0.184102 1.23235
0.14448801 0.22919799 1.25756
0.187676 0.31806999 1.33508
0.153124 0.340563 1.34672
0.156216 0.38511401 1.37147
0.16648699 0.41747999 1.42795
-0.217482 -0.25336599 1.2820899
-0.42775801 -0.053504501 1.15319
-0.40788499 -0.054810598 1.1634099
0.1543 0.19043601 1.2433701
0.52207202 0.175938 1.5070699
0.169475 0.256531 1.27262
-0.48651001 0.016566601 1.0736099
0.56200302 0.186427 1.52821
0.171857 0.471443 1.4729
0.53714699 0.0286119 1.44707
0.18998399 0.202301 1.23218
-0.0049690502 0.151059 1.65413
-0.089968801 0.083922997 1.8827699
0.0112649 0.225926 1.61204
-0.074783899 0.100992 1.79983
-0.077582903 0.055555299 1.87834
0.082045302 0.23623499 1.52716
-0.082026899 0.070953898 1.8026201
0.079513699 0.261372 1.4624799
-0.13314 0.077958502 1.72402
0.038499899 0.179379 1.56661
0.119738 0.27833399 1.37688
-0.093568496 0.0576596 1.74527
-0.094385497 0.0148599 1.85195
0.0381427 0.16088299 1.5593801
-0.121598 0.058672398 1.70847
-0.100484 0.011474 1.79695
-0.099991001 0.00148567 1.78602
-0.096176699 0.0060083899 1.76925
-0.081867702 -0.0362578 1.8629301
-0.12791599 0.0071981298 1.7097
-0.130257 0.0106155 1.67521
-0.100443 -0.0095581599 1.64441
-0.099095203 -0.036039401 1.69581
-0.51724398 -0.065605201 1.40283
-0.19320101 -0.058200799 1.6085
-0.55251902 -0.082443997 1.38941
-0.68910998 -0.114904 1.38728
-0.230611 -0.105252 1.59954
-0.26038 -0.10072 1.53663
-0.26271701 -0.134561 1.59017
-0.236369 -0.16021501 1.64053
-0.258598 -0.106618 1.4588
-0.28196701 -0.146255 1.53391
-0.28063899 -0.141581 1.51981
-0.66083002 -0.111911 1.23842
-0.28174299 -0.157251 1.55156
-0.27841601 -0.133597 1.46403
-0.285202 -0.159821 1.5376199
-0.28696501 -0.161934 1.52343
-0.66251498 -0.123564 1.24426
-0.22378901 -0.207221 1.67492
-0.243342 -0.209518 1.66807
-0.28650901 -0.151637 1.4572999
-0.291244 -0.17460801 1.5279
-0.29030001 -0.175124 1.5134799
-0.29274601 -0.186748 1.53218
-0.28636 -0.208443 1.60534
-0.30304101 -0.171275 1.43823
-0.29545599 -0.19050901 1.50497
-0.29641199 -0.203127 1.52115
-0.298145 -0.206412 1.49404
-0.29826599 -0.21682601 1.51284
0.050245602 0.39203799 1.41353
0.122339 0.39621601 1.42269
-0.087510198 0.106818 1.8137701
-0.073863402 0.103364 1.83698
-0.100625 0.100167 1.7186199
0.160933 0.32946599 1.3221101
0.0506199 0.193023 1.52494
0.0453589 0.167248 1.5448101
-0.134369 0.054793999 1.6531399
0.0896497 0.19788601 1.44726
-0.096130602 -0.026981801 1.8444099
-0.108973 -0.0129033 1.7111501
-0.099472098 -0.0135103 1.63088
-0.227686 -0.049353398 1.52078
-0.082757197 -0.113092 1.7176501
-0.253169 -0.12803701 1.60629
-0.252722 -0.10005 1.47142
-0.25680199 -0.099661998 1.44455
-0.286412 -0.17237701 1.5528001
-0.28958499 -0.166778 1.46457
0.110736 0.40732801 1.46767
-0.076076597 0.100353 1.79746
-0.0882909 0.0811271 1.82651
0.117881 0.252765 1.37685
-0.101049 0.0018020699 1.78613
-0.28390601 -0.1441 1.53448
-0.27962199 -0.157244 1.55117
-0.28912801 -0.160135 1.52249
-0.28369501 -0.18551201 1.58374
-0.292487 -0.17326599 1.5097899
-0.291917 -0.187722 1.53341
0.11848 0.39261499 1.42389
-0.0853341 0.109531 1.81475
-0.12867001 0.058849499 1.73717
-0.081397399 0.0828688 1.64729
-0.095909998 -0.0296322 1.84387
-0.103111 -0.0117674 1.6312701
-0.106033 -0.039184399 1.63331
-0.113248 -0.102015 1.75913
-0.70241302 -0.098344497 1.35087
-0.108502 -0.142398 1.798
-0.226568 -0.048503499 1.51834
-0.11691 -0.164629 1.75345
-0.27806699 -0.133636 1.46357
-0.289197 -0.173087 1.55311
-0.28855401 -0.16738001 1.4661601
-0.29257801 -0.19707701 1.53756
-0.092597701 -0.0241917 1.78113
-0.092167199 0.0579402 1.76817
0.133803 0.35584101 1.3932101
0.070935696 0.32126999 1.48966
0.102678 0.30013001 1.41835
0.040757298 0.22934499 1.52373
0.071025103 0.200269 1.47264
-0.052634001 0.20983399 1.8115799
0.0278295 0.180022 1.58836
0.134561 0.151366 1.24918
0.113933 0.16353101 1.38238
0.099706098 0.16199701 1.4071
0.036502399 0.164437 1.5388401
0.116268 0.143466 1.31991
0.052857701 0.124836 1.53677
-0.102367 0.13297801 1.71181
-0.047738899 0.123891 1.76271
-0.087931901 0.122151 1.81792
-0.082521498 0.133211 1.89117
-0.059235498 0.118006 1.78207
-0.095592201 0.108887 1.7439801
-0.0586427 0.106275 1.76512
-0.162761 0.017115699 1.38043
-0.17122 0.027796101 1.45135
-0.164281 0.0147178 1.44033
-0.140674 0.0122089 1.54474
-0.18854 -0.0117022 1.39601
-0.129915 0.0368095 1.7293299
-0.110357 0.014261 1.63441
-0.20810901 -0.0272565 1.4040999
-0.496966 -0.0412108 1.38621
-0.19431899 -0.018118599 1.49733
-0.70227802 -0.045048501 1.36877
-0.68361098 -0.036130302 1.41504
-0.698605 -0.041182201 1.39236
-0.099787503 0.016154399 1.77799
-0.1997 -0.03008 1.53836
-0.201546 -0.0310617 1.55668
-0.223131 -0.036577199 1.5218199
-0.49326101 -0.062368199 1.39315
-0.411208 -0.058301698 1.43233
-0.186268 -0.0366388 1.57283
-0.101 -0.031051399 1.67766
-0.69698 -0.067047201 1.40136
-0.096616603 -0.032749899 1.71254
-0.66585898 -0.099363498 1.2572
-0.093443297 -0.0137059 1.85199
-0.710693 -0.089910999 1.3421299
-0.241831 -0.0730967 1.51438
-0.25154299 -0.086372301 1.45976
-0.2192 -0.0649506 1.57963
-0.25086099 -0.079812698 1.5034
-0.25594401 -0.089448102 1.4945101
-0.232474 -0.078013502 1.57557
-0.225373 -0.076735899 1.58789
-0.262909 -0.107227 1.44484
-0.275794 -0.10371 1.49571
-0.66725099 -0.129033 1.2559299
-0.268749 -0.117694 1.46591
-0.269023 -0.11938 1.53043
-0.095904797 -0.10025 1.74603
-0.29455799 -0.197392 1.44959
-0.125992 -0.175292 1.69753
-0.249734 -0.175374 1.63108
-0.297414 -0.204239 1.50699
-0.14852799 -0.18024699 1.70181
-0.138831 -0.177092 1.71358
-0.149286 -0.183175 1.6885999
-0.204969 -0.18616299 1.6608599
-0.192048 -0.183136 1.67777
-0.115807 -0.183456 1.7583801
-0.68154401 -0.221205 1.3506
0.17751899 0.35011199 1.3587
0.165714 0.31299901 1.39411
0.0116366 0.26514399 1.63965
0.00485601 0.27010399 1.69318
0.068802603 0.25600001 1.50169
0.078434601 0.223534 1.44809
0.037298098 0.231719 1.60645
0.106406 0.210833 1.35
0.140358 0.212758 1.39205
0.024677301 0.203876 1.61667
0.134003 0.17200001 1.30858
-0.059358999 0.19419301 1.80485
0.134198 0.133279 1.24104
0.125414 0.13366701 1.36036
0.091904998 0.090099402 1.1710401
0.096241601 0.142882 1.48277
-0.14623401 0.042794101 1.45289
-0.074592203 0.093531802 1.77327
-0.090808101 0.069541603 1.77084
-0.0664066 0.034675099 1.54748
-0.147323 0.022303 1.51662
-0.164928 0.0081560202 1.4262201
-0.15557399 0.0078299399 1.53513
-0.086853802 0.0562374 1.86562
-0.47114101 -0.024873 1.37799
-0.11968 0.020559501 1.72991
-0.100444 -0.0088226404 1.6088901
-0.160372 -0.024147199 1.58548
-0.22454099 -0.046586901 1.46562
-0.110054 -0.034300402 1.6349601
-0.187567 -0.040890399 1.60223
-0.19781201 -0.044397801 1.5714099
-0.251964 -0.0721213 1.44587
-0.10529 -0.0163773 1.79796
-0.23197301 -0.076483302 1.46404
-0.232741 -0.066269897 1.5269001
-0.20132799 -0.067848802 1.59389
-0.083374001 -0.055373799 1.72016
-0.075032704 -0.076792203 1.68187
-0.079901703 -0.078845099 1.7070301
-0.25646299 -0.103901 1.56197
-0.106123 -0.135415 1.72314
0.13987701 0.30293399 1.32338
0.156388 0.16913299 1.3621
-0.099263497 0.111557 1.87799
-0.111506 0.016544599 1.6357501
-0.091810502 0.033570599 1.80086
-0.70691699 -0.056718402 1.38587
-0.24096701 -0.080099702 1.56197
-0.085480101 -0.099147096 1.70672
-0.283068 -0.14806899 1.48712
-0.099279799 -0.129647 1.67115
-0.151943 -0.195316 1.70491
0.14191701 0.40410599 1.37388
0.140228 0.31351599 1.35428
0.052777398 0.28263 1.50243
-0.52996999 0.120367 1.1946599
0.093938999 0.21021999 1.3853101
0.12579 0.16518299 1.27615
-0.082764 0.15262701 1.84811
-0.118585 0.055439401 1.36137
-0.69734401 -0.0068729199 1.34062
-0.156839 0.0175536 1.46499
-0.150178 0.0261034 1.51306
-0.098892801 0.035336599 1.54869
-0.051983401 0.0400966 1.55975
-0.094508998 0.067912899 1.77121
-0.070066899 0.084055603 1.87896
-0.080658197 0.056029499 1.86647
-0.186707 -0.010538 1.46999
-0.19640601 -0.0384335 1.38353
-0.133975 0.0124487 1.6928
-0.096491501 0.018726001 1.72053
-0.091238298 0.032653902 1.80093
-0.11601 -0.0051114098 1.60761
-0.147321 -0.048043098 1.44268
-0.104965 0.0033559799 1.78572
-0.70688301 -0.061966401 1.3632801
-0.205026 -0.045822602 1.56945
-0.184993 -0.0392377 1.60423
-0.103291 -0.013575 1.81585
-0.70448601 -0.079244599 1.3838201
-0.211064 -0.068180501 1.59851
-0.257029 -0.085064098 1.5473
-0.066768497 -0.076786198 1.67966
-0.16574401 -0.063180603 1.63653
-0.26326799 -0.110934 1.51188
-0.239061 -0.098274 1.59001
-0.25859001 -0.107047 1.56207
-0.17094 -0.097936697 1.66417
-0.195805 -0.12813801 1.67318
-0.28409499 -0.160065 1.53768
-0.236553 -0.16122299 1.64109
-0.27136701 -0.183613 1.6424201
0.103456 0.166242 1.4237
-0.13746101 0.0118668 1.69613
-0.204363 -0.0282124 1.5186
-0.26541901 -0.117404 1.53417
0.137887 0.28152001 1.36315
0.137532 0.12792499 1.27379
-0.176595 -0.0235324 1.5501
-0.120661 -0.0570127 1.63621
0.076351203 0.378986 1.5249799
0.090245798 0.342866 1.4795001
0.120702 0.314533 1.4159499
0.122773 0.305334 1.4015501
0.159022 0.26926899 1.37108
0.054047398 0.334988 1.56761
0.045525901 0.33675599 1.59023
0.115342 0.26263699 1.4233
0.036302201 0.331375 1.6280299
0.023158601 0.32016301 1.6475101
0.0049458598 0.31066 1.65415
-0.0096266801 0.299072 1.6816601
0.0098028798 0.30223301 1.68563
-0.00133473 0.294377 1.70118
0.123293 0.147723 1.387
0.0109565 0.26174399 1.66096
-0.00390366 0.28231999 1.71655
0.088523 0.143821 1.4169
0.026308799 0.070246801 1.2759399
0.0197677 0.187141 1.5368
0.11786 0.106983 1.35981
-0.0289807 0.273931 1.76764
-0.128875 0.0469479 1.33777
-0.0255106 0.26563501 1.81381
0.064089 0.117116 1.5107501
-0.089299202 0.074573003 1.42239
0.0215073 0.16572499 1.61412
-0.157608 0.0185667 1.30172
-0.13458 0.043610699 1.35359
0.071745902 0.0889742 1.49378
-0.121096 0.049046502 1.39577
-0.150819 0.035106 1.37919
0.035143301 0.104581 1.521
-0.158703 0.0261801 1.38572
-0.13581499 0.042518198 1.43548
-0.160273 0.022300299 1.40483
-0.038602699 0.20690501 1.7973
-0.018565301 0.22441299 1.8297499
-0.028585801 0.1451 1.72607
-0.490233 -0.00608323 1.3643301
-0.088951699 0.0442679 1.5263799
-0.048698898 0.20189901 1.85744
0.016946999 0.054737002 1.58518
-0.16974001 0.00318519 1.44528
-0.035434298 0.133507 1.73952
-0.0492598 0.198549 1.87395
-0.17659 0.0033064201 1.46795
-0.49619201 -0.0291915 1.35089
-0.048325501 0.036481 1.5642999
-0.051589798 0.13940001 1.78892
-0.20687699 -0.024384299 1.48129
-0.22704101 -0.0552283 1.4216599
-0.180912 -0.0092583802 1.52858
-0.050134499 0.106492 1.7772501
-0.219979 -0.032858498 1.4812
-0.133669 0.00248056 1.5816
-0.099265598 0.0050804298 1.59879
-0.195274 -0.021429701 1.5302
-0.13805 0.036306299 1.6711
-0.23166201 -0.0522415 1.48515
-0.50472099 -0.073452502 1.38546
-0.14782301 -0.0163786 1.59475
-0.25220501 -0.082199097 1.48581
-0.090503998 0.054519899 1.80099
-0.2728 -0.121811 1.45489
-0.112294 0.00060017902 1.73581
-0.10583 -0.0099285999 1.79211
-0.270365 -0.130969 1.55373
-0.29061201 -0.172686 1.54143
-0.108823 -0.064916901 1.80038
-0.0826279 -0.167017 1.68914
-0.273965 -0.178653 1.59817
-0.296509 -0.214063 1.55163
-0.14171401 -0.266435 1.7010601
0.14252 0.45272201 1.4603
0.149716 0.42986599 1.41338
0.164066 0.211446 1.25437
0.115067 0.25418499 1.37888
0.033999 0.30130801 1.58017
0.118705 0.215473 1.37081
0.072618097 0.24146301 1.46996
0.054432899 0.25612801 1.54776
0.109582 0.15976 1.36453
0.0067253499 0.29012001 1.68406
0.054373302 0.205826 1.52727
0.042405501 0.222718 1.5858001
0.039493401 0.056248698 1.2318799
-0.0102799 0.279897 1.7584
0.0143131 0.22848301 1.64791
0.035626799 0.18131199 1.56609
0.029853599 0.19411001 1.59047
0.0128167 0.25189999 1.72681
-0.020698201 0.24371 1.768
-0.0105181 0.212238 1.71376
-0.024749801 0.22823501 1.7793601
-0.164033 0.0153432 1.39344
-0.15734699 0.024821 1.41737
-0.094214402 0.051608201 1.4837199
-0.096331201 0.049228702 1.50822
-0.022309599 0.167721 1.75361
-0.114311 0.039067201 1.5019799
-0.44420299 -0.0095316404 1.39961
-0.493965 -0.029531701 1.39094
-0.19444899 -0.015733 1.4809
-0.172212 -0.00082942599 1.51685
-0.136089 -0.0140949 1.6161799
-0.264063 -0.119638 1.5456001
-0.29208401 -0.19742499 1.53611
-0.082831897 -0.226173 1.80027
0.16093899 0.288708 1.29153
0.0775076 0.29578701 1.49246
-0.025479799 0.25183499 1.78128
-0.17850401 0.017426301 1.36835
-0.0363518 0.22432201 1.83383
-0.139788 0.038048301 1.4814
-0.179454 -0.0123422 1.46717
-0.102413 0.0107945 1.58505
-0.232251 -0.0535313 1.48323
-0.163481 -0.036943 1.59694
-0.0920472 0.057084899 1.80081
-0.263816 -0.105781 1.45933
-0.097038701 0.0061444398 1.76875
-0.25059101 -0.088780299 1.55676
-0.24309701 -0.092906304 1.5721101
-0.280844 -0.14044 1.51852
-0.29149401 -0.192232 1.50299
0.170453 0.32913801 1.31725
0.0273917 0.32722199 1.6618201
0.057970501 0.254852 1.5042599
0.044205401 0.25385001 1.57686
0.044638898 0.215205 1.5617501
0.00230393 0.26963001 1.6927299
0.041649599 0.22265001 1.5858001
0.0241514 0.204797 1.61659
0.0096335895 0.19873901 1.65302
-0.0028941401 0.21558701 1.73805
0.0043512699 0.082488403 1.47443
-0.025653001 0.226221 1.77938
-0.022458401 0.192415 1.75002
-0.148523 0.036030199 1.3974299
0.0381791 0.075884797 1.5784301
-0.060951199 0.194803 1.8045
-0.0115585 0.196262 1.84232
-0.111134 0.107916 1.65172
-0.17037401 0.0072270599 1.49257
-0.119812 0.0177665 1.56258
-0.093601704 0.0243861 1.5919
-0.065302096 0.091525704 1.77415
-0.233198 -0.075445198 1.46656
-0.074364699 0.0761825 1.79054
-0.194896 -0.0835182 1.61622
-0.12609699 -0.0623473 1.71242
-0.26293501 -0.134479 1.58962
-0.28219301 -0.162698 1.57059
0.041052401 0.223526 1.50607
0.084134303 0.20049199 1.46267
0.0220451 0.24797501 1.65687
-0.00113703 0.093455203 1.51478
-0.127685 0.040743399 1.4394701
-0.212735 -0.0297789 1.43462
-0.236958 -0.055995099 1.49479
0.097422197 0.235654 1.43691
0.154864 0.16373099 1.29831
-0.0768236 0.070381999 1.5404
-0.070092797 0.0522836 1.50309
-0.122794 0.026474001 1.64411
-0.18126699 -0.0361275 1.61025
-0.19171 -0.15648 1.6336
0.189897 0.227962 1.2523
0.119513 0.28662899 1.3405499
0.125899 0.33891499 1.4148099
0.0956164 0.37004799 1.46307
0.100474 0.248482 1.40657
0.063399903 0.35527799 1.57127
-0.134132 0.018402399 1.2628
-0.137986 0.026636001 1.2802401
-0.129263 0.042716298 1.31275
0.072957799 0.18392099 1.51987
0.086181998 0.145133 1.48324
-0.099489801 0.069169298 1.39149
-0.48173901 0.029014301 1.31292
0.0061983801 0.315285 1.70081
0.044169098 0.13942 1.54777
0.0081651304 0.089783996 1.48967
-0.086942002 0.065854698 1.454
0.073204502 0.091433197 1.51323
-0.49794099 0.015895899 1.33507
-0.13905101 0.040305302 1.43564
0.052923799 0.108643 1.54019
-0.168395 0.0164483 1.41154
-0.15581299 0.0256167 1.43642
-0.203454 -0.026948201 1.37846
0.054294098 0.091021098 1.57171
-0.152538 0.025450001 1.46386
0.038645301 0.101295 1.58678
-0.164785 0.017806301 1.47317
-0.00380094 0.197374 1.6919301
-0.17802 0.0036752699 1.45511
-0.218752 -0.0378576 1.42671
-0.21428201 -0.047070701 1.44735
-0.081462301 0.025722999 1.5711499
-0.029499801 0.032611098 1.60074
-0.093966201 0.058010399 1.62228
-0.23138601 -0.067069098 1.46448
-0.115294 0.058044799 1.6373399
-0.241556 -0.073301896 1.49402
-0.230321 -0.058220301 1.51191
-0.218631 -0.043683399 1.53453
-0.099961802 -0.0146843 1.63117
-0.0438504 0.16534799 1.81928
-0.272459 -0.119065 1.50016
0.078187503 0.334824 1.51149
0.051720299 0.0417176 1.19366
0.071614102 0.29804701 1.52729
0.10219 0.100908 1.29611
-0.612652 0.0610581 1.2445199
0.101898 0.079250403 1.33199
0.053343698 0.278662 1.56296
0.048742902 0.244574 1.54388
0.121999 0.092978798 1.39555
0.101418 0.111415 1.43887
-0.147515 0.034363601 1.33883
-0.12535501 0.053329598 1.36459
0.0224285 0.32932299 1.6954499
0.086661197 0.102174 1.45627
-0.155947 0.0288688 1.36665
0.0188726 0.25802499 1.6702
-0.099409699 0.0556917 1.44775
0.028004 0.16068 1.59674
0.092693701 0.098643802 1.5521899
0.0052477098 0.086978801 1.52361
-0.200876 -0.0149467 1.38635
0.000185554 0.193977 1.67662
0.0074900999 0.15827399 1.64333
-0.0272865 0.15821099 1.6751601
-0.0159618 0.054049298 1.59164
-0.223501 -0.052404702 1.43372
-0.116182 0.086489797 1.6405801
-0.090617798 0.0076966402 1.61532
-0.046182498 0.13839599 1.79035
-0.278052 -0.194969 1.59767
0.114653 0.17410401 1.3908
0.113883 0.090680003 1.41932
-0.109263 0.062308401 1.39042
-0.112901 0.059012402 1.40453
-0.101281 0.065734699 1.41751
0.0253627 0.162462 1.5623
-0.64894301 0.048963301 1.34903
-0.18065301 -0.0088777598 1.52802
-0.0601639 0.12654801 1.79142
-0.139882 -0.029953999 1.62051
-0.225849 -0.067596599 1.56648
-0.082664996 0.081997499 1.80742
0.092818603 0.370435 1.48286
0.115638 0.280173 1.4660701
0.056639701 0.280523 1.49861
0.118855 0.161871 1.41978
0.037262801 0.30110699 1.57929
0.056077 0.23581401 1.51924
0.042308498 0.29531199 1.60349
0.121195 0.089889102 1.3952301
0.0401644 0.25725299 1.60028
0.098816603 0.14240199 1.47974
0.020876501 0.28374001 1.6292
0.094014198 0.122664 1.46638
-0.64558601 0.041113298 1.29673
0.021383399 0.243903 1.6345
0.0130538 0.22445101 1.64749
-0.095352903 0.064088397 1.46217
-0.15702599 0.025149301 1.4164799
-0.00520636 0.24839801 1.7058901
0.0198789 0.14016999 1.60162
-0.0124661 0.27952501 1.75823
-0.15622599 0.023282601 1.46968
0.00423211 0.191945 1.67822
