ply
format ascii 1.0
comment PCL generated
element vertex 1428
property float x
property float y
property float z
element camera 0
property float view_px
property float view_py
property float view_pz
property float x_axisx
property float x_axisy
property float x_axisz
property float y_axisx
property float y_axisy
property float y_axisz
property float z_axisx
property float z_axisy
property float z_axisz
property float focal
property float scalex
property float scaley
property float centerx
property float centery
property int viewportx
property int viewporty
property float k1
property float k2
end_header
-0.50691402 0.30827302 0.97893697
-0.50691402 0.30827302 1.5739369
0.52308595 0.30827302 0.97893697
0.52308595 0.30827302 1.5739369
-0.50691402 0.31327301 0.97893697
-0.50691402 0.31327301 1.5739369
0.52308595 0.31327301 0.97893697
0.52308595 0.31327301 1.5739369
-0.50691402 0.31827301 0.97893697
-0.50691402 0.31827301 1.5739369
0.52308595 0.31827301 0.97893697
0.52308595 0.31827301 1.5739369
-0.50691402 0.323273 0.97893697
-0.50691402 0.323273 1.5739369
0.52308595 0.323273 0.97893697
0.52308595 0.323273 1.5739369
-0.50691402 0.328273 0.97893697
-0.50691402 0.328273 1.5739369
0.52308595 0.328273 0.97893697
0.52308595 0.328273 1.5739369
-0.50691402 0.33327299 0.97893697
-0.50691402 0.33327299 1.5739369
0.52308595 0.33327299 0.97893697
0.52308595 0.33327299 1.5739369
-0.50691402 0.33827299 0.97893697
-0.50691402 0.33827299 1.5739369
0.52308595 0.33827299 0.97893697
0.52308595 0.33827299 1.5739369
-0.50691402 0.34327298 0.97893697
-0.50691402 0.34327298 1.5739369
0.52308595 0.34327298 0.97893697
0.52308595 0.34327298 1.5739369
-0.50691402 0.34827298 0.97893697
-0.50691402 0.34827298 1.5739369
0.52308595 0.34827298 0.97893697
0.52308595 0.34827298 1.5739369
-0.50691402 0.35327297 0.97893697
-0.50691402 0.35327297 1.5739369
0.52308595 0.35327297 0.97893697
0.52308595 0.35327297 1.5739369
-0.50691402 0.35827297 0.97893697
-0.50691402 0.35827297 1.5739369
0.52308595 0.35827297 0.97893697
0.52308595 0.35827297 1.5739369
-0.50691402 0.36327296 0.97893697
-0.50691402 0.36327296 1.5739369
0.52308595 0.36327296 0.97893697
0.52308595 0.36327296 1.5739369
-0.50691402 0.36827302 0.97893697
-0.50691402 0.36827302 1.5739369
0.52308595 0.36827302 0.97893697
0.52308595 0.36827302 1.5739369
-0.50691402 0.37327302 0.97893697
-0.50691402 0.37327302 1.5739369
0.52308595 0.37327302 0.97893697
0.52308595 0.37327302 1.5739369
-0.50691402 0.37827301 0.97893697
-0.50691402 0.37827301 1.5739369
0.52308595 0.37827301 0.97893697
0.52308595 0.37827301 1.5739369
-0.50691402 0.38327301 0.97893697
-0.50691402 0.38327301 1.5739369
0.52308595 0.38327301 0.97893697
0.52308595 0.38327301 1.5739369
-0.50691402 0.388273 0.97893697
-0.50691402 0.388273 1.5739369
0.52308595 0.388273 0.97893697
0.52308595 0.388273 1.5739369
-0.50691402 0.393273 0.97893697
-0.50691402 0.393273 1.5739369
0.52308595 0.393273 0.97893697
0.52308595 0.393273 1.5739369
-0.50691402 0.39827299 0.97893697
-0.50691402 0.39827299 1.5739369
0.52308595 0.39827299 0.97893697
0.52308595 0.39827299 1.5739369
-0.50691402 0.40327299 0.97893697
-0.50691402 0.40327299 1.5739369
0.52308595 0.40327299 0.97893697
0.52308595 0.40327299 1.5739369
-0.50691402 0.40827298 0.97893697
-0.50691402 0.40827298 1.5739369
0.52308595 0.40827298 0.97893697
0.52308595 0.40827298 1.5739369
-0.50691402 0.41327298 0.97893697
-0.50691402 0.41327298 1.5739369
0.52308595 0.41327298 0.97893697
0.52308595 0.41327298 1.5739369
-0.50691402 0.41827297 0.97893697
-0.50691402 0.41827297 1.5739369
0.52308595 0.41827297 0.97893697
0.52308595 0.41827297 1.5739369
-0.50691402 0.42327297 0.97893697
-0.50691402 0.42327297 1.5739369
0.52308595 0.42327297 0.97893697
0.52308595 0.42327297 1.5739369
-0.50691402 0.42827302 0.97893697
-0.50691402 0.42827302 1.5739369
0.52308595 0.42827302 0.97893697
0.52308595 0.42827302 1.5739369
-0.50691402 0.43327302 0.97893697
-0.50691402 0.43327302 1.5739369
0.52308595 0.43327302 0.97893697
0.52308595 0.43327302 1.5739369
-0.50691402 0.43827301 0.97893697
-0.50691402 0.43827301 1.5739369
0.52308595 0.43827301 0.97893697
0.52308595 0.43827301 1.5739369
-0.50691402 0.44327301 0.97893697
-0.50691402 0.44327301 1.5739369
0.52308595 0.44327301 0.97893697
0.52308595 0.44327301 1.5739369
-0.50691402 0.448273 0.97893697
-0.50691402 0.448273 1.5739369
0.52308595 0.448273 0.97893697
0.52308595 0.448273 1.5739369
-0.50691402 0.453273 0.97893697
-0.50691402 0.453273 1.5739369
0.52308595 0.453273 0.97893697
0.52308595 0.453273 1.5739369
-0.50691402 0.45827299 0.97893697
-0.50691402 0.45827299 1.5739369
0.52308595 0.45827299 0.97893697
0.52308595 0.45827299 1.5739369
-0.50691402 0.46327299 0.97893697
-0.50691402 0.46327299 1.5739369
0.52308595 0.46327299 0.97893697
0.52308595 0.46327299 1.5739369
-0.50691402 0.46827298 0.97893697
-0.50691402 0.46827298 1.5739369
0.52308595 0.46827298 0.97893697
0.52308595 0.46827298 1.5739369
-0.50691402 0.47327298 0.97893697
-0.50691402 0.47327298 1.5739369
0.52308595 0.47327298 0.97893697
0.52308595 0.47327298 1.5739369
-0.50691402 0.47827297 0.97893697
-0.50691402 0.47827297 1.5739369
0.52308595 0.47827297 0.97893697
0.52308595 0.47827297 1.5739369
-0.50691402 0.48327297 0.97893697
-0.50691402 0.48327297 1.5739369
0.52308595 0.48327297 0.97893697
0.52308595 0.48327297 1.5739369
-0.50691402 0.48827296 0.97893697
-0.50691402 0.48827296 1.5739369
0.52308595 0.48827296 0.97893697
0.52308595 0.48827296 1.5739369
-0.50691402 0.49327302 0.97893697
-0.50691402 0.49327302 1.5739369
0.52308595 0.49327302 0.97893697
0.52308595 0.49327302 1.5739369
-0.50691402 0.49827302 0.97893697
-0.50691402 0.49827302 1.5739369
0.52308595 0.49827302 0.97893697
0.52308595 0.49827302 1.5739369
-0.50691402 0.50327301 0.97893697
-0.50691402 0.50327301 1.5739369
0.52308595 0.50327301 0.97893697
0.52308595 0.50327301 1.5739369
-0.50691402 0.50827301 0.97893697
-0.50691402 0.50827301 1.5739369
0.52308595 0.50827301 0.97893697
0.52308595 0.50827301 1.5739369
-0.50691402 0.513273 0.97893697
-0.50691402 0.513273 1.5739369
0.52308595 0.513273 0.97893697
0.52308595 0.513273 1.5739369
-0.50691402 0.518273 0.97893697
-0.50691402 0.518273 1.5739369
0.52308595 0.518273 0.97893697
0.52308595 0.518273 1.5739369
-0.50691402 0.52327299 0.97893697
-0.50691402 0.52327299 1.5739369
0.52308595 0.52327299 0.97893697
0.52308595 0.52327299 1.5739369
-0.50691402 0.52827299 0.97893697
-0.50691402 0.52827299 1.5739369
0.52308595 0.52827299 0.97893697
0.52308595 0.52827299 1.5739369
-0.50691402 0.53327298 0.97893697
-0.50691402 0.53327298 1.5739369
0.52308595 0.53327298 0.97893697
0.52308595 0.53327298 1.5739369
-0.50691402 0.53827298 0.97893697
-0.50691402 0.53827298 1.5739369
0.52308595 0.53827298 0.97893697
0.52308595 0.53827298 1.5739369
-0.50691402 0.54327297 0.97893697
-0.50691402 0.54327297 1.5739369
0.52308595 0.54327297 0.97893697
0.52308595 0.54327297 1.5739369
-0.50691402 0.54827297 0.97893697
-0.50691402 0.54827297 1.5739369
0.52308595 0.54827297 0.97893697
0.52308595 0.54827297 1.5739369
-0.50691402 0.55327296 0.97893697
-0.50691402 0.55327296 1.5739369
0.52308595 0.55327296 0.97893697
0.52308595 0.55327296 1.5739369
-0.50691402 0.55827302 0.97893697
-0.50691402 0.55827302 1.5739369
0.52308595 0.55827302 0.97893697
0.52308595 0.55827302 1.5739369
-0.50691402 0.56327301 0.97893697
-0.50691402 0.56327301 1.5739369
0.52308595 0.56327301 0.97893697
0.52308595 0.56327301 1.5739369
-0.50691402 0.56827301 0.97893697
-0.50691402 0.56827301 1.5739369
0.52308595 0.56827301 0.97893697
0.52308595 0.56827301 1.5739369
-0.50691402 0.573273 0.97893697
-0.50691402 0.573273 1.5739369
0.52308595 0.573273 0.97893697
0.52308595 0.573273 1.5739369
-0.50691402 0.578273 0.97893697
-0.50691402 0.578273 1.5739369
0.52308595 0.578273 0.97893697
0.52308595 0.578273 1.5739369
-0.50691402 0.58327299 0.97893697
-0.50691402 0.58327299 1.5739369
0.52308595 0.58327299 0.97893697
0.52308595 0.58327299 1.5739369
-0.50691402 0.58827299 0.97893697
-0.50691402 0.58827299 1.5739369
0.52308595 0.58827299 0.97893697
0.52308595 0.58827299 1.5739369
-0.50691402 0.59327298 0.97893697
-0.50691402 0.59327298 1.5739369
0.52308595 0.59327298 0.97893697
0.52308595 0.59327298 1.5739369
-0.50691402 0.59827298 0.97893697
-0.50691402 0.59827298 1.5739369
0.52308595 0.59827298 0.97893697
0.52308595 0.59827298 1.5739369
-0.50691402 0.60327297 0.97893697
-0.50691402 0.60327297 1.5739369
0.52308595 0.60327297 0.97893697
0.52308595 0.60327297 1.5739369
-0.50691402 0.60827297 0.97893697
-0.50691402 0.60827297 1.5739369
0.52308595 0.60827297 0.97893697
0.52308595 0.60827297 1.5739369
-0.50691402 0.61327296 0.97893697
-0.50691402 0.61327296 1.5739369
0.52308595 0.61327296 0.97893697
0.52308595 0.61327296 1.5739369
-0.50691402 0.61827296 0.97893697
-0.50691402 0.61827296 1.5739369
0.52308595 0.61827296 0.97893697
0.52308595 0.61827296 1.5739369
-0.50691402 0.62327296 0.97893697
-0.50691402 0.62327296 1.5739369
0.52308595 0.62327296 0.97893697
0.52308595 0.62327296 1.5739369
-0.50691402 0.62827295 0.97893697
-0.50691402 0.62827295 1.5739369
0.52308595 0.62827295 0.97893697
0.52308595 0.62827295 1.5739369
-0.50691402 0.63327295 0.97893697
-0.50691402 0.63327295 1.5739369
0.52308595 0.63327295 0.97893697
0.52308595 0.63327295 1.5739369
-0.50691402 0.63827294 0.97893697
-0.50691402 0.63827294 1.5739369
0.52308595 0.63827294 0.97893697
0.52308595 0.63827294 1.5739369
-0.50691402 0.64327294 0.97893697
-0.50691402 0.64327294 1.5739369
0.52308595 0.64327294 0.97893697
0.52308595 0.64327294 1.5739369
-0.50691402 0.64827293 0.97893697
-0.50691402 0.64827293 1.5739369
0.52308595 0.64827293 0.97893697
0.52308595 0.64827293 1.5739369
-0.50691402 0.65327305 0.97893697
-0.50691402 0.65327305 1.5739369
0.52308595 0.65327305 0.97893697
0.52308595 0.65327305 1.5739369
-0.50691402 0.65827304 0.97893697
-0.50691402 0.65827304 1.5739369
0.52308595 0.65827304 0.97893697
0.52308595 0.65827304 1.5739369
-0.50691402 0.66327304 0.97893697
-0.50691402 0.66327304 1.5739369
0.52308595 0.66327304 0.97893697
0.52308595 0.66327304 1.5739369
-0.50691402 0.66827303 0.97893697
-0.50691402 0.66827303 1.5739369
0.52308595 0.66827303 0.97893697
0.52308595 0.66827303 1.5739369
-0.50691402 0.67327303 0.97893697
-0.50691402 0.67327303 1.5739369
0.52308595 0.67327303 0.97893697
0.52308595 0.67327303 1.5739369
-0.50691402 0.67827302 0.97893697
-0.50691402 0.67827302 1.5739369
0.52308595 0.67827302 0.97893697
0.52308595 0.67827302 1.5739369
-0.50691402 0.68327302 0.97893697
-0.50691402 0.68327302 1.5739369
0.52308595 0.68327302 0.97893697
0.52308595 0.68327302 1.5739369
-0.50691402 0.68827301 0.97893697
-0.50691402 0.68827301 1.5739369
0.52308595 0.68827301 0.97893697
0.52308595 0.68827301 1.5739369
-0.50691402 -0.43672699 0.97893697
-0.50691402 0.68827301 0.97893697
0.52308595 -0.43672699 0.97893697
0.52308595 0.68827301 0.97893697
-0.50691402 -0.43672699 0.98393697
-0.50691402 0.68827301 0.98393697
0.52308595 -0.43672699 0.98393697
0.52308595 0.68827301 0.98393697
-0.50691402 -0.43672699 0.98893696
-0.50691402 0.68827301 0.98893696
0.52308595 -0.43672699 0.98893696
0.52308595 0.68827301 0.98893696
-0.50691402 -0.43672699 0.99393696
-0.50691402 0.68827301 0.99393696
0.52308595 -0.43672699 0.99393696
0.52308595 0.68827301 0.99393696
-0.50691402 -0.43672699 0.99893695
-0.50691402 0.68827301 0.99893695
0.52308595 -0.43672699 0.99893695
0.52308595 0.68827301 0.99893695
-0.50691402 -0.43672699 1.003937
-0.50691402 0.68827301 1.003937
0.52308595 -0.43672699 1.003937
0.52308595 0.68827301 1.003937
-0.50691402 -0.43672699 1.008937
-0.50691402 0.68827301 1.008937
0.52308595 -0.43672699 1.008937
0.52308595 0.68827301 1.008937
-0.50691402 -0.43672699 1.013937
-0.50691402 0.68827301 1.013937
0.52308595 -0.43672699 1.013937
0.52308595 0.68827301 1.013937
-0.50691402 -0.43672699 1.018937
-0.50691402 0.68827301 1.018937
0.52308595 -0.43672699 1.018937
0.52308595 0.68827301 1.018937
-0.50691402 -0.43672699 1.023937
-0.50691402 0.68827301 1.023937
0.52308595 -0.43672699 1.023937
0.52308595 0.68827301 1.023937
-0.50691402 -0.43672699 1.028937
-0.50691402 0.68827301 1.028937
0.52308595 -0.43672699 1.028937
0.52308595 0.68827301 1.028937
-0.50691402 -0.43672699 1.033937
-0.50691402 0.68827301 1.033937
0.52308595 -0.43672699 1.033937
0.52308595 0.68827301 1.033937
-0.50691402 -0.43672699 1.038937
-0.50691402 0.68827301 1.038937
0.52308595 -0.43672699 1.038937
0.52308595 0.68827301 1.038937
-0.50691402 -0.43672699 1.043937
-0.50691402 0.68827301 1.043937
0.52308595 -0.43672699 1.043937
0.52308595 0.68827301 1.043937
-0.50691402 -0.43672699 1.048937
-0.50691402 0.68827301 1.048937
0.52308595 -0.43672699 1.048937
0.52308595 0.68827301 1.048937
-0.50691402 -0.43672699 1.053937
-0.50691402 0.68827301 1.053937
0.52308595 -0.43672699 1.053937
0.52308595 0.68827301 1.053937
-0.50691402 -0.43672699 1.058937
-0.50691402 0.68827301 1.058937
0.52308595 -0.43672699 1.058937
0.52308595 0.68827301 1.058937
-0.50691402 -0.43672699 1.0639369
-0.50691402 0.68827301 1.0639369
0.52308595 -0.43672699 1.0639369
0.52308595 0.68827301 1.0639369
-0.50691402 -0.43672699 1.0689369
-0.50691402 0.68827301 1.0689369
0.52308595 -0.43672699 1.0689369
0.52308595 0.68827301 1.0689369
-0.50691402 -0.43672699 1.0739369
-0.50691402 0.68827301 1.0739369
0.52308595 -0.43672699 1.0739369
0.52308595 0.68827301 1.0739369
-0.50691402 -0.43672699 1.0789369
-0.50691402 0.68827301 1.0789369
0.52308595 -0.43672699 1.0789369
0.52308595 0.68827301 1.0789369
-0.50691402 -0.43672699 1.0839369
-0.50691402 0.68827301 1.0839369
0.52308595 -0.43672699 1.0839369
0.52308595 0.68827301 1.0839369
-0.50691402 -0.43672699 1.0889369
-0.50691402 0.68827301 1.0889369
0.52308595 -0.43672699 1.0889369
0.52308595 0.68827301 1.0889369
-0.50691402 -0.43672699 1.0939369
-0.50691402 0.68827301 1.0939369
0.52308595 -0.43672699 1.0939369
0.52308595 0.68827301 1.0939369
-0.50691402 -0.43672699 1.0989369
-0.50691402 0.68827301 1.0989369
0.52308595 -0.43672699 1.0989369
0.52308595 0.68827301 1.0989369
-0.50691402 -0.43672699 1.1039369
-0.50691402 0.68827301 1.1039369
0.52308595 -0.43672699 1.1039369
0.52308595 0.68827301 1.1039369
-0.50691402 -0.43672699 1.108937
-0.50691402 0.68827301 1.108937
0.52308595 -0.43672699 1.108937
0.52308595 0.68827301 1.108937
-0.50691402 -0.43672699 1.1139369
-0.50691402 0.68827301 1.1139369
0.52308595 -0.43672699 1.1139369
0.52308595 0.68827301 1.1139369
-0.50691402 -0.43672699 1.118937
-0.50691402 0.68827301 1.118937
0.52308595 -0.43672699 1.118937
0.52308595 0.68827301 1.118937
-0.50691402 -0.43672699 1.123937
-0.50691402 0.68827301 1.123937
0.52308595 -0.43672699 1.123937
0.52308595 0.68827301 1.123937
-0.50691402 -0.43672699 1.128937
-0.50691402 0.68827301 1.128937
0.52308595 -0.43672699 1.128937
0.52308595 0.68827301 1.128937
-0.50691402 -0.43672699 1.133937
-0.50691402 0.68827301 1.133937
0.52308595 -0.43672699 1.133937
0.52308595 0.68827301 1.133937
-0.50691402 -0.43672699 1.138937
-0.50691402 0.68827301 1.138937
0.52308595 -0.43672699 1.138937
0.52308595 0.68827301 1.138937
-0.50691402 -0.43672699 1.143937
-0.50691402 0.68827301 1.143937
0.52308595 -0.43672699 1.143937
0.52308595 0.68827301 1.143937
-0.50691402 -0.43672699 1.148937
-0.50691402 0.68827301 1.148937
0.52308595 -0.43672699 1.148937
0.52308595 0.68827301 1.148937
-0.50691402 -0.43672699 1.153937
-0.50691402 0.68827301 1.153937
0.52308595 -0.43672699 1.153937
0.52308595 0.68827301 1.153937
-0.50691402 -0.43672699 1.158937
-0.50691402 0.68827301 1.158937
0.52308595 -0.43672699 1.158937
0.52308595 0.68827301 1.158937
-0.50691402 -0.43672699 1.163937
-0.50691402 0.68827301 1.163937
0.52308595 -0.43672699 1.163937
0.52308595 0.68827301 1.163937
-0.50691402 -0.43672699 1.168937
-0.50691402 0.68827301 1.168937
0.52308595 -0.43672699 1.168937
0.52308595 0.68827301 1.168937
-0.50691402 -0.43672699 1.173937
-0.50691402 0.68827301 1.173937
0.52308595 -0.43672699 1.173937
0.52308595 0.68827301 1.173937
-0.50691402 -0.43672699 1.178937
-0.50691402 0.68827301 1.178937
0.52308595 -0.43672699 1.178937
0.52308595 0.68827301 1.178937
-0.50691402 -0.43672699 1.183937
-0.50691402 0.68827301 1.183937
0.52308595 -0.43672699 1.183937
0.52308595 0.68827301 1.183937
-0.50691402 -0.43672699 1.1889369
-0.50691402 0.68827301 1.1889369
0.52308595 -0.43672699 1.1889369
0.52308595 0.68827301 1.1889369
-0.50691402 -0.43672699 1.1939369
-0.50691402 0.68827301 1.1939369
0.52308595 -0.43672699 1.1939369
0.52308595 0.68827301 1.1939369
-0.50691402 -0.43672699 1.1989369
-0.50691402 0.68827301 1.1989369
0.52308595 -0.43672699 1.1989369
0.52308595 0.68827301 1.1989369
-0.50691402 -0.43672699 1.2039369
-0.50691402 0.68827301 1.2039369
0.52308595 -0.43672699 1.2039369
0.52308595 0.68827301 1.2039369
-0.50691402 -0.43672699 1.2089369
-0.50691402 0.68827301 1.2089369
0.52308595 -0.43672699 1.2089369
0.52308595 0.68827301 1.2089369
-0.50691402 -0.43672699 1.2139369
-0.50691402 0.68827301 1.2139369
0.52308595 -0.43672699 1.2139369
0.52308595 0.68827301 1.2139369
-0.50691402 -0.43672699 1.2189369
-0.50691402 0.68827301 1.2189369
0.52308595 -0.43672699 1.2189369
0.52308595 0.68827301 1.2189369
-0.50691402 -0.43672699 1.2239369
-0.50691402 0.68827301 1.2239369
0.52308595 -0.43672699 1.2239369
0.52308595 0.68827301 1.2239369
-0.50691402 -0.43672699 1.2289369
-0.50691402 0.68827301 1.2289369
0.52308595 -0.43672699 1.2289369
0.52308595 0.68827301 1.2289369
-0.50691402 -0.43672699 1.233937
-0.50691402 0.68827301 1.233937
0.52308595 -0.43672699 1.233937
0.52308595 0.68827301 1.233937
-0.50691402 -0.43672699 1.2389369
-0.50691402 0.68827301 1.2389369
0.52308595 -0.43672699 1.2389369
0.52308595 0.68827301 1.2389369
-0.50691402 -0.43672699 1.243937
-0.50691402 0.68827301 1.243937
0.52308595 -0.43672699 1.243937
0.52308595 0.68827301 1.243937
-0.50691402 -0.43672699 1.2489369
-0.50691402 0.68827301 1.2489369
0.52308595 -0.43672699 1.2489369
0.52308595 0.68827301 1.2489369
-0.50691402 -0.43672699 1.253937
-0.50691402 0.68827301 1.253937
0.52308595 -0.43672699 1.253937
0.52308595 0.68827301 1.253937
-0.50691402 -0.43672699 1.258937
-0.50691402 0.68827301 1.258937
0.52308595 -0.43672699 1.258937
0.52308595 0.68827301 1.258937
-0.50691402 -0.43672699 1.263937
-0.50691402 0.68827301 1.263937
0.52308595 -0.43672699 1.263937
0.52308595 0.68827301 1.263937
-0.50691402 -0.43672699 1.268937
-0.50691402 0.68827301 1.268937
0.52308595 -0.43672699 1.268937
0.52308595 0.68827301 1.268937
-0.50691402 -0.43672699 1.273937
-0.50691402 0.68827301 1.273937
0.52308595 -0.43672699 1.273937
0.52308595 0.68827301 1.273937
-0.50691402 -0.43672699 1.278937
-0.50691402 0.68827301 1.278937
0.52308595 -0.43672699 1.278937
0.52308595 0.68827301 1.278937
-0.50691402 -0.43672699 1.283937
-0.50691402 0.68827301 1.283937
0.52308595 -0.43672699 1.283937
0.52308595 0.68827301 1.283937
-0.50691402 -0.43672699 1.288937
-0.50691402 0.68827301 1.288937
0.52308595 -0.43672699 1.288937
0.52308595 0.68827301 1.288937
-0.50691402 -0.43672699 1.293937
-0.50691402 0.68827301 1.293937
0.52308595 -0.43672699 1.293937
0.52308595 0.68827301 1.293937
-0.50691402 -0.43672699 1.298937
-0.50691402 0.68827301 1.298937
0.52308595 -0.43672699 1.298937
0.52308595 0.68827301 1.298937
-0.50691402 -0.43672699 1.303937
-0.50691402 0.68827301 1.303937
0.52308595 -0.43672699 1.303937
0.52308595 0.68827301 1.303937
-0.50691402 -0.43672699 1.308937
-0.50691402 0.68827301 1.308937
0.52308595 -0.43672699 1.308937
0.52308595 0.68827301 1.308937
-0.50691402 -0.43672699 1.3139369
-0.50691402 0.68827301 1.3139369
0.52308595 -0.43672699 1.3139369
0.52308595 0.68827301 1.3139369
-0.50691402 -0.43672699 1.3189369
-0.50691402 0.68827301 1.3189369
0.52308595 -0.43672699 1.3189369
0.52308595 0.68827301 1.3189369
-0.50691402 -0.43672699 1.3239369
-0.50691402 0.68827301 1.3239369
0.52308595 -0.43672699 1.3239369
0.52308595 0.68827301 1.3239369
-0.50691402 -0.43672699 1.3289369
-0.50691402 0.68827301 1.3289369
0.52308595 -0.43672699 1.3289369
0.52308595 0.68827301 1.3289369
-0.50691402 -0.43672699 1.3339369
-0.50691402 0.68827301 1.3339369
0.52308595 -0.43672699 1.3339369
0.52308595 0.68827301 1.3339369
-0.50691402 -0.43672699 1.3389369
-0.50691402 0.68827301 1.3389369
0.52308595 -0.43672699 1.3389369
0.52308595 0.68827301 1.3389369
-0.50691402 -0.43672699 1.3439369
-0.50691402 0.68827301 1.3439369
0.52308595 -0.43672699 1.3439369
0.52308595 0.68827301 1.3439369
-0.50691402 -0.43672699 1.348937
-0.50691402 0.68827301 1.348937
0.52308595 -0.43672699 1.348937
0.52308595 0.68827301 1.348937
-0.50691402 -0.43672699 1.3539369
-0.50691402 0.68827301 1.3539369
0.52308595 -0.43672699 1.3539369
0.52308595 0.68827301 1.3539369
-0.50691402 -0.43672699 1.358937
-0.50691402 0.68827301 1.358937
0.52308595 -0.43672699 1.358937
0.52308595 0.68827301 1.358937
-0.50691402 -0.43672699 1.3639369
-0.50691402 0.68827301 1.3639369
0.52308595 -0.43672699 1.3639369
0.52308595 0.68827301 1.3639369
-0.50691402 -0.43672699 1.368937
-0.50691402 0.68827301 1.368937
0.52308595 -0.43672699 1.368937
0.52308595 0.68827301 1.368937
-0.50691402 -0.43672699 1.3739369
-0.50691402 0.68827301 1.3739369
0.52308595 -0.43672699 1.3739369
0.52308595 0.68827301 1.3739369
-0.50691402 -0.43672699 1.378937
-0.50691402 0.68827301 1.378937
0.52308595 -0.43672699 1.378937
0.52308595 0.68827301 1.378937
-0.50691402 -0.43672699 1.383937
-0.50691402 0.68827301 1.383937
0.52308595 -0.43672699 1.383937
0.52308595 0.68827301 1.383937
-0.50691402 -0.43672699 1.388937
-0.50691402 0.68827301 1.388937
0.52308595 -0.43672699 1.388937
0.52308595 0.68827301 1.388937
-0.50691402 -0.43672699 1.393937
-0.50691402 0.68827301 1.393937
0.52308595 -0.43672699 1.393937
0.52308595 0.68827301 1.393937
-0.50691402 -0.43672699 1.398937
-0.50691402 0.68827301 1.398937
0.52308595 -0.43672699 1.398937
0.52308595 0.68827301 1.398937
-0.50691402 -0.43672699 1.403937
-0.50691402 0.68827301 1.403937
0.52308595 -0.43672699 1.403937
0.52308595 0.68827301 1.403937
-0.50691402 -0.43672699 1.408937
-0.50691402 0.68827301 1.408937
0.52308595 -0.43672699 1.408937
0.52308595 0.68827301 1.408937
-0.50691402 -0.43672699 1.413937
-0.50691402 0.68827301 1.413937
0.52308595 -0.43672699 1.413937
0.52308595 0.68827301 1.413937
-0.50691402 -0.43672699 1.418937
-0.50691402 0.68827301 1.418937
0.52308595 -0.43672699 1.418937
0.52308595 0.68827301 1.418937
-0.50691402 -0.43672699 1.423937
-0.50691402 0.68827301 1.423937
0.52308595 -0.43672699 1.423937
0.52308595 0.68827301 1.423937
-0.50691402 -0.43672699 1.428937
-0.50691402 0.68827301 1.428937
0.52308595 -0.43672699 1.428937
0.52308595 0.68827301 1.428937
-0.50691402 -0.43672699 1.433937
-0.50691402 0.68827301 1.433937
0.52308595 -0.43672699 1.433937
0.52308595 0.68827301 1.433937
-0.50691402 -0.43672699 1.4389369
-0.50691402 0.68827301 1.4389369
0.52308595 -0.43672699 1.4389369
0.52308595 0.68827301 1.4389369
-0.50691402 -0.43672699 1.4439369
-0.50691402 0.68827301 1.4439369
0.52308595 -0.43672699 1.4439369
0.52308595 0.68827301 1.4439369
-0.50691402 -0.43672699 1.4489369
-0.50691402 0.68827301 1.4489369
0.52308595 -0.43672699 1.4489369
0.52308595 0.68827301 1.4489369
-0.50691402 -0.43672699 1.4539369
-0.50691402 0.68827301 1.4539369
0.52308595 -0.43672699 1.4539369
0.52308595 0.68827301 1.4539369
-0.50691402 -0.43672699 1.4589369
-0.50691402 0.68827301 1.4589369
0.52308595 -0.43672699 1.4589369
0.52308595 0.68827301 1.4589369
-0.50691402 -0.43672699 1.4639369
-0.50691402 0.68827301 1.4639369
0.52308595 -0.43672699 1.4639369
0.52308595 0.68827301 1.4639369
-0.50691402 -0.43672699 1.4689369
-0.50691402 0.68827301 1.4689369
0.52308595 -0.43672699 1.4689369
0.52308595 0.68827301 1.4689369
-0.50691402 -0.43672699 1.4739369
-0.50691402 0.68827301 1.4739369
0.52308595 -0.43672699 1.4739369
0.52308595 0.68827301 1.4739369
-0.50691402 -0.43672699 1.4789369
-0.50691402 0.68827301 1.4789369
0.52308595 -0.43672699 1.4789369
0.52308595 0.68827301 1.4789369
-0.50691402 -0.43672699 1.483937
-0.50691402 0.68827301 1.483937
0.52308595 -0.43672699 1.483937
0.52308595 0.68827301 1.483937
-0.50691402 -0.43672699 1.4889369
-0.50691402 0.68827301 1.4889369
0.52308595 -0.43672699 1.4889369
0.52308595 0.68827301 1.4889369
-0.50691402 -0.43672699 1.493937
-0.50691402 0.68827301 1.493937
0.52308595 -0.43672699 1.493937
0.52308595 0.68827301 1.493937
-0.50691402 -0.43672699 1.4989369
-0.50691402 0.68827301 1.4989369
0.52308595 -0.43672699 1.4989369
0.52308595 0.68827301 1.4989369
-0.50691402 -0.43672699 1.503937
-0.50691402 0.68827301 1.503937
0.52308595 -0.43672699 1.503937
0.52308595 0.68827301 1.503937
-0.50691402 -0.43672699 1.5089369
-0.50691402 0.68827301 1.5089369
0.52308595 -0.43672699 1.5089369
0.52308595 0.68827301 1.5089369
-0.50691402 -0.43672699 1.513937
-0.50691402 0.68827301 1.513937
0.52308595 -0.43672699 1.513937
0.52308595 0.68827301 1.513937
-0.50691402 -0.43672699 1.5189369
-0.50691402 0.68827301 1.5189369
0.52308595 -0.43672699 1.5189369
0.52308595 0.68827301 1.5189369
-0.50691402 -0.43672699 1.523937
-0.50691402 0.68827301 1.523937
0.52308595 -0.43672699 1.523937
0.52308595 0.68827301 1.523937
-0.50691402 -0.43672699 1.528937
-0.50691402 0.68827301 1.528937
0.52308595 -0.43672699 1.528937
0.52308595 0.68827301 1.528937
-0.50691402 -0.43672699 1.533937
-0.50691402 0.68827301 1.533937
0.52308595 -0.43672699 1.533937
0.52308595 0.68827301 1.533937
-0.50691402 -0.43672699 1.538937
-0.50691402 0.68827301 1.538937
0.52308595 -0.43672699 1.538937
0.52308595 0.68827301 1.538937
-0.50691402 -0.43672699 1.543937
-0.50691402 0.68827301 1.543937
0.52308595 -0.43672699 1.543937
0.52308595 0.68827301 1.543937
-0.50691402 -0.43672699 1.548937
-0.50691402 0.68827301 1.548937
0.52308595 -0.43672699 1.548937
0.52308595 0.68827301 1.548937
-0.50691402 -0.43672699 1.553937
-0.50691402 0.68827301 1.553937
0.52308595 -0.43672699 1.553937
0.52308595 0.68827301 1.553937
-0.50691402 -0.43672699 1.558937
-0.50691402 0.68827301 1.558937
0.52308595 -0.43672699 1.558937
0.52308595 0.68827301 1.558937
-0.50691402 -0.43672699 1.5639369
-0.50691402 0.68827301 1.5639369
0.52308595 -0.43672699 1.5639369
0.52308595 0.68827301 1.5639369
-0.50691402 -0.43672699 1.5689369
-0.50691402 0.68827301 1.5689369
0.52308595 -0.43672699 1.5689369
0.52308595 0.68827301 1.5689369
-0.50691402 -0.43672699 1.5739369
-0.50691402 0.68827301 1.5739369
0.52308595 -0.43672699 1.5739369
0.52308595 0.68827301 1.5739369
-0.50691402 -0.43672699 0.97893697
-0.50691402 0.68827301 0.97893697
-0.50691402 -0.43672699 1.5739369
-0.50691402 0.68827301 1.5739369
-0.50191402 -0.43672699 0.97893697
-0.50191402 0.68827301 0.97893697
-0.50191402 -0.43672699 1.5739369
-0.50191402 0.68827301 1.5739369
-0.49691403 -0.43672699 0.97893697
-0.49691403 0.68827301 0.97893697
-0.49691403 -0.43672699 1.5739369
-0.49691403 0.68827301 1.5739369
-0.49191403 -0.43672699 0.97893697
-0.49191403 0.68827301 0.97893697
-0.49191403 -0.43672699 1.5739369
-0.49191403 0.68827301 1.5739369
-0.48691401 -0.43672699 0.97893697
-0.48691401 0.68827301 0.97893697
-0.48691401 -0.43672699 1.5739369
-0.48691401 0.68827301 1.5739369
-0.48191401 -0.43672699 0.97893697
-0.48191401 0.68827301 0.97893697
-0.48191401 -0.43672699 1.5739369
-0.48191401 0.68827301 1.5739369
-0.47691402 -0.43672699 0.97893697
-0.47691402 0.68827301 0.97893697
-0.47691402 -0.43672699 1.5739369
-0.47691402 0.68827301 1.5739369
-0.47191402 -0.43672699 0.97893697
-0.47191402 0.68827301 0.97893697
-0.47191402 -0.43672699 1.5739369
-0.47191402 0.68827301 1.5739369
-0.46691403 -0.43672699 0.97893697
-0.46691403 0.68827301 0.97893697
-0.46691403 -0.43672699 1.5739369
-0.46691403 0.68827301 1.5739369
-0.46191403 -0.43672699 0.97893697
-0.46191403 0.68827301 0.97893697
-0.46191403 -0.43672699 1.5739369
-0.46191403 0.68827301 1.5739369
-0.45691401 -0.43672699 0.97893697
-0.45691401 0.68827301 0.97893697
-0.45691401 -0.43672699 1.5739369
-0.45691401 0.68827301 1.5739369
-0.45191401 -0.43672699 0.97893697
-0.45191401 0.68827301 0.97893697
-0.45191401 -0.43672699 1.5739369
-0.45191401 0.68827301 1.5739369
-0.44691402 -0.43672699 0.97893697
-0.44691402 0.68827301 0.97893697
-0.44691402 -0.43672699 1.5739369
-0.44691402 0.68827301 1.5739369
-0.44191402 -0.43672699 0.97893697
-0.44191402 0.68827301 0.97893697
-0.44191402 -0.43672699 1.5739369
-0.44191402 0.68827301 1.5739369
-0.43691403 -0.43672699 0.97893697
-0.43691403 0.68827301 0.97893697
-0.43691403 -0.43672699 1.5739369
-0.43691403 0.68827301 1.5739369
-0.43191403 -0.43672699 0.97893697
-0.43191403 0.68827301 0.97893697
-0.43191403 -0.43672699 1.5739369
-0.43191403 0.68827301 1.5739369
-0.42691404 -0.43672699 0.97893697
-0.42691404 0.68827301 0.97893697
-0.42691404 -0.43672699 1.5739369
-0.42691404 0.68827301 1.5739369
-0.42191401 -0.43672699 0.97893697
-0.42191401 0.68827301 0.97893697
-0.42191401 -0.43672699 1.5739369
-0.42191401 0.68827301 1.5739369
-0.41691402 -0.43672699 0.97893697
-0.41691402 0.68827301 0.97893697
-0.41691402 -0.43672699 1.5739369
-0.41691402 0.68827301 1.5739369
-0.41191402 -0.43672699 0.97893697
-0.41191402 0.68827301 0.97893697
-0.41191402 -0.43672699 1.5739369
-0.41191402 0.68827301 1.5739369
-0.40691403 -0.43672699 0.97893697
-0.40691403 0.68827301 0.97893697
-0.40691403 -0.43672699 1.5739369
-0.40691403 0.68827301 1.5739369
-0.40191403 -0.43672699 0.97893697
-0.40191403 0.68827301 0.97893697
-0.40191403 -0.43672699 1.5739369
-0.40191403 0.68827301 1.5739369
-0.39691401 -0.43672699 0.97893697
-0.39691401 0.68827301 0.97893697
-0.39691401 -0.43672699 1.5739369
-0.39691401 0.68827301 1.5739369
-0.39191401 -0.43672699 0.97893697
-0.39191401 0.68827301 0.97893697
-0.39191401 -0.43672699 1.5739369
-0.39191401 0.68827301 1.5739369
-0.38691401 -0.43672699 0.97893697
-0.38691401 0.68827301 0.97893697
-0.38691401 -0.43672699 1.5739369
-0.38691401 0.68827301 1.5739369
-0.38191402 -0.43672699 0.97893697
-0.38191402 0.68827301 0.97893697
-0.38191402 -0.43672699 1.5739369
-0.38191402 0.68827301 1.5739369
-0.37691402 -0.43672699 0.97893697
-0.37691402 0.68827301 0.97893697
-0.37691402 -0.43672699 1.5739369
-0.37691402 0.68827301 1.5739369
-0.37191403 -0.43672699 0.97893697
-0.37191403 0.68827301 0.97893697
-0.37191403 -0.43672699 1.5739369
-0.37191403 0.68827301 1.5739369
-0.36691403 -0.43672699 0.97893697
-0.36691403 0.68827301 0.97893697
-0.36691403 -0.43672699 1.5739369
-0.36691403 0.68827301 1.5739369
-0.36191404 -0.43672699 0.97893697
-0.36191404 0.68827301 0.97893697
-0.36191404 -0.43672699 1.5739369
-0.36191404 0.68827301 1.5739369
-0.35691404 -0.43672699 0.97893697
-0.35691404 0.68827301 0.97893697
-0.35691404 -0.43672699 1.5739369
-0.35691404 0.68827301 1.5739369
-0.35191402 -0.43672699 0.97893697
-0.35191402 0.68827301 0.97893697
-0.35191402 -0.43672699 1.5739369
-0.35191402 0.68827301 1.5739369
-0.34691402 -0.43672699 0.97893697
-0.34691402 0.68827301 0.97893697
-0.34691402 -0.43672699 1.5739369
-0.34691402 0.68827301 1.5739369
-0.34191403 -0.43672699 0.97893697
-0.34191403 0.68827301 0.97893697
-0.34191403 -0.43672699 1.5739369
-0.34191403 0.68827301 1.5739369
-0.336914 -0.43672699 0.97893697
-0.336914 0.68827301 0.97893697
-0.336914 -0.43672699 1.5739369
-0.336914 0.68827301 1.5739369
-0.33191401 -0.43672699 0.97893697
-0.33191401 0.68827301 0.97893697
-0.33191401 -0.43672699 1.5739369
-0.33191401 0.68827301 1.5739369
-0.32691401 -0.43672699 0.97893697
-0.32691401 0.68827301 0.97893697
-0.32691401 -0.43672699 1.5739369
-0.32691401 0.68827301 1.5739369
-0.32191402 -0.43672699 0.97893697
-0.32191402 0.68827301 0.97893697
-0.32191402 -0.43672699 1.5739369
-0.32191402 0.68827301 1.5739369
-0.31691402 -0.43672699 0.97893697
-0.31691402 0.68827301 0.97893697
-0.31691402 -0.43672699 1.5739369
-0.31691402 0.68827301 1.5739369
-0.31191403 -0.43672699 0.97893697
-0.31191403 0.68827301 0.97893697
-0.31191403 -0.43672699 1.5739369
-0.31191403 0.68827301 1.5739369
-0.30691403 -0.43672699 0.97893697
-0.30691403 0.68827301 0.97893697
-0.30691403 -0.43672699 1.5739369
-0.30691403 0.68827301 1.5739369
-0.30191404 -0.43672699 0.97893697
-0.30191404 0.68827301 0.97893697
-0.30191404 -0.43672699 1.5739369
-0.30191404 0.68827301 1.5739369
-0.29691404 -0.43672699 0.97893697
-0.29691404 0.68827301 0.97893697
-0.29691404 -0.43672699 1.5739369
-0.29691404 0.68827301 1.5739369
-0.29191405 -0.43672699 0.97893697
-0.29191405 0.68827301 0.97893697
-0.29191405 -0.43672699 1.5739369
-0.29191405 0.68827301 1.5739369
-0.28691402 -0.43672699 0.97893697
-0.28691402 0.68827301 0.97893697
-0.28691402 -0.43672699 1.5739369
-0.28691402 0.68827301 1.5739369
-0.28191403 -0.43672699 0.97893697
-0.28191403 0.68827301 0.97893697
-0.28191403 -0.43672699 1.5739369
-0.28191403 0.68827301 1.5739369
-0.27691403 -0.43672699 0.97893697
-0.27691403 0.68827301 0.97893697
-0.27691403 -0.43672699 1.5739369
-0.27691403 0.68827301 1.5739369
-0.27191401 -0.43672699 0.97893697
-0.27191401 0.68827301 0.97893697
-0.27191401 -0.43672699 1.5739369
-0.27191401 0.68827301 1.5739369
-0.26691401 -0.43672699 0.97893697
-0.26691401 0.68827301 0.97893697
-0.26691401 -0.43672699 1.5739369
-0.26691401 0.68827301 1.5739369
-0.26191401 -0.43672699 0.97893697
-0.26191401 0.68827301 0.97893697
-0.26191401 -0.43672699 1.5739369
-0.26191401 0.68827301 1.5739369
-0.25691402 -0.43672699 0.97893697
-0.25691402 0.68827301 0.97893697
-0.25691402 -0.43672699 1.5739369
-0.25691402 0.68827301 1.5739369
-0.25191402 -0.43672699 0.97893697
-0.25191402 0.68827301 0.97893697
-0.25191402 -0.43672699 1.5739369
-0.25191402 0.68827301 1.5739369
-0.24691403 -0.43672699 0.97893697
-0.24691403 0.68827301 0.97893697
-0.24691403 -0.43672699 1.5739369
-0.24691403 0.68827301 1.5739369
-0.24191403 -0.43672699 0.97893697
-0.24191403 0.68827301 0.97893697
-0.24191403 -0.43672699 1.5739369
-0.24191403 0.68827301 1.5739369
-0.23691404 -0.43672699 0.97893697
-0.23691404 0.68827301 0.97893697
-0.23691404 -0.43672699 1.5739369
-0.23691404 0.68827301 1.5739369
-0.23191401 -0.43672699 0.97893697
-0.23191401 0.68827301 0.97893697
-0.23191401 -0.43672699 1.5739369
-0.23191401 0.68827301 1.5739369
-0.22691402 -0.43672699 0.97893697
-0.22691402 0.68827301 0.97893697
-0.22691402 -0.43672699 1.5739369
-0.22691402 0.68827301 1.5739369
-0.22191402 -0.43672699 0.97893697
-0.22191402 0.68827301 0.97893697
-0.22191402 -0.43672699 1.5739369
-0.22191402 0.68827301 1.5739369
-0.21691403 -0.43672699 0.97893697
-0.21691403 0.68827301 0.97893697
-0.21691403 -0.43672699 1.5739369
-0.21691403 0.68827301 1.5739369
-0.21191403 -0.43672699 0.97893697
-0.21191403 0.68827301 0.97893697
-0.21191403 -0.43672699 1.5739369
-0.21191403 0.68827301 1.5739369
-0.20691404 -0.43672699 0.97893697
-0.20691404 0.68827301 0.97893697
-0.20691404 -0.43672699 1.5739369
-0.20691404 0.68827301 1.5739369
-0.20191401 -0.43672699 0.97893697
-0.20191401 0.68827301 0.97893697
-0.20191401 -0.43672699 1.5739369
-0.20191401 0.68827301 1.5739369
-0.19691402 -0.43672699 0.97893697
-0.19691402 0.68827301 0.97893697
-0.19691402 -0.43672699 1.5739369
-0.19691402 0.68827301 1.5739369
-0.19191402 -0.43672699 0.97893697
-0.19191402 0.68827301 0.97893697
-0.19191402 -0.43672699 1.5739369
-0.19191402 0.68827301 1.5739369
-0.18691403 -0.43672699 0.97893697
-0.18691403 0.68827301 0.97893697
-0.18691403 -0.43672699 1.5739369
-0.18691403 0.68827301 1.5739369
-0.18191403 -0.43672699 0.97893697
-0.18191403 0.68827301 0.97893697
-0.18191403 -0.43672699 1.5739369
-0.18191403 0.68827301 1.5739369
-0.17691404 -0.43672699 0.97893697
-0.17691404 0.68827301 0.97893697
-0.17691404 -0.43672699 1.5739369
-0.17691404 0.68827301 1.5739369
-0.17191404 -0.43672699 0.97893697
-0.17191404 0.68827301 0.97893697
-0.17191404 -0.43672699 1.5739369
-0.17191404 0.68827301 1.5739369
-0.16691402 -0.43672699 0.97893697
-0.16691402 0.68827301 0.97893697
-0.16691402 -0.43672699 1.5739369
-0.16691402 0.68827301 1.5739369
-0.16191402 -0.43672699 0.97893697
-0.16191402 0.68827301 0.97893697
-0.16191402 -0.43672699 1.5739369
-0.16191402 0.68827301 1.5739369
-0.15691403 -0.43672699 0.97893697
-0.15691403 0.68827301 0.97893697
-0.15691403 -0.43672699 1.5739369
-0.15691403 0.68827301 1.5739369
-0.15191403 -0.43672699 0.97893697
-0.15191403 0.68827301 0.97893697
-0.15191403 -0.43672699 1.5739369
-0.15191403 0.68827301 1.5739369
-0.14691404 -0.43672699 0.97893697
-0.14691404 0.68827301 0.97893697
-0.14691404 -0.43672699 1.5739369
-0.14691404 0.68827301 1.5739369
-0.14191404 -0.43672699 0.97893697
-0.14191404 0.68827301 0.97893697
-0.14191404 -0.43672699 1.5739369
-0.14191404 0.68827301 1.5739369
-0.13691401 -0.43672699 0.97893697
-0.13691401 0.68827301 0.97893697
-0.13691401 -0.43672699 1.5739369
-0.13691401 0.68827301 1.5739369
-0.13191402 -0.43672699 0.97893697
-0.13191402 0.68827301 0.97893697
-0.13191402 -0.43672699 1.5739369
-0.13191402 0.68827301 1.5739369
-0.12691402 -0.43672699 0.97893697
-0.12691402 0.68827301 0.97893697
-0.12691402 -0.43672699 1.5739369
-0.12691402 0.68827301 1.5739369
-0.12191403 -0.43672699 0.97893697
-0.12191403 0.68827301 0.97893697
-0.12191403 -0.43672699 1.5739369
-0.12191403 0.68827301 1.5739369
-0.11691403 -0.43672699 0.97893697
-0.11691403 0.68827301 0.97893697
-0.11691403 -0.43672699 1.5739369
-0.11691403 0.68827301 1.5739369
-0.11191404 -0.43672699 0.97893697
-0.11191404 0.68827301 0.97893697
-0.11191404 -0.43672699 1.5739369
-0.11191404 0.68827301 1.5739369
-0.10691404 -0.43672699 0.97893697
-0.10691404 0.68827301 0.97893697
-0.10691404 -0.43672699 1.5739369
-0.10691404 0.68827301 1.5739369
-0.10191402 -0.43672699 0.97893697
-0.10191402 0.68827301 0.97893697
-0.10191402 -0.43672699 1.5739369
-0.10191402 0.68827301 1.5739369
-0.096914023 -0.43672699 0.97893697
-0.096914023 0.68827301 0.97893697
-0.096914023 -0.43672699 1.5739369
-0.096914023 0.68827301 1.5739369
-0.091914028 -0.43672699 0.97893697
-0.091914028 0.68827301 0.97893697
-0.091914028 -0.43672699 1.5739369
-0.091914028 0.68827301 1.5739369
-0.086914033 -0.43672699 0.97893697
-0.086914033 0.68827301 0.97893697
-0.086914033 -0.43672699 1.5739369
-0.086914033 0.68827301 1.5739369
-0.081914037 -0.43672699 0.97893697
-0.081914037 0.68827301 0.97893697
-0.081914037 -0.43672699 1.5739369
-0.081914037 0.68827301 1.5739369
-0.076914042 -0.43672699 0.97893697
-0.076914042 0.68827301 0.97893697
-0.076914042 -0.43672699 1.5739369
-0.076914042 0.68827301 1.5739369
-0.071914017 -0.43672699 0.97893697
-0.071914017 0.68827301 0.97893697
-0.071914017 -0.43672699 1.5739369
-0.071914017 0.68827301 1.5739369
-0.066914022 -0.43672699 0.97893697
-0.066914022 0.68827301 0.97893697
-0.066914022 -0.43672699 1.5739369
-0.066914022 0.68827301 1.5739369
-0.061914027 -0.43672699 0.97893697
-0.061914027 0.68827301 0.97893697
-0.061914027 -0.43672699 1.5739369
-0.061914027 0.68827301 1.5739369
-0.056914032 -0.43672699 0.97893697
-0.056914032 0.68827301 0.97893697
-0.056914032 -0.43672699 1.5739369
-0.056914032 0.68827301 1.5739369
-0.051914036 -0.43672699 0.97893697
-0.051914036 0.68827301 0.97893697
-0.051914036 -0.43672699 1.5739369
-0.051914036 0.68827301 1.5739369
-0.046914041 -0.43672699 0.97893697
-0.046914041 0.68827301 0.97893697
-0.046914041 -0.43672699 1.5739369
-0.046914041 0.68827301 1.5739369
-0.041914016 -0.43672699 0.97893697
-0.041914016 0.68827301 0.97893697
-0.041914016 -0.43672699 1.5739369
-0.041914016 0.68827301 1.5739369
-0.036914021 -0.43672699 0.97893697
-0.036914021 0.68827301 0.97893697
-0.036914021 -0.43672699 1.5739369
-0.036914021 0.68827301 1.5739369
-0.031914026 -0.43672699 0.97893697
-0.031914026 0.68827301 0.97893697
-0.031914026 -0.43672699 1.5739369
-0.031914026 0.68827301 1.5739369
-0.02691403 -0.43672699 0.97893697
-0.02691403 0.68827301 0.97893697
-0.02691403 -0.43672699 1.5739369
-0.02691403 0.68827301 1.5739369
-0.021914035 -0.43672699 0.97893697
-0.021914035 0.68827301 0.97893697
-0.021914035 -0.43672699 1.5739369
-0.021914035 0.68827301 1.5739369
-0.01691404 -0.43672699 0.97893697
-0.01691404 0.68827301 0.97893697
-0.01691404 -0.43672699 1.5739369
-0.01691404 0.68827301 1.5739369
-0.011914045 -0.43672699 0.97893697
-0.011914045 0.68827301 0.97893697
-0.011914045 -0.43672699 1.5739369
-0.011914045 0.68827301 1.5739369
-0.0069140196 -0.43672699 0.97893697
-0.0069140196 0.68827301 0.97893697
-0.0069140196 -0.43672699 1.5739369
-0.0069140196 0.68827301 1.5739369
-0.0019140244 -0.43672699 0.97893697
-0.0019140244 0.68827301 0.97893697
-0.0019140244 -0.43672699 1.5739369
-0.0019140244 0.68827301 1.5739369
0.0030859709 -0.43672699 0.97893697
0.0030859709 0.68827301 0.97893697
0.0030859709 -0.43672699 1.5739369
0.0030859709 0.68827301 1.5739369
0.0080859661 -0.43672699 0.97893697
0.0080859661 0.68827301 0.97893697
0.0080859661 -0.43672699 1.5739369
0.0080859661 0.68827301 1.5739369
0.013085961 -0.43672699 0.97893697
0.013085961 0.68827301 0.97893697
0.013085961 -0.43672699 1.5739369
0.013085961 0.68827301 1.5739369
0.018085957 -0.43672699 0.97893697
0.018085957 0.68827301 0.97893697
0.018085957 -0.43672699 1.5739369
0.018085957 0.68827301 1.5739369
0.023085952 -0.43672699 0.97893697
0.023085952 0.68827301 0.97893697
0.023085952 -0.43672699 1.5739369
0.023085952 0.68827301 1.5739369
0.028085947 -0.43672699 0.97893697
0.028085947 0.68827301 0.97893697
0.028085947 -0.43672699 1.5739369
0.028085947 0.68827301 1.5739369
0.033085942 -0.43672699 0.97893697
0.033085942 0.68827301 0.97893697
0.033085942 -0.43672699 1.5739369
0.033085942 0.68827301 1.5739369
0.038085997 -0.43672699 0.97893697
0.038085997 0.68827301 0.97893697
0.038085997 -0.43672699 1.5739369
0.038085997 0.68827301 1.5739369
0.043085992 -0.43672699 0.97893697
0.043085992 0.68827301 0.97893697
0.043085992 -0.43672699 1.5739369
0.043085992 0.68827301 1.5739369
0.048085988 -0.43672699 0.97893697
0.048085988 0.68827301 0.97893697
0.048085988 -0.43672699 1.5739369
0.048085988 0.68827301 1.5739369
0.053085983 -0.43672699 0.97893697
0.053085983 0.68827301 0.97893697
0.053085983 -0.43672699 1.5739369
0.053085983 0.68827301 1.5739369
0.058085978 -0.43672699 0.97893697
0.058085978 0.68827301 0.97893697
0.058085978 -0.43672699 1.5739369
0.058085978 0.68827301 1.5739369
0.063085973 -0.43672699 0.97893697
0.063085973 0.68827301 0.97893697
0.063085973 -0.43672699 1.5739369
0.063085973 0.68827301 1.5739369
0.068085968 -0.43672699 0.97893697
0.068085968 0.68827301 0.97893697
0.068085968 -0.43672699 1.5739369
0.068085968 0.68827301 1.5739369
0.073085964 -0.43672699 0.97893697
0.073085964 0.68827301 0.97893697
0.073085964 -0.43672699 1.5739369
0.073085964 0.68827301 1.5739369
0.078085959 -0.43672699 0.97893697
0.078085959 0.68827301 0.97893697
0.078085959 -0.43672699 1.5739369
0.078085959 0.68827301 1.5739369
0.083085954 -0.43672699 0.97893697
0.083085954 0.68827301 0.97893697
0.083085954 -0.43672699 1.5739369
0.083085954 0.68827301 1.5739369
0.088085949 -0.43672699 0.97893697
0.088085949 0.68827301 0.97893697
0.088085949 -0.43672699 1.5739369
0.088085949 0.68827301 1.5739369
0.093085945 -0.43672699 0.97893697
0.093085945 0.68827301 0.97893697
0.093085945 -0.43672699 1.5739369
0.093085945 0.68827301 1.5739369
0.09808594 -0.43672699 0.97893697
0.09808594 0.68827301 0.97893697
0.09808594 -0.43672699 1.5739369
0.09808594 0.68827301 1.5739369
0.10308599 -0.43672699 0.97893697
0.10308599 0.68827301 0.97893697
0.10308599 -0.43672699 1.5739369
0.10308599 0.68827301 1.5739369
0.10808599 -0.43672699 0.97893697
0.10808599 0.68827301 0.97893697
0.10808599 -0.43672699 1.5739369
0.10808599 0.68827301 1.5739369
0.11308599 -0.43672699 0.97893697
0.11308599 0.68827301 0.97893697
0.11308599 -0.43672699 1.5739369
0.11308599 0.68827301 1.5739369
0.11808598 -0.43672699 0.97893697
0.11808598 0.68827301 0.97893697
0.11808598 -0.43672699 1.5739369
0.11808598 0.68827301 1.5739369
0.12308598 -0.43672699 0.97893697
0.12308598 0.68827301 0.97893697
0.12308598 -0.43672699 1.5739369
0.12308598 0.68827301 1.5739369
0.12808597 -0.43672699 0.97893697
0.12808597 0.68827301 0.97893697
0.12808597 -0.43672699 1.5739369
0.12808597 0.68827301 1.5739369
0.13308597 -0.43672699 0.97893697
0.13308597 0.68827301 0.97893697
0.13308597 -0.43672699 1.5739369
0.13308597 0.68827301 1.5739369
0.13808596 -0.43672699 0.97893697
0.13808596 0.68827301 0.97893697
0.13808596 -0.43672699 1.5739369
0.13808596 0.68827301 1.5739369
0.14308596 -0.43672699 0.97893697
0.14308596 0.68827301 0.97893697
0.14308596 -0.43672699 1.5739369
0.14308596 0.68827301 1.5739369
0.14808595 -0.43672699 0.97893697
0.14808595 0.68827301 0.97893697
0.14808595 -0.43672699 1.5739369
0.14808595 0.68827301 1.5739369
0.15308595 -0.43672699 0.97893697
0.15308595 0.68827301 0.97893697
0.15308595 -0.43672699 1.5739369
0.15308595 0.68827301 1.5739369
0.15808594 -0.43672699 0.97893697
0.15808594 0.68827301 0.97893697
0.15808594 -0.43672699 1.5739369
0.15808594 0.68827301 1.5739369
0.16308594 -0.43672699 0.97893697
0.16308594 0.68827301 0.97893697
0.16308594 -0.43672699 1.5739369
0.16308594 0.68827301 1.5739369
0.16808599 -0.43672699 0.97893697
0.16808599 0.68827301 0.97893697
0.16808599 -0.43672699 1.5739369
0.16808599 0.68827301 1.5739369
0.17308599 -0.43672699 0.97893697
0.17308599 0.68827301 0.97893697
0.17308599 -0.43672699 1.5739369
0.17308599 0.68827301 1.5739369
0.17808598 -0.43672699 0.97893697
0.17808598 0.68827301 0.97893697
0.17808598 -0.43672699 1.5739369
0.17808598 0.68827301 1.5739369
0.18308598 -0.43672699 0.97893697
0.18308598 0.68827301 0.97893697
0.18308598 -0.43672699 1.5739369
0.18308598 0.68827301 1.5739369
0.18808597 -0.43672699 0.97893697
0.18808597 0.68827301 0.97893697
0.18808597 -0.43672699 1.5739369
0.18808597 0.68827301 1.5739369
0.19308597 -0.43672699 0.97893697
0.19308597 0.68827301 0.97893697
0.19308597 -0.43672699 1.5739369
0.19308597 0.68827301 1.5739369
0.19808596 -0.43672699 0.97893697
0.19808596 0.68827301 0.97893697
0.19808596 -0.43672699 1.5739369
0.19808596 0.68827301 1.5739369
0.20308596 -0.43672699 0.97893697
0.20308596 0.68827301 0.97893697
0.20308596 -0.43672699 1.5739369
0.20308596 0.68827301 1.5739369
0.20808595 -0.43672699 0.97893697
0.20808595 0.68827301 0.97893697
0.20808595 -0.43672699 1.5739369
0.20808595 0.68827301 1.5739369
0.21308595 -0.43672699 0.97893697
0.21308595 0.68827301 0.97893697
0.21308595 -0.43672699 1.5739369
0.21308595 0.68827301 1.5739369
0.21808594 -0.43672699 0.97893697
0.21808594 0.68827301 0.97893697
0.21808594 -0.43672699 1.5739369
0.21808594 0.68827301 1.5739369
0.22308594 -0.43672699 0.97893697
0.22308594 0.68827301 0.97893697
0.22308594 -0.43672699 1.5739369
0.22308594 0.68827301 1.5739369
0.22808594 -0.43672699 0.97893697
0.22808594 0.68827301 0.97893697
0.22808594 -0.43672699 1.5739369
0.22808594 0.68827301 1.5739369
0.23308599 -0.43672699 0.97893697
0.23308599 0.68827301 0.97893697
0.23308599 -0.43672699 1.5739369
0.23308599 0.68827301 1.5739369
0.23808599 -0.43672699 0.97893697
0.23808599 0.68827301 0.97893697
0.23808599 -0.43672699 1.5739369
0.23808599 0.68827301 1.5739369
0.24308598 -0.43672699 0.97893697
0.24308598 0.68827301 0.97893697
0.24308598 -0.43672699 1.5739369
0.24308598 0.68827301 1.5739369
0.24808598 -0.43672699 0.97893697
0.24808598 0.68827301 0.97893697
0.24808598 -0.43672699 1.5739369
0.24808598 0.68827301 1.5739369
0.25308597 -0.43672699 0.97893697
0.25308597 0.68827301 0.97893697
0.25308597 -0.43672699 1.5739369
0.25308597 0.68827301 1.5739369
0.25808597 -0.43672699 0.97893697
0.25808597 0.68827301 0.97893697
0.25808597 -0.43672699 1.5739369
0.25808597 0.68827301 1.5739369
0.26308596 -0.43672699 0.97893697
0.26308596 0.68827301 0.97893697
0.26308596 -0.43672699 1.5739369
0.26308596 0.68827301 1.5739369
0.26808596 -0.43672699 0.97893697
0.26808596 0.68827301 0.97893697
0.26808596 -0.43672699 1.5739369
0.26808596 0.68827301 1.5739369
0.27308595 -0.43672699 0.97893697
0.27308595 0.68827301 0.97893697
0.27308595 -0.43672699 1.5739369
0.27308595 0.68827301 1.5739369
0.27808595 -0.43672699 0.97893697
0.27808595 0.68827301 0.97893697
0.27808595 -0.43672699 1.5739369
0.27808595 0.68827301 1.5739369
0.28308594 -0.43672699 0.97893697
0.28308594 0.68827301 0.97893697
0.28308594 -0.43672699 1.5739369
0.28308594 0.68827301 1.5739369
0.28808594 -0.43672699 0.97893697
0.28808594 0.68827301 0.97893697
0.28808594 -0.43672699 1.5739369
0.28808594 0.68827301 1.5739369
