ply
format ascii 1.0
comment PCL generated
element vertex 1444
property float x
property float y
property float z
element camera 0
property float view_px
property float view_py
property float view_pz
property float x_axisx
property float x_axisy
property float x_axisz
property float y_axisx
property float y_axisy
property float y_axisz
property float z_axisx
property float z_axisy
property float z_axisz
property float focal
property float scalex
property float scaley
property float centerx
property float centery
property int viewportx
property int viewporty
property float k1
property float k2
end_header
-0.55633199 -0.42651001 1.4926369
0.55366802 -0.42651001 0.93263698
0.55366802 -0.42651001 1.4926369
-0.55633199 -0.42150998 0.93263698
-0.55633199 -0.42150998 1.4926369
0.55366802 -0.42150998 0.93263698
0.55366802 -0.42150998 1.4926369
-0.55633199 -0.41650999 0.93263698
-0.55633199 -0.41650999 1.4926369
0.55366802 -0.41650999 0.93263698
0.55366802 -0.41650999 1.4926369
-0.55633199 -0.41150999 0.93263698
-0.55633199 -0.41150999 1.4926369
0.55366802 -0.41150999 0.93263698
0.55366802 -0.41150999 1.4926369
-0.55633199 -0.40651 0.93263698
-0.55633199 -0.40651 1.4926369
0.55366802 -0.40651 0.93263698
0.55366802 -0.40651 1.4926369
-0.55633199 -0.40151 0.93263698
-0.55633199 -0.40151 1.4926369
0.55366802 -0.40151 0.93263698
0.55366802 -0.40151 1.4926369
-0.55633199 -0.39651 0.93263698
-0.55633199 -0.39651 1.4926369
0.55366802 -0.39651 0.93263698
0.55366802 -0.39651 1.4926369
-0.55633199 -0.39151001 0.93263698
-0.55633199 -0.39151001 1.4926369
0.55366802 -0.39151001 0.93263698
0.55366802 -0.39151001 1.4926369
-0.55633199 -0.38650998 0.93263698
-0.55633199 -0.38650998 1.4926369
0.55366802 -0.38650998 0.93263698
0.55366802 -0.38650998 1.4926369
-0.55633199 -0.38150999 0.93263698
-0.55633199 -0.38150999 1.4926369
0.55366802 -0.38150999 0.93263698
0.55366802 -0.38150999 1.4926369
-0.55633199 -0.37650999 0.93263698
-0.55633199 -0.37650999 1.4926369
0.55366802 -0.37650999 0.93263698
0.55366802 -0.37650999 1.4926369
-0.55633199 -0.37151 0.93263698
-0.55633199 -0.37151 1.4926369
0.55366802 -0.37151 0.93263698
0.55366802 -0.37151 1.4926369
-0.55633199 -0.36651 0.93263698
-0.55633199 -0.36651 1.4926369
0.55366802 -0.36651 0.93263698
0.55366802 -0.36651 1.4926369
-0.55633199 -0.36150998 0.93263698
-0.55633199 -0.36150998 1.4926369
0.55366802 -0.36150998 0.93263698
0.55366802 -0.36150998 1.4926369
-0.55633199 -0.35650998 0.93263698
-0.55633199 -0.35650998 1.4926369
0.55366802 -0.35650998 0.93263698
0.55366802 -0.35650998 1.4926369
-0.55633199 -0.35150999 0.93263698
-0.55633199 -0.35150999 1.4926369
0.55366802 -0.35150999 0.93263698
0.55366802 -0.35150999 1.4926369
-0.55633199 -0.34650999 0.93263698
-0.55633199 -0.34650999 1.4926369
0.55366802 -0.34650999 0.93263698
0.55366802 -0.34650999 1.4926369
-0.55633199 -0.34151 0.93263698
-0.55633199 -0.34151 1.4926369
0.55366802 -0.34151 0.93263698
0.55366802 -0.34151 1.4926369
-0.55633199 -0.33651 0.93263698
-0.55633199 -0.33651 1.4926369
0.55366802 -0.33651 0.93263698
0.55366802 -0.33651 1.4926369
-0.55633199 -0.33151001 0.93263698
-0.55633199 -0.33151001 1.4926369
0.55366802 -0.33151001 0.93263698
0.55366802 -0.33151001 1.4926369
-0.55633199 -0.32651001 0.93263698
-0.55633199 -0.32651001 1.4926369
0.55366802 -0.32651001 0.93263698
0.55366802 -0.32651001 1.4926369
-0.55633199 -0.32150999 0.93263698
-0.55633199 -0.32150999 1.4926369
0.55366802 -0.32150999 0.93263698
0.55366802 -0.32150999 1.4926369
-0.55633199 -0.31650999 0.93263698
-0.55633199 -0.31650999 1.4926369
0.55366802 -0.31650999 0.93263698
0.55366802 -0.31650999 1.4926369
-0.55633199 -0.31151 0.93263698
-0.55633199 -0.31151 1.4926369
0.55366802 -0.31151 0.93263698
0.55366802 -0.31151 1.4926369
-0.55633199 -0.30651 0.93263698
-0.55633199 -0.30651 1.4926369
0.55366802 -0.30651 0.93263698
0.55366802 -0.30651 1.4926369
-0.55633199 -0.30150998 0.93263698
-0.55633199 -0.30150998 1.4926369
0.55366802 -0.30150998 0.93263698
0.55366802 -0.30150998 1.4926369
-0.55633199 -0.29650998 0.93263698
-0.55633199 -0.29650998 1.4926369
0.55366802 -0.29650998 0.93263698
0.55366802 -0.29650998 1.4926369
-0.55633199 -0.29150999 0.93263698
-0.55633199 -0.29150999 1.4926369
0.55366802 -0.29150999 0.93263698
0.55366802 -0.29150999 1.4926369
-0.55633199 -0.28650999 0.93263698
-0.55633199 -0.28650999 1.4926369
0.55366802 -0.28650999 0.93263698
0.55366802 -0.28650999 1.4926369
-0.55633199 -0.28151 0.93263698
-0.55633199 -0.28151 1.4926369
0.55366802 -0.28151 0.93263698
0.55366802 -0.28151 1.4926369
-0.55633199 -0.27651 0.93263698
-0.55633199 -0.27651 1.4926369
0.55366802 -0.27651 0.93263698
0.55366802 -0.27651 1.4926369
-0.55633199 -0.27151 0.93263698
-0.55633199 -0.27151 1.4926369
0.55366802 -0.27151 0.93263698
0.55366802 -0.27151 1.4926369
-0.55633199 -0.26651001 0.93263698
-0.55633199 -0.26651001 1.4926369
0.55366802 -0.26651001 0.93263698
0.55366802 -0.26651001 1.4926369
-0.55633199 -0.26151001 0.93263698
-0.55633199 -0.26151001 1.4926369
0.55366802 -0.26151001 0.93263698
0.55366802 -0.26151001 1.4926369
-0.55633199 -0.25650999 0.93263698
-0.55633199 -0.25650999 1.4926369
0.55366802 -0.25650999 0.93263698
0.55366802 -0.25650999 1.4926369
-0.55633199 -0.25150999 0.93263698
-0.55633199 -0.25150999 1.4926369
0.55366802 -0.25150999 0.93263698
0.55366802 -0.25150999 1.4926369
-0.55633199 -0.24651 0.93263698
-0.55633199 -0.24651 1.4926369
0.55366802 -0.24651 0.93263698
0.55366802 -0.24651 1.4926369
-0.55633199 -0.24151 0.93263698
-0.55633199 -0.24151 1.4926369
0.55366802 -0.24151 0.93263698
0.55366802 -0.24151 1.4926369
-0.55633199 -0.23650999 0.93263698
-0.55633199 -0.23650999 1.4926369
0.55366802 -0.23650999 0.93263698
0.55366802 -0.23650999 1.4926369
-0.55633199 -0.23151 0.93263698
-0.55633199 -0.23151 1.4926369
0.55366802 -0.23151 0.93263698
0.55366802 -0.23151 1.4926369
-0.55633199 -0.22651 0.93263698
-0.55633199 -0.22651 1.4926369
0.55366802 -0.22651 0.93263698
0.55366802 -0.22651 1.4926369
-0.55633199 -0.22150999 0.93263698
-0.55633199 -0.22150999 1.4926369
0.55366802 -0.22150999 0.93263698
0.55366802 -0.22150999 1.4926369
-0.55633199 -0.21651 0.93263698
-0.55633199 -0.21651 1.4926369
0.55366802 -0.21651 0.93263698
0.55366802 -0.21651 1.4926369
-0.55633199 -0.21151 0.93263698
-0.55633199 -0.21151 1.4926369
0.55366802 -0.21151 0.93263698
0.55366802 -0.21151 1.4926369
-0.55633199 -0.20650999 0.93263698
-0.55633199 -0.20650999 1.4926369
0.55366802 -0.20650999 0.93263698
0.55366802 -0.20650999 1.4926369
-0.55633199 -0.20151 0.93263698
-0.55633199 -0.20151 1.4926369
0.55366802 -0.20151 0.93263698
0.55366802 -0.20151 1.4926369
-0.55633199 -0.19651 0.93263698
-0.55633199 -0.19651 1.4926369
0.55366802 -0.19651 0.93263698
0.55366802 -0.19651 1.4926369
-0.55633199 -0.19150999 0.93263698
-0.55633199 -0.19150999 1.4926369
0.55366802 -0.19150999 0.93263698
0.55366802 -0.19150999 1.4926369
-0.55633199 -0.18651 0.93263698
-0.55633199 -0.18651 1.4926369
0.55366802 -0.18651 0.93263698
0.55366802 -0.18651 1.4926369
-0.55633199 -0.18151 0.93263698
-0.55633199 -0.18151 1.4926369
0.55366802 -0.18151 0.93263698
0.55366802 -0.18151 1.4926369
-0.55633199 -0.17651001 0.93263698
-0.55633199 -0.17651001 1.4926369
0.55366802 -0.17651001 0.93263698
0.55366802 -0.17651001 1.4926369
-0.55633199 -0.17151001 0.93263698
-0.55633199 -0.17151001 1.4926369
0.55366802 -0.17151001 0.93263698
0.55366802 -0.17151001 1.4926369
-0.55633199 -0.16650999 0.93263698
-0.55633199 -0.16650999 1.4926369
0.55366802 -0.16650999 0.93263698
0.55366802 -0.16650999 1.4926369
-0.55633199 -0.16150999 0.93263698
-0.55633199 -0.16150999 1.4926369
0.55366802 -0.16150999 0.93263698
0.55366802 -0.16150999 1.4926369
-0.55633199 -0.15651 0.93263698
-0.55633199 -0.15651 1.4926369
0.55366802 -0.15651 0.93263698
0.55366802 -0.15651 1.4926369
-0.55633199 -0.15151 0.93263698
-0.55633199 -0.15151 1.4926369
0.55366802 -0.15151 0.93263698
0.55366802 -0.15151 1.4926369
-0.55633199 -0.14651 0.93263698
-0.55633199 -0.14651 1.4926369
0.55366802 -0.14651 0.93263698
0.55366802 -0.14651 1.4926369
-0.55633199 -0.14151001 0.93263698
-0.55633199 -0.14151001 1.4926369
0.55366802 -0.14151001 0.93263698
0.55366802 -0.14151001 1.4926369
-0.55633199 -0.13650998 0.93263698
-0.55633199 -0.13650998 1.4926369
0.55366802 -0.13650998 0.93263698
0.55366802 -0.13650998 1.4926369
-0.55633199 -0.13150999 0.93263698
-0.55633199 -0.13150999 1.4926369
0.55366802 -0.13150999 0.93263698
0.55366802 -0.13150999 1.4926369
-0.55633199 -0.12650999 0.93263698
-0.55633199 -0.12650999 1.4926369
0.55366802 -0.12650999 0.93263698
0.55366802 -0.12650999 1.4926369
-0.55633199 -0.12151 0.93263698
-0.55633199 -0.12151 1.4926369
0.55366802 -0.12151 0.93263698
0.55366802 -0.12151 1.4926369
-0.55633199 -0.11651 0.93263698
-0.55633199 -0.11651 1.4926369
0.55366802 -0.11651 0.93263698
0.55366802 -0.11651 1.4926369
-0.55633199 -0.11151001 0.93263698
-0.55633199 -0.11151001 1.4926369
0.55366802 -0.11151001 0.93263698
0.55366802 -0.11151001 1.4926369
-0.55633199 -0.10651001 0.93263698
-0.55633199 -0.10651001 1.4926369
0.55366802 -0.10651001 0.93263698
0.55366802 -0.10651001 1.4926369
-0.55633199 -0.10150999 0.93263698
-0.55633199 -0.10150999 1.4926369
0.55366802 -0.10150999 0.93263698
0.55366802 -0.10150999 1.4926369
-0.55633199 -0.096509993 0.93263698
-0.55633199 -0.096509993 1.4926369
0.55366802 -0.096509993 0.93263698
0.55366802 -0.096509993 1.4926369
-0.55633199 -0.091509998 0.93263698
-0.55633199 -0.091509998 1.4926369
0.55366802 -0.091509998 0.93263698
0.55366802 -0.091509998 1.4926369
-0.55633199 -0.086510003 0.93263698
-0.55633199 -0.086510003 1.4926369
0.55366802 -0.086510003 0.93263698
0.55366802 -0.086510003 1.4926369
-0.55633199 -0.081510007 0.93263698
-0.55633199 -0.081510007 1.4926369
0.55366802 -0.081510007 0.93263698
0.55366802 -0.081510007 1.4926369
-0.55633199 -0.076510012 0.93263698
-0.55633199 -0.076510012 1.4926369
0.55366802 -0.076510012 0.93263698
0.55366802 -0.076510012 1.4926369
-0.55633199 -0.071509987 0.93263698
-0.55633199 -0.071509987 1.4926369
0.55366802 -0.071509987 0.93263698
0.55366802 -0.071509987 1.4926369
-0.55633199 -0.066509992 0.93263698
-0.55633199 -0.066509992 1.4926369
0.55366802 -0.066509992 0.93263698
0.55366802 -0.066509992 1.4926369
-0.55633199 -0.061509997 0.93263698
-0.55633199 -0.061509997 1.4926369
0.55366802 -0.061509997 0.93263698
0.55366802 -0.061509997 1.4926369
-0.55633199 -0.056510001 0.93263698
-0.55633199 -0.056510001 1.4926369
0.55366802 -0.056510001 0.93263698
0.55366802 -0.056510001 1.4926369
-0.55633199 -0.051510006 0.93263698
-0.55633199 -0.051510006 1.4926369
0.55366802 -0.051510006 0.93263698
0.55366802 -0.051510006 1.4926369
-0.55633199 -0.046510011 0.93263698
-0.55633199 -0.046510011 1.4926369
0.55366802 -0.046510011 0.93263698
0.55366802 -0.046510011 1.4926369
-0.55633199 -0.041510016 0.93263698
-0.55633199 -0.041510016 1.4926369
0.55366802 -0.041510016 0.93263698
0.55366802 -0.041510016 1.4926369
-0.55633199 -0.036509991 0.93263698
-0.55633199 -0.036509991 1.4926369
0.55366802 -0.036509991 0.93263698
0.55366802 -0.036509991 1.4926369
-0.55633199 -0.031509995 0.93263698
-0.55633199 -0.031509995 1.4926369
0.55366802 -0.031509995 0.93263698
0.55366802 -0.031509995 1.4926369
-0.55633199 -0.02651 0.93263698
-0.55633199 -0.02651 1.4926369
0.55366802 -0.02651 0.93263698
0.55366802 -0.02651 1.4926369
-0.55633199 -0.021510005 0.93263698
-0.55633199 -0.021510005 1.4926369
0.55366802 -0.021510005 0.93263698
0.55366802 -0.021510005 1.4926369
-0.55633199 -0.01651001 0.93263698
-0.55633199 -0.01651001 1.4926369
0.55366802 -0.01651001 0.93263698
0.55366802 -0.01651001 1.4926369
-0.55633199 -0.011510015 0.93263698
-0.55633199 -0.011510015 1.4926369
0.55366802 -0.011510015 0.93263698
0.55366802 -0.011510015 1.4926369
-0.55633199 -0.0065099895 0.93263698
-0.55633199 -0.0065099895 1.4926369
0.55366802 -0.0065099895 0.93263698
0.55366802 -0.0065099895 1.4926369
-0.55633199 -0.0015099943 0.93263698
-0.55633199 -0.0015099943 1.4926369
0.55366802 -0.0015099943 0.93263698
0.55366802 -0.0015099943 1.4926369
-0.55633199 0.003490001 0.93263698
-0.55633199 0.003490001 1.4926369
0.55366802 0.003490001 0.93263698
0.55366802 0.003490001 1.4926369
-0.55633199 0.0084899962 0.93263698
-0.55633199 0.0084899962 1.4926369
0.55366802 0.0084899962 0.93263698
0.55366802 0.0084899962 1.4926369
-0.55633199 0.013489991 0.93263698
-0.55633199 0.013489991 1.4926369
0.55366802 0.013489991 0.93263698
0.55366802 0.013489991 1.4926369
-0.55633199 0.018489987 0.93263698
-0.55633199 0.018489987 1.4926369
0.55366802 0.018489987 0.93263698
0.55366802 0.018489987 1.4926369
-0.55633199 0.023490012 0.93263698
-0.55633199 0.023490012 1.4926369
0.55366802 0.023490012 0.93263698
0.55366802 0.023490012 1.4926369
-0.55633199 0.028490007 0.93263698
-0.55633199 0.028490007 1.4926369
0.55366802 0.028490007 0.93263698
0.55366802 0.028490007 1.4926369
-0.55633199 0.033490002 0.93263698
-0.55633199 0.033490002 1.4926369
0.55366802 0.033490002 0.93263698
0.55366802 0.033490002 1.4926369
-0.55633199 0.038489997 0.93263698
-0.55633199 0.038489997 1.4926369
0.55366802 0.038489997 0.93263698
0.55366802 0.038489997 1.4926369
-0.55633199 0.043489993 0.93263698
-0.55633199 0.043489993 1.4926369
0.55366802 0.043489993 0.93263698
0.55366802 0.043489993 1.4926369
-0.55633199 0.048489988 0.93263698
-0.55633199 0.048489988 1.4926369
0.55366802 0.048489988 0.93263698
0.55366802 0.048489988 1.4926369
-0.55633199 0.053489983 0.93263698
-0.55633199 0.053489983 1.4926369
0.55366802 0.053489983 0.93263698
0.55366802 0.053489983 1.4926369
-0.55633199 0.058490008 0.93263698
-0.55633199 0.058490008 1.4926369
0.55366802 0.058490008 0.93263698
0.55366802 0.058490008 1.4926369
-0.55633199 0.063490003 0.93263698
-0.55633199 0.063490003 1.4926369
0.55366802 0.063490003 0.93263698
0.55366802 0.063490003 1.4926369
-0.55633199 0.068489999 0.93263698
-0.55633199 0.068489999 1.4926369
0.55366802 0.068489999 0.93263698
0.55366802 0.068489999 1.4926369
-0.55633199 0.073489994 0.93263698
-0.55633199 0.073489994 1.4926369
0.55366802 0.073489994 0.93263698
0.55366802 0.073489994 1.4926369
-0.55633199 0.078489989 0.93263698
-0.55633199 0.078489989 1.4926369
0.55366802 0.078489989 0.93263698
0.55366802 0.078489989 1.4926369
-0.55633199 0.083489984 0.93263698
-0.55633199 0.083489984 1.4926369
0.55366802 0.083489984 0.93263698
0.55366802 0.083489984 1.4926369
-0.55633199 0.08848998 0.93263698
-0.55633199 0.08848998 1.4926369
0.55366802 0.08848998 0.93263698
0.55366802 0.08848998 1.4926369
-0.55633199 0.093489975 0.93263698
-0.55633199 0.093489975 1.4926369
0.55366802 0.093489975 0.93263698
0.55366802 0.093489975 1.4926369
-0.55633199 0.09848997 0.93263698
-0.55633199 0.09848997 1.4926369
0.55366802 0.09848997 0.93263698
0.55366802 0.09848997 1.4926369
-0.55633199 0.10349002 0.93263698
-0.55633199 0.10349002 1.4926369
0.55366802 0.10349002 0.93263698
0.55366802 0.10349002 1.4926369
-0.55633199 0.10849002 0.93263698
-0.55633199 0.10849002 1.4926369
0.55366802 0.10849002 0.93263698
0.55366802 0.10849002 1.4926369
-0.55633199 0.11349002 0.93263698
-0.55633199 0.11349002 1.4926369
0.55366802 0.11349002 0.93263698
0.55366802 0.11349002 1.4926369
-0.55633199 0.11849001 0.93263698
-0.55633199 0.11849001 1.4926369
0.55366802 0.11849001 0.93263698
0.55366802 0.11849001 1.4926369
-0.55633199 0.12349001 0.93263698
-0.55633199 0.12349001 1.4926369
0.55366802 0.12349001 0.93263698
0.55366802 0.12349001 1.4926369
-0.55633199 0.12849 0.93263698
-0.55633199 0.12849 1.4926369
0.55366802 0.12849 0.93263698
0.55366802 0.12849 1.4926369
-0.55633199 0.13349 0.93263698
-0.55633199 0.13349 1.4926369
0.55366802 0.13349 0.93263698
0.55366802 0.13349 1.4926369
-0.55633199 0.13848999 0.93263698
-0.55633199 0.13848999 1.4926369
0.55366802 0.13848999 0.93263698
0.55366802 0.13848999 1.4926369
-0.55633199 0.14348999 0.93263698
-0.55633199 0.14348999 1.4926369
0.55366802 0.14348999 0.93263698
0.55366802 0.14348999 1.4926369
-0.55633199 0.14848998 0.93263698
-0.55633199 0.14848998 1.4926369
0.55366802 0.14848998 0.93263698
0.55366802 0.14848998 1.4926369
-0.55633199 0.15348998 0.93263698
-0.55633199 0.15348998 1.4926369
0.55366802 0.15348998 0.93263698
0.55366802 0.15348998 1.4926369
-0.55633199 0.15848997 0.93263698
-0.55633199 0.15848997 1.4926369
0.55366802 0.15848997 0.93263698
0.55366802 0.15848997 1.4926369
-0.55633199 0.16348997 0.93263698
-0.55633199 0.16348997 1.4926369
0.55366802 0.16348997 0.93263698
0.55366802 0.16348997 1.4926369
-0.55633199 0.16849002 0.93263698
-0.55633199 0.16849002 1.4926369
0.55366802 0.16849002 0.93263698
0.55366802 0.16849002 1.4926369
-0.55633199 0.17349002 0.93263698
-0.55633199 0.17349002 1.4926369
0.55366802 0.17349002 0.93263698
0.55366802 0.17349002 1.4926369
-0.55633199 0.17849001 0.93263698
-0.55633199 0.17849001 1.4926369
0.55366802 0.17849001 0.93263698
0.55366802 0.17849001 1.4926369
-0.55633199 0.18349001 0.93263698
-0.55633199 0.18349001 1.4926369
0.55366802 0.18349001 0.93263698
0.55366802 0.18349001 1.4926369
-0.55633199 0.18849 0.93263698
-0.55633199 0.18849 1.4926369
0.55366802 0.18849 0.93263698
0.55366802 0.18849 1.4926369
-0.55633199 0.19349 0.93263698
-0.55633199 0.19349 1.4926369
0.55366802 0.19349 0.93263698
0.55366802 0.19349 1.4926369
-0.55633199 0.19848999 0.93263698
-0.55633199 0.19848999 1.4926369
0.55366802 0.19848999 0.93263698
0.55366802 0.19848999 1.4926369
-0.55633199 0.20348999 0.93263698
-0.55633199 0.20348999 1.4926369
0.55366802 0.20348999 0.93263698
0.55366802 0.20348999 1.4926369
-0.55633199 0.20848998 0.93263698
-0.55633199 0.20848998 1.4926369
0.55366802 0.20848998 0.93263698
0.55366802 0.20848998 1.4926369
-0.55633199 0.21348998 0.93263698
-0.55633199 0.21348998 1.4926369
0.55366802 0.21348998 0.93263698
0.55366802 0.21348998 1.4926369
-0.55633199 0.21848997 0.93263698
-0.55633199 0.21848997 1.4926369
0.55366802 0.21848997 0.93263698
0.55366802 0.21848997 1.4926369
-0.55633199 0.22348997 0.93263698
-0.55633199 0.22348997 1.4926369
0.55366802 0.22348997 0.93263698
0.55366802 0.22348997 1.4926369
-0.55633199 0.22848997 0.93263698
-0.55633199 0.22848997 1.4926369
0.55366802 0.22848997 0.93263698
0.55366802 0.22848997 1.4926369
-0.55633199 0.23349002 0.93263698
-0.55633199 0.23349002 1.4926369
0.55366802 0.23349002 0.93263698
0.55366802 0.23349002 1.4926369
-0.55633199 0.23849002 0.93263698
-0.55633199 0.23849002 1.4926369
0.55366802 0.23849002 0.93263698
0.55366802 0.23849002 1.4926369
-0.55633199 0.24349001 0.93263698
-0.55633199 0.24349001 1.4926369
0.55366802 0.24349001 0.93263698
0.55366802 0.24349001 1.4926369
-0.55633199 0.24849001 0.93263698
-0.55633199 0.24849001 1.4926369
0.55366802 0.24849001 0.93263698
0.55366802 0.24849001 1.4926369
-0.55633199 0.25349 0.93263698
-0.55633199 0.25349 1.4926369
0.55366802 0.25349 0.93263698
0.55366802 0.25349 1.4926369
-0.55633199 0.25849 0.93263698
-0.55633199 0.25849 1.4926369
0.55366802 0.25849 0.93263698
0.55366802 0.25849 1.4926369
-0.55633199 0.26348999 0.93263698
-0.55633199 0.26348999 1.4926369
0.55366802 0.26348999 0.93263698
0.55366802 0.26348999 1.4926369
-0.55633199 0.26848999 0.93263698
-0.55633199 0.26848999 1.4926369
0.55366802 0.26848999 0.93263698
0.55366802 0.26848999 1.4926369
-0.55633199 0.27348998 0.93263698
-0.55633199 0.27348998 1.4926369
0.55366802 0.27348998 0.93263698
0.55366802 0.27348998 1.4926369
-0.55633199 0.27848998 0.93263698
-0.55633199 0.27848998 1.4926369
0.55366802 0.27848998 0.93263698
0.55366802 0.27848998 1.4926369
-0.55633199 0.28348997 0.93263698
-0.55633199 0.28348997 1.4926369
0.55366802 0.28348997 0.93263698
0.55366802 0.28348997 1.4926369
-0.55633199 0.28848997 0.93263698
-0.55633199 0.28848997 1.4926369
0.55366802 0.28848997 0.93263698
0.55366802 0.28848997 1.4926369
-0.55633199 0.29348996 0.93263698
-0.55633199 0.29348996 1.4926369
0.55366802 0.29348996 0.93263698
0.55366802 0.29348996 1.4926369
-0.55633199 0.29849002 0.93263698
-0.55633199 0.29849002 1.4926369
0.55366802 0.29849002 0.93263698
0.55366802 0.29849002 1.4926369
-0.55633199 0.30349001 0.93263698
-0.55633199 0.30349001 1.4926369
0.55366802 0.30349001 0.93263698
0.55366802 0.30349001 1.4926369
-0.55633199 0.30849001 0.93263698
-0.55633199 0.30849001 1.4926369
0.55366802 0.30849001 0.93263698
0.55366802 0.30849001 1.4926369
-0.55633199 0.31349 0.93263698
-0.55633199 0.31349 1.4926369
0.55366802 0.31349 0.93263698
0.55366802 0.31349 1.4926369
-0.55633199 0.31849 0.93263698
-0.55633199 0.31849 1.4926369
0.55366802 0.31849 0.93263698
0.55366802 0.31849 1.4926369
-0.55633199 0.32348999 0.93263698
-0.55633199 0.32348999 1.4926369
0.55366802 0.32348999 0.93263698
0.55366802 0.32348999 1.4926369
-0.55633199 0.32848999 0.93263698
-0.55633199 0.32848999 1.4926369
0.55366802 0.32848999 0.93263698
0.55366802 0.32848999 1.4926369
-0.55633199 0.33348998 0.93263698
-0.55633199 0.33348998 1.4926369
0.55366802 0.33348998 0.93263698
0.55366802 0.33348998 1.4926369
-0.55633199 0.33848998 0.93263698
-0.55633199 0.33848998 1.4926369
0.55366802 0.33848998 0.93263698
0.55366802 0.33848998 1.4926369
-0.55633199 0.34348997 0.93263698
-0.55633199 0.34348997 1.4926369
0.55366802 0.34348997 0.93263698
0.55366802 0.34348997 1.4926369
-0.55633199 0.34848997 0.93263698
-0.55633199 0.34848997 1.4926369
0.55366802 0.34848997 0.93263698
0.55366802 0.34848997 1.4926369
-0.55633199 0.35348997 0.93263698
-0.55633199 0.35348997 1.4926369
0.55366802 0.35348997 0.93263698
0.55366802 0.35348997 1.4926369
-0.55633199 0.35848996 0.93263698
-0.55633199 0.35848996 1.4926369
0.55366802 0.35848996 0.93263698
0.55366802 0.35848996 1.4926369
-0.55633199 0.36349002 0.93263698
-0.55633199 0.36349002 1.4926369
0.55366802 0.36349002 0.93263698
0.55366802 0.36349002 1.4926369
-0.55633199 0.36849001 0.93263698
-0.55633199 0.36849001 1.4926369
0.55366802 0.36849001 0.93263698
0.55366802 0.36849001 1.4926369
-0.55633199 0.37349001 0.93263698
-0.55633199 0.37349001 1.4926369
0.55366802 0.37349001 0.93263698
0.55366802 0.37349001 1.4926369
-0.55633199 0.37849 0.93263698
-0.55633199 0.37849 1.4926369
0.55366802 0.37849 0.93263698
0.55366802 0.37849 1.4926369
-0.55633199 0.38349 0.93263698
-0.55633199 0.38349 1.4926369
0.55366802 0.38349 0.93263698
0.55366802 0.38349 1.4926369
-0.55633199 0.38848999 0.93263698
-0.55633199 0.38848999 1.4926369
0.55366802 0.38848999 0.93263698
0.55366802 0.38848999 1.4926369
-0.55633199 0.39348999 0.93263698
-0.55633199 0.39348999 1.4926369
0.55366802 0.39348999 0.93263698
0.55366802 0.39348999 1.4926369
-0.55633199 0.39848998 0.93263698
-0.55633199 0.39848998 1.4926369
0.55366802 0.39848998 0.93263698
0.55366802 0.39848998 1.4926369
-0.55633199 0.40348998 0.93263698
-0.55633199 0.40348998 1.4926369
0.55366802 0.40348998 0.93263698
0.55366802 0.40348998 1.4926369
-0.55633199 0.40848997 0.93263698
-0.55633199 0.40848997 1.4926369
0.55366802 0.40848997 0.93263698
0.55366802 0.40848997 1.4926369
-0.55633199 0.41348997 0.93263698
-0.55633199 0.41348997 1.4926369
0.55366802 0.41348997 0.93263698
0.55366802 0.41348997 1.4926369
-0.55633199 0.41848996 0.93263698
-0.55633199 0.41848996 1.4926369
0.55366802 0.41848996 0.93263698
0.55366802 0.41848996 1.4926369
-0.55633199 0.42349002 0.93263698
-0.55633199 0.42349002 1.4926369
0.55366802 0.42349002 0.93263698
0.55366802 0.42349002 1.4926369
-0.55633199 0.42849001 0.93263698
-0.55633199 0.42849001 1.4926369
0.55366802 0.42849001 0.93263698
0.55366802 0.42849001 1.4926369
-0.55633199 0.43349001 0.93263698
-0.55633199 0.43349001 1.4926369
0.55366802 0.43349001 0.93263698
0.55366802 0.43349001 1.4926369
-0.55633199 0.43849 0.93263698
-0.55633199 0.43849 1.4926369
0.55366802 0.43849 0.93263698
0.55366802 0.43849 1.4926369
-0.55633199 0.44349 0.93263698
-0.55633199 0.44349 1.4926369
0.55366802 0.44349 0.93263698
0.55366802 0.44349 1.4926369
-0.55633199 0.44848999 0.93263698
-0.55633199 0.44848999 1.4926369
0.55366802 0.44848999 0.93263698
0.55366802 0.44848999 1.4926369
-0.55633199 0.45348999 0.93263698
-0.55633199 0.45348999 1.4926369
0.55366802 0.45348999 0.93263698
0.55366802 0.45348999 1.4926369
-0.55633199 0.45848998 0.93263698
-0.55633199 0.45848998 1.4926369
0.55366802 0.45848998 0.93263698
0.55366802 0.45848998 1.4926369
-0.55633199 0.46348998 0.93263698
-0.55633199 0.46348998 1.4926369
0.55366802 0.46348998 0.93263698
0.55366802 0.46348998 1.4926369
-0.55633199 0.46848997 0.93263698
-0.55633199 0.46848997 1.4926369
0.55366802 0.46848997 0.93263698
0.55366802 0.46848997 1.4926369
-0.55633199 0.47348997 0.93263698
-0.55633199 0.47348997 1.4926369
0.55366802 0.47348997 0.93263698
0.55366802 0.47348997 1.4926369
-0.55633199 0.47848997 0.93263698
-0.55633199 0.47848997 1.4926369
0.55366802 0.47848997 0.93263698
0.55366802 0.47848997 1.4926369
-0.55633199 0.48348996 0.93263698
-0.55633199 0.48348996 1.4926369
0.55366802 0.48348996 0.93263698
0.55366802 0.48348996 1.4926369
-0.55633199 0.48849002 0.93263698
-0.55633199 0.48849002 1.4926369
0.55366802 0.48849002 0.93263698
0.55366802 0.48849002 1.4926369
-0.55633199 0.49349001 0.93263698
-0.55633199 0.49349001 1.4926369
0.55366802 0.49349001 0.93263698
0.55366802 0.49349001 1.4926369
-0.55633199 0.49849001 0.93263698
-0.55633199 0.49849001 1.4926369
0.55366802 0.49849001 0.93263698
0.55366802 0.49849001 1.4926369
-0.55633199 0.50348997 0.93263698
-0.55633199 0.50348997 1.4926369
0.55366802 0.50348997 0.93263698
0.55366802 0.50348997 1.4926369
-0.55633199 0.50848997 0.93263698
-0.55633199 0.50848997 1.4926369
0.55366802 0.50848997 0.93263698
0.55366802 0.50848997 1.4926369
-0.55633199 0.51348996 0.93263698
-0.55633199 0.51348996 1.4926369
0.55366802 0.51348996 0.93263698
0.55366802 0.51348996 1.4926369
-0.55633199 0.51848996 0.93263698
-0.55633199 0.51848996 1.4926369
0.55366802 0.51848996 0.93263698
0.55366802 0.51848996 1.4926369
-0.55633199 0.52348995 0.93263698
-0.55633199 0.52348995 1.4926369
0.55366802 0.52348995 0.93263698
0.55366802 0.52348995 1.4926369
-0.55633199 0.52848995 0.93263698
-0.55633199 0.52848995 1.4926369
0.55366802 0.52848995 0.93263698
0.55366802 0.52848995 1.4926369
-0.55633199 0.53348994 0.93263698
-0.55633199 0.53348994 1.4926369
0.55366802 0.53348994 0.93263698
0.55366802 0.53348994 1.4926369
-0.55633199 0.53848994 0.93263698
-0.55633199 0.53848994 1.4926369
0.55366802 0.53848994 0.93263698
0.55366802 0.53848994 1.4926369
-0.55633199 0.54348993 0.93263698
-0.55633199 0.54348993 1.4926369
0.55366802 0.54348993 0.93263698
0.55366802 0.54348993 1.4926369
-0.55633199 0.54848993 0.93263698
-0.55633199 0.54848993 1.4926369
0.55366802 0.54848993 0.93263698
0.55366802 0.54848993 1.4926369
-0.55633199 0.55349004 0.93263698
-0.55633199 0.55349004 1.4926369
0.55366802 0.55349004 0.93263698
0.55366802 0.55349004 1.4926369
-0.55633199 0.55849004 0.93263698
-0.55633199 0.55849004 1.4926369
0.55366802 0.55849004 0.93263698
0.55366802 0.55849004 1.4926369
-0.55633199 0.56349003 0.93263698
-0.55633199 0.56349003 1.4926369
0.55366802 0.56349003 0.93263698
0.55366802 0.56349003 1.4926369
-0.55633199 0.56849003 0.93263698
-0.55633199 0.56849003 1.4926369
0.55366802 0.56849003 0.93263698
0.55366802 0.56849003 1.4926369
-0.55633199 0.57349002 0.93263698
-0.55633199 0.57349002 1.4926369
0.55366802 0.57349002 0.93263698
0.55366802 0.57349002 1.4926369
-0.55633199 0.57849002 0.93263698
-0.55633199 0.57849002 1.4926369
0.55366802 0.57849002 0.93263698
0.55366802 0.57849002 1.4926369
-0.55633199 0.58349001 0.93263698
-0.55633199 0.58349001 1.4926369
0.55366802 0.58349001 0.93263698
0.55366802 0.58349001 1.4926369
-0.55633199 0.58849001 0.93263698
-0.55633199 0.58849001 1.4926369
0.55366802 0.58849001 0.93263698
0.55366802 0.58849001 1.4926369
-0.55633199 0.59349 0.93263698
-0.55633199 0.59349 1.4926369
0.55366802 0.59349 0.93263698
0.55366802 0.59349 1.4926369
-0.55633199 0.59849 0.93263698
-0.55633199 0.59849 1.4926369
0.55366802 0.59849 0.93263698
0.55366802 0.59849 1.4926369
-0.55633199 0.60349 0.93263698
-0.55633199 0.60349 1.4926369
0.55366802 0.60349 0.93263698
0.55366802 0.60349 1.4926369
-0.55633199 0.60848999 0.93263698
-0.55633199 0.60848999 1.4926369
0.55366802 0.60848999 0.93263698
0.55366802 0.60848999 1.4926369
-0.55633199 0.61348999 0.93263698
-0.55633199 0.61348999 1.4926369
0.55366802 0.61348999 0.93263698
0.55366802 0.61348999 1.4926369
-0.55633199 0.61848998 0.93263698
-0.55633199 0.61848998 1.4926369
0.55366802 0.61848998 0.93263698
0.55366802 0.61848998 1.4926369
-0.55633199 0.62348998 0.93263698
-0.55633199 0.62348998 1.4926369
0.55366802 0.62348998 0.93263698
0.55366802 0.62348998 1.4926369
-0.55633199 0.62848997 0.93263698
-0.55633199 0.62848997 1.4926369
0.55366802 0.62848997 0.93263698
0.55366802 0.62848997 1.4926369
-0.55633199 0.63348997 0.93263698
-0.55633199 0.63348997 1.4926369
0.55366802 0.63348997 0.93263698
0.55366802 0.63348997 1.4926369
-0.55633199 0.63848996 0.93263698
-0.55633199 0.63848996 1.4926369
0.55366802 0.63848996 0.93263698
0.55366802 0.63848996 1.4926369
-0.55633199 0.64348996 0.93263698
-0.55633199 0.64348996 1.4926369
0.55366802 0.64348996 0.93263698
0.55366802 0.64348996 1.4926369
-0.55633199 0.64849007 0.93263698
-0.55633199 0.64849007 1.4926369
0.55366802 0.64849007 0.93263698
0.55366802 0.64849007 1.4926369
-0.55633199 0.65349007 0.93263698
-0.55633199 0.65349007 1.4926369
0.55366802 0.65349007 0.93263698
0.55366802 0.65349007 1.4926369
-0.55633199 0.65849006 0.93263698
-0.55633199 0.65849006 1.4926369
0.55366802 0.65849006 0.93263698
0.55366802 0.65849006 1.4926369
-0.55633199 0.66349006 0.93263698
-0.55633199 0.66349006 1.4926369
0.55366802 0.66349006 0.93263698
0.55366802 0.66349006 1.4926369
-0.55633199 0.66849005 0.93263698
-0.55633199 0.66849005 1.4926369
0.55366802 0.66849005 0.93263698
0.55366802 0.66849005 1.4926369
-0.55633199 0.67349005 0.93263698
-0.55633199 0.67349005 1.4926369
0.55366802 0.67349005 0.93263698
0.55366802 0.67349005 1.4926369
-0.55633199 0.67849004 0.93263698
-0.55633199 0.67849004 1.4926369
0.55366802 0.67849004 0.93263698
0.55366802 0.67849004 1.4926369
-0.55633199 0.68349004 0.93263698
-0.55633199 0.68349004 1.4926369
0.55366802 0.68349004 0.93263698
0.55366802 0.68349004 1.4926369
-0.55633199 0.68849003 0.93263698
-0.55633199 0.68849003 1.4926369
0.55366802 0.68849003 0.93263698
0.55366802 0.68849003 1.4926369
-0.55633199 0.69349003 0.93263698
-0.55633199 0.69349003 1.4926369
0.55366802 0.69349003 0.93263698
0.55366802 0.69349003 1.4926369
-0.55633199 0.69849002 0.93263698
-0.55633199 0.69849002 1.4926369
0.55366802 0.69849002 0.93263698
0.55366802 0.69849002 1.4926369
-0.55633199 0.70349002 0.93263698
-0.55633199 0.70349002 1.4926369
0.55366802 0.70349002 0.93263698
0.55366802 0.70349002 1.4926369
-0.55633199 0.70849001 0.93263698
-0.55633199 0.70849001 1.4926369
0.55366802 0.70849001 0.93263698
0.55366802 0.70849001 1.4926369
-0.55633199 0.71349001 0.93263698
-0.55633199 0.71349001 1.4926369
0.55366802 0.71349001 0.93263698
0.55366802 0.71349001 1.4926369
-0.55633199 0.71849 0.93263698
-0.55633199 0.71849 1.4926369
0.55366802 0.71849 0.93263698
0.55366802 0.71849 1.4926369
-0.55633199 0.72349 0.93263698
-0.55633199 0.72349 1.4926369
0.55366802 0.72349 0.93263698
0.55366802 0.72349 1.4926369
-0.55633199 0.72849 0.93263698
-0.55633199 0.72849 1.4926369
0.55366802 0.72849 0.93263698
0.55366802 0.72849 1.4926369
-0.55633199 0.73348999 0.93263698
-0.55633199 0.73348999 1.4926369
0.55366802 0.73348999 0.93263698
0.55366802 0.73348999 1.4926369
-0.55633199 0.73848999 0.93263698
-0.55633199 0.73848999 1.4926369
0.55366802 0.73848999 0.93263698
0.55366802 0.73848999 1.4926369
-0.55633199 0.74348998 0.93263698
-0.55633199 0.74348998 1.4926369
0.55366802 0.74348998 0.93263698
0.55366802 0.74348998 1.4926369
-0.55633199 0.74848998 0.93263698
-0.55633199 0.74848998 1.4926369
0.55366802 0.74848998 0.93263698
0.55366802 0.74848998 1.4926369
-0.55633199 0.75348997 0.93263698
-0.55633199 0.75348997 1.4926369
0.55366802 0.75348997 0.93263698
0.55366802 0.75348997 1.4926369
-0.55633199 0.75848997 0.93263698
-0.55633199 0.75848997 1.4926369
0.55366802 0.75848997 0.93263698
0.55366802 0.75848997 1.4926369
-0.55633199 0.76348996 0.93263698
-0.55633199 0.76348996 1.4926369
0.55366802 0.76348996 0.93263698
0.55366802 0.76348996 1.4926369
-0.55633199 0.76848996 0.93263698
-0.55633199 0.76848996 1.4926369
0.55366802 0.76848996 0.93263698
0.55366802 0.76848996 1.4926369
-0.55633199 0.77348995 0.93263698
-0.55633199 0.77348995 1.4926369
0.55366802 0.77348995 0.93263698
0.55366802 0.77348995 1.4926369
-0.55633199 0.77849007 0.93263698
-0.55633199 0.77849007 1.4926369
0.55366802 0.77849007 0.93263698
0.55366802 0.77849007 1.4926369
-0.55633199 -0.44150999 0.93263698
-0.55633199 0.77849007 0.93263698
0.55366802 -0.44150999 0.93263698
0.55366802 0.77849007 0.93263698
-0.55633199 -0.44150999 0.93763697
-0.55633199 0.77849007 0.93763697
0.55366802 -0.44150999 0.93763697
0.55366802 0.77849007 0.93763697
-0.55633199 -0.44150999 0.94263697
-0.55633199 0.77849007 0.94263697
0.55366802 -0.44150999 0.94263697
0.55366802 0.77849007 0.94263697
-0.55633199 -0.44150999 0.94763696
-0.55633199 0.77849007 0.94763696
0.55366802 -0.44150999 0.94763696
0.55366802 0.77849007 0.94763696
-0.55633199 -0.44150999 0.95263696
-0.55633199 0.77849007 0.95263696
0.55366802 -0.44150999 0.95263696
0.55366802 0.77849007 0.95263696
-0.55633199 -0.44150999 0.95763695
-0.55633199 0.77849007 0.95763695
0.55366802 -0.44150999 0.95763695
0.55366802 0.77849007 0.95763695
-0.55633199 -0.44150999 0.96263695
-0.55633199 0.77849007 0.96263695
0.55366802 -0.44150999 0.96263695
0.55366802 0.77849007 0.96263695
-0.55633199 -0.44150999 0.967637
-0.55633199 0.77849007 0.967637
0.55366802 -0.44150999 0.967637
0.55366802 0.77849007 0.967637
-0.55633199 -0.44150999 0.972637
-0.55633199 0.77849007 0.972637
0.55366802 -0.44150999 0.972637
0.55366802 0.77849007 0.972637
-0.55633199 -0.44150999 0.97763699
-0.55633199 0.77849007 0.97763699
0.55366802 -0.44150999 0.97763699
0.55366802 0.77849007 0.97763699
-0.55633199 -0.44150999 0.98263699
-0.55633199 0.77849007 0.98263699
0.55366802 -0.44150999 0.98263699
0.55366802 0.77849007 0.98263699
-0.55633199 -0.44150999 0.98763698
-0.55633199 0.77849007 0.98763698
0.55366802 -0.44150999 0.98763698
0.55366802 0.77849007 0.98763698
-0.55633199 -0.44150999 0.99263698
-0.55633199 0.77849007 0.99263698
0.55366802 -0.44150999 0.99263698
0.55366802 0.77849007 0.99263698
-0.55633199 -0.44150999 0.99763697
-0.55633199 0.77849007 0.99763697
0.55366802 -0.44150999 0.99763697
0.55366802 0.77849007 0.99763697
-0.55633199 -0.44150999 1.002637
-0.55633199 0.77849007 1.002637
0.55366802 -0.44150999 1.002637
0.55366802 0.77849007 1.002637
-0.55633199 -0.44150999 1.007637
-0.55633199 0.77849007 1.007637
0.55366802 -0.44150999 1.007637
0.55366802 0.77849007 1.007637
-0.55633199 -0.44150999 1.012637
-0.55633199 0.77849007 1.012637
0.55366802 -0.44150999 1.012637
0.55366802 0.77849007 1.012637
-0.55633199 -0.44150999 1.017637
-0.55633199 0.77849007 1.017637
0.55366802 -0.44150999 1.017637
0.55366802 0.77849007 1.017637
-0.55633199 -0.44150999 1.022637
-0.55633199 0.77849007 1.022637
0.55366802 -0.44150999 1.022637
0.55366802 0.77849007 1.022637
-0.55633199 -0.44150999 1.027637
-0.55633199 0.77849007 1.027637
0.55366802 -0.44150999 1.027637
0.55366802 0.77849007 1.027637
-0.55633199 -0.44150999 1.032637
-0.55633199 0.77849007 1.032637
0.55366802 -0.44150999 1.032637
0.55366802 0.77849007 1.032637
-0.55633199 -0.44150999 1.037637
-0.55633199 0.77849007 1.037637
0.55366802 -0.44150999 1.037637
0.55366802 0.77849007 1.037637
-0.55633199 -0.44150999 1.042637
-0.55633199 0.77849007 1.042637
0.55366802 -0.44150999 1.042637
0.55366802 0.77849007 1.042637
-0.55633199 -0.44150999 1.047637
-0.55633199 0.77849007 1.047637
0.55366802 -0.44150999 1.047637
0.55366802 0.77849007 1.047637
-0.55633199 -0.44150999 1.052637
-0.55633199 0.77849007 1.052637
0.55366802 -0.44150999 1.052637
0.55366802 0.77849007 1.052637
-0.55633199 -0.44150999 1.057637
-0.55633199 0.77849007 1.057637
0.55366802 -0.44150999 1.057637
0.55366802 0.77849007 1.057637
-0.55633199 -0.44150999 1.062637
-0.55633199 0.77849007 1.062637
0.55366802 -0.44150999 1.062637
0.55366802 0.77849007 1.062637
-0.55633199 -0.44150999 1.067637
-0.55633199 0.77849007 1.067637
0.55366802 -0.44150999 1.067637
0.55366802 0.77849007 1.067637
-0.55633199 -0.44150999 1.072637
-0.55633199 0.77849007 1.072637
0.55366802 -0.44150999 1.072637
0.55366802 0.77849007 1.072637
-0.55633199 -0.44150999 1.077637
-0.55633199 0.77849007 1.077637
0.55366802 -0.44150999 1.077637
0.55366802 0.77849007 1.077637
-0.55633199 -0.44150999 1.082637
-0.55633199 0.77849007 1.082637
0.55366802 -0.44150999 1.082637
0.55366802 0.77849007 1.082637
-0.55633199 -0.44150999 1.0876369
-0.55633199 0.77849007 1.0876369
0.55366802 -0.44150999 1.0876369
0.55366802 0.77849007 1.0876369
-0.55633199 -0.44150999 1.0926369
-0.55633199 0.77849007 1.0926369
0.55366802 -0.44150999 1.0926369
0.55366802 0.77849007 1.0926369
-0.55633199 -0.44150999 1.0976369
-0.55633199 0.77849007 1.0976369
0.55366802 -0.44150999 1.0976369
0.55366802 0.77849007 1.0976369
-0.55633199 -0.44150999 1.1026369
-0.55633199 0.77849007 1.1026369
0.55366802 -0.44150999 1.1026369
0.55366802 0.77849007 1.1026369
-0.55633199 -0.44150999 1.1076369
-0.55633199 0.77849007 1.1076369
0.55366802 -0.44150999 1.1076369
0.55366802 0.77849007 1.1076369
-0.55633199 -0.44150999 1.1126369
-0.55633199 0.77849007 1.1126369
0.55366802 -0.44150999 1.1126369
0.55366802 0.77849007 1.1126369
-0.55633199 -0.44150999 1.1176369
-0.55633199 0.77849007 1.1176369
0.55366802 -0.44150999 1.1176369
0.55366802 0.77849007 1.1176369
-0.55633199 -0.44150999 1.122637
-0.55633199 0.77849007 1.122637
0.55366802 -0.44150999 1.122637
0.55366802 0.77849007 1.122637
-0.55633199 -0.44150999 1.1276369
-0.55633199 0.77849007 1.1276369
0.55366802 -0.44150999 1.1276369
0.55366802 0.77849007 1.1276369
-0.55633199 -0.44150999 1.132637
-0.55633199 0.77849007 1.132637
0.55366802 -0.44150999 1.132637
0.55366802 0.77849007 1.132637
-0.55633199 -0.44150999 1.137637
-0.55633199 0.77849007 1.137637
0.55366802 -0.44150999 1.137637
0.55366802 0.77849007 1.137637
-0.55633199 -0.44150999 1.142637
-0.55633199 0.77849007 1.142637
0.55366802 -0.44150999 1.142637
0.55366802 0.77849007 1.142637
-0.55633199 -0.44150999 1.147637
-0.55633199 0.77849007 1.147637
0.55366802 -0.44150999 1.147637
0.55366802 0.77849007 1.147637
-0.55633199 -0.44150999 1.152637
-0.55633199 0.77849007 1.152637
0.55366802 -0.44150999 1.152637
0.55366802 0.77849007 1.152637
-0.55633199 -0.44150999 1.157637
-0.55633199 0.77849007 1.157637
0.55366802 -0.44150999 1.157637
0.55366802 0.77849007 1.157637
-0.55633199 -0.44150999 1.162637
-0.55633199 0.77849007 1.162637
0.55366802 -0.44150999 1.162637
0.55366802 0.77849007 1.162637
-0.55633199 -0.44150999 1.167637
-0.55633199 0.77849007 1.167637
0.55366802 -0.44150999 1.167637
0.55366802 0.77849007 1.167637
-0.55633199 -0.44150999 1.172637
-0.55633199 0.77849007 1.172637
0.55366802 -0.44150999 1.172637
0.55366802 0.77849007 1.172637
-0.55633199 -0.44150999 1.177637
-0.55633199 0.77849007 1.177637
0.55366802 -0.44150999 1.177637
0.55366802 0.77849007 1.177637
-0.55633199 -0.44150999 1.182637
-0.55633199 0.77849007 1.182637
0.55366802 -0.44150999 1.182637
0.55366802 0.77849007 1.182637
-0.55633199 -0.44150999 1.187637
-0.55633199 0.77849007 1.187637
0.55366802 -0.44150999 1.187637
0.55366802 0.77849007 1.187637
-0.55633199 -0.44150999 1.192637
-0.55633199 0.77849007 1.192637
0.55366802 -0.44150999 1.192637
0.55366802 0.77849007 1.192637
-0.55633199 -0.44150999 1.197637
-0.55633199 0.77849007 1.197637
0.55366802 -0.44150999 1.197637
0.55366802 0.77849007 1.197637
-0.55633199 -0.44150999 1.202637
-0.55633199 0.77849007 1.202637
0.55366802 -0.44150999 1.202637
0.55366802 0.77849007 1.202637
-0.55633199 -0.44150999 1.207637
-0.55633199 0.77849007 1.207637
0.55366802 -0.44150999 1.207637
0.55366802 0.77849007 1.207637
-0.55633199 -0.44150999 1.2126369
-0.55633199 0.77849007 1.2126369
0.55366802 -0.44150999 1.2126369
0.55366802 0.77849007 1.2126369
-0.55633199 -0.44150999 1.2176369
-0.55633199 0.77849007 1.2176369
0.55366802 -0.44150999 1.2176369
0.55366802 0.77849007 1.2176369
-0.55633199 -0.44150999 1.2226369
-0.55633199 0.77849007 1.2226369
0.55366802 -0.44150999 1.2226369
0.55366802 0.77849007 1.2226369
-0.55633199 -0.44150999 1.2276369
-0.55633199 0.77849007 1.2276369
0.55366802 -0.44150999 1.2276369
0.55366802 0.77849007 1.2276369
-0.55633199 -0.44150999 1.2326369
-0.55633199 0.77849007 1.2326369
0.55366802 -0.44150999 1.2326369
0.55366802 0.77849007 1.2326369
-0.55633199 -0.44150999 1.237637
-0.55633199 0.77849007 1.237637
0.55366802 -0.44150999 1.237637
0.55366802 0.77849007 1.237637
-0.55633199 -0.44150999 1.2426369
-0.55633199 0.77849007 1.2426369
0.55366802 -0.44150999 1.2426369
0.55366802 0.77849007 1.2426369
-0.55633199 -0.44150999 1.247637
-0.55633199 0.77849007 1.247637
0.55366802 -0.44150999 1.247637
0.55366802 0.77849007 1.247637
-0.55633199 -0.44150999 1.2526369
-0.55633199 0.77849007 1.2526369
0.55366802 -0.44150999 1.2526369
0.55366802 0.77849007 1.2526369
-0.55633199 -0.44150999 1.257637
-0.55633199 0.77849007 1.257637
0.55366802 -0.44150999 1.257637
0.55366802 0.77849007 1.257637
-0.55633199 -0.44150999 1.2626369
-0.55633199 0.77849007 1.2626369
0.55366802 -0.44150999 1.2626369
0.55366802 0.77849007 1.2626369
-0.55633199 -0.44150999 1.267637
-0.55633199 0.77849007 1.267637
0.55366802 -0.44150999 1.267637
0.55366802 0.77849007 1.267637
-0.55633199 -0.44150999 1.272637
-0.55633199 0.77849007 1.272637
0.55366802 -0.44150999 1.272637
0.55366802 0.77849007 1.272637
-0.55633199 -0.44150999 1.277637
-0.55633199 0.77849007 1.277637
0.55366802 -0.44150999 1.277637
0.55366802 0.77849007 1.277637
-0.55633199 -0.44150999 1.282637
-0.55633199 0.77849007 1.282637
0.55366802 -0.44150999 1.282637
0.55366802 0.77849007 1.282637
-0.55633199 -0.44150999 1.287637
-0.55633199 0.77849007 1.287637
0.55366802 -0.44150999 1.287637
0.55366802 0.77849007 1.287637
-0.55633199 -0.44150999 1.292637
-0.55633199 0.77849007 1.292637
0.55366802 -0.44150999 1.292637
0.55366802 0.77849007 1.292637
-0.55633199 -0.44150999 1.297637
-0.55633199 0.77849007 1.297637
0.55366802 -0.44150999 1.297637
0.55366802 0.77849007 1.297637
-0.55633199 -0.44150999 1.302637
-0.55633199 0.77849007 1.302637
0.55366802 -0.44150999 1.302637
0.55366802 0.77849007 1.302637
-0.55633199 -0.44150999 1.307637
-0.55633199 0.77849007 1.307637
0.55366802 -0.44150999 1.307637
0.55366802 0.77849007 1.307637
-0.55633199 -0.44150999 1.312637
-0.55633199 0.77849007 1.312637
0.55366802 -0.44150999 1.312637
0.55366802 0.77849007 1.312637
-0.55633199 -0.44150999 1.317637
-0.55633199 0.77849007 1.317637
0.55366802 -0.44150999 1.317637
0.55366802 0.77849007 1.317637
-0.55633199 -0.44150999 1.322637
-0.55633199 0.77849007 1.322637
0.55366802 -0.44150999 1.322637
0.55366802 0.77849007 1.322637
-0.55633199 -0.44150999 1.327637
-0.55633199 0.77849007 1.327637
0.55366802 -0.44150999 1.327637
0.55366802 0.77849007 1.327637
-0.55633199 -0.44150999 1.332637
-0.55633199 0.77849007 1.332637
0.55366802 -0.44150999 1.332637
0.55366802 0.77849007 1.332637
-0.55633199 -0.44150999 1.3376369
-0.55633199 0.77849007 1.3376369
0.55366802 -0.44150999 1.3376369
0.55366802 0.77849007 1.3376369
-0.55633199 -0.44150999 1.3426369
-0.55633199 0.77849007 1.3426369
0.55366802 -0.44150999 1.3426369
0.55366802 0.77849007 1.3426369
-0.55633199 -0.44150999 1.3476369
-0.55633199 0.77849007 1.3476369
0.55366802 -0.44150999 1.3476369
0.55366802 0.77849007 1.3476369
-0.55633199 -0.44150999 1.3526369
-0.55633199 0.77849007 1.3526369
0.55366802 -0.44150999 1.3526369
0.55366802 0.77849007 1.3526369
-0.55633199 -0.44150999 1.3576369
-0.55633199 0.77849007 1.3576369
0.55366802 -0.44150999 1.3576369
0.55366802 0.77849007 1.3576369
-0.55633199 -0.44150999 1.3626369
-0.55633199 0.77849007 1.3626369
0.55366802 -0.44150999 1.3626369
0.55366802 0.77849007 1.3626369
-0.55633199 -0.44150999 1.3676369
-0.55633199 0.77849007 1.3676369
0.55366802 -0.44150999 1.3676369
0.55366802 0.77849007 1.3676369
-0.55633199 -0.44150999 1.372637
-0.55633199 0.77849007 1.372637
0.55366802 -0.44150999 1.372637
0.55366802 0.77849007 1.372637
-0.55633199 -0.44150999 1.3776369
-0.55633199 0.77849007 1.3776369
0.55366802 -0.44150999 1.3776369
0.55366802 0.77849007 1.3776369
-0.55633199 -0.44150999 1.382637
-0.55633199 0.77849007 1.382637
0.55366802 -0.44150999 1.382637
0.55366802 0.77849007 1.382637
-0.55633199 -0.44150999 1.3876369
-0.55633199 0.77849007 1.3876369
0.55366802 -0.44150999 1.3876369
0.55366802 0.77849007 1.3876369
-0.55633199 -0.44150999 1.392637
-0.55633199 0.77849007 1.392637
0.55366802 -0.44150999 1.392637
0.55366802 0.77849007 1.392637
-0.55633199 -0.44150999 1.397637
-0.55633199 0.77849007 1.397637
0.55366802 -0.44150999 1.397637
0.55366802 0.77849007 1.397637
-0.55633199 -0.44150999 1.402637
-0.55633199 0.77849007 1.402637
0.55366802 -0.44150999 1.402637
0.55366802 0.77849007 1.402637
-0.55633199 -0.44150999 1.407637
-0.55633199 0.77849007 1.407637
0.55366802 -0.44150999 1.407637
0.55366802 0.77849007 1.407637
-0.55633199 -0.44150999 1.412637
-0.55633199 0.77849007 1.412637
0.55366802 -0.44150999 1.412637
0.55366802 0.77849007 1.412637
-0.55633199 -0.44150999 1.417637
-0.55633199 0.77849007 1.417637
0.55366802 -0.44150999 1.417637
0.55366802 0.77849007 1.417637
-0.55633199 -0.44150999 1.422637
-0.55633199 0.77849007 1.422637
0.55366802 -0.44150999 1.422637
0.55366802 0.77849007 1.422637
-0.55633199 -0.44150999 1.427637
-0.55633199 0.77849007 1.427637
0.55366802 -0.44150999 1.427637
0.55366802 0.77849007 1.427637
-0.55633199 -0.44150999 1.432637
-0.55633199 0.77849007 1.432637
0.55366802 -0.44150999 1.432637
0.55366802 0.77849007 1.432637
-0.55633199 -0.44150999 1.437637
-0.55633199 0.77849007 1.437637
0.55366802 -0.44150999 1.437637
0.55366802 0.77849007 1.437637
-0.55633199 -0.44150999 1.442637
-0.55633199 0.77849007 1.442637
0.55366802 -0.44150999 1.442637
0.55366802 0.77849007 1.442637
-0.55633199 -0.44150999 1.447637
-0.55633199 0.77849007 1.447637
0.55366802 -0.44150999 1.447637
0.55366802 0.77849007 1.447637
-0.55633199 -0.44150999 1.452637
-0.55633199 0.77849007 1.452637
0.55366802 -0.44150999 1.452637
0.55366802 0.77849007 1.452637
-0.55633199 -0.44150999 1.457637
-0.55633199 0.77849007 1.457637
0.55366802 -0.44150999 1.457637
0.55366802 0.77849007 1.457637
-0.55633199 -0.44150999 1.4626369
-0.55633199 0.77849007 1.4626369
0.55366802 -0.44150999 1.4626369
0.55366802 0.77849007 1.4626369
-0.55633199 -0.44150999 1.4676369
-0.55633199 0.77849007 1.4676369
0.55366802 -0.44150999 1.4676369
0.55366802 0.77849007 1.4676369
-0.55633199 -0.44150999 1.4726369
-0.55633199 0.77849007 1.4726369
0.55366802 -0.44150999 1.4726369
0.55366802 0.77849007 1.4726369
-0.55633199 -0.44150999 1.4776371
-0.55633199 0.77849007 1.4776371
0.55366802 -0.44150999 1.4776371
0.55366802 0.77849007 1.4776371
-0.55633199 -0.44150999 1.4826369
-0.55633199 0.77849007 1.4826369
0.55366802 -0.44150999 1.4826369
0.55366802 0.77849007 1.4826369
-0.55633199 -0.44150999 1.487637
-0.55633199 0.77849007 1.487637
0.55366802 -0.44150999 1.487637
0.55366802 0.77849007 1.487637
-0.55633199 -0.44150999 1.4926369
-0.55633199 0.77849007 1.4926369
0.55366802 -0.44150999 1.4926369
0.55366802 0.77849007 1.4926369
-0.55633199 -0.44150999 0.93263698
-0.55633199 0.77849007 0.93263698
-0.55633199 -0.44150999 1.4926369
-0.55633199 0.77849007 1.4926369
-0.551332 -0.44150999 0.93263698
-0.551332 0.77849007 0.93263698
-0.551332 -0.44150999 1.4926369
-0.551332 0.77849007 1.4926369
-0.546332 -0.44150999 0.93263698
-0.546332 0.77849007 0.93263698
-0.546332 -0.44150999 1.4926369
-0.546332 0.77849007 1.4926369
-0.54133201 -0.44150999 0.93263698
-0.54133201 0.77849007 0.93263698
-0.54133201 -0.44150999 1.4926369
-0.54133201 0.77849007 1.4926369
-0.53633201 -0.44150999 0.93263698
-0.53633201 0.77849007 0.93263698
-0.53633201 -0.44150999 1.4926369
-0.53633201 0.77849007 1.4926369
-0.53133202 -0.44150999 0.93263698
-0.53133202 0.77849007 0.93263698
-0.53133202 -0.44150999 1.4926369
-0.53133202 0.77849007 1.4926369
-0.52633202 -0.44150999 0.93263698
