ply
format ascii 1.0
element vertex 1773
property float x
property float y
property float z
end_header
0.208126 -0.00287664 1.0432
-0.404517 0.00116181 1.20167
0.391219 0.0134223 1.2607
0.0191481 0.0164381 1.07239
0.105139 0.0264109 1.06544
0.181755 0.0234395 1.05841
0.339325 0.0290643 1.21642
-0.258662 0.0348431 1.17278
0.152892 0.0262653 1.06809
-0.170783 0.0319303 1.1132
0.0603842 0.0300563 1.06554
0.31703 0.0340808 1.21837
0.0297344 0.0329826 1.0683
-0.145553 0.0419537 1.1099
0.0927628 0.0395917 1.0582
-0.249357 0.0479487 1.16598
-0.172916 0.0474869 1.11545
0.546133 0.0517814 1.22731
0.48901 0.0569297 1.30571
-0.126817 0.051539 1.11752
0.0795166 0.0483006 1.06763
0.100904 0.0554241 1.08123
0.181595 0.0581134 1.07061
0.507453 0.0728966 1.30583
-0.132323 0.0645575 1.10986
0.0736218 0.0664124 1.08061
0.115012 0.074431 1.1034
-0.0272664 0.0787021 1.13413
-0.0717201 0.0851234 1.14439
0.0549695 0.0856304 1.10527
-0.0815244 0.092591 1.11862
-0.0489509 0.102159 1.15305
0.17669 0.107541 1.1465
0.523618 0.121081 1.31815
0.0673273 0.111661 1.13019
-0.0704125 0.124082 1.16851
0.47157 0.167916 1.36566
0.539227 0.158458 1.26451
0.451067 0.187812 1.39215
0.419035 0.199568 1.43592
0.448342 0.209399 1.40666
0.400433 0.221251 1.4492
0.470357 0.219295 1.3862
0.376966 0.234919 1.4771
0.439415 0.294506 1.43997
0.400885 0.313923 1.51313
0.501457 0.296378 1.38807
0.4698 0.308563 1.42056
0.485022 0.314366 1.40864
0.39886 0.380798 1.56552
0.51076 0.351568 1.39294
0.40989 0.393482 1.54237
0.475615 0.402688 1.44379
0.437897 -0.271064 1.40568
0.449664 -0.236548 1.40262
-0.296385 -0.204615 1.26991
0.478625 -0.206563 1.35139
0.493271 -0.174904 1.30276
-0.106191 -0.122238 1.13064
0.112717 -0.110753 1.11538
0.527898 -0.118104 1.26939
-0.37845 -0.100637 1.23844
0.299252 -0.0752825 1.2067
0.188187 -0.0552625 1.07908
0.496532 -0.0549942 1.29178
0.0706548 -0.0164377 1.06458
-0.0917497 -0.00414678 1.11091
-0.405169 -0.000280464 1.22219
-0.000243098 -0.00107125 1.0523
0.156617 0.00032878 1.07173
-0.419705 0.0240711 1.22726
-0.110088 0.0249811 1.11094
0.337755 0.0313516 1.21593
-0.152177 0.0341886 1.11178
-0.0800745 0.0399026 1.15754
-0.128513 0.0633311 1.11247
0.137955 0.0622475 1.10991
-0.165358 0.0693945 1.11737
0.117853 0.0893643 1.10895
0.453316 0.114031 1.33682
0.113988 0.154875 1.1742
0.49095 0.191679 1.35737
0.376639 0.259307 1.53398
0.465646 0.33492 1.42675
0.479237 -0.262461 1.33883
-0.07291 -0.080508 1.14676
0.0932279 -0.0175739 1.06014
0.0228878 -0.000639926 1.0323
0.117591 0.00674913 1.08842
0.104692 0.0267821 1.06199
0.124594 0.0330418 1.07676
0.0976448 0.0407441 1.05969
-0.225974 -0.216298 1.31486
0.389203 -0.191334 1.38153
-0.346511 -0.140034 1.2379
-0.0278855 -0.0743632 1.1155
-0.0844574 -0.0531612 1.13909
0.0663969 -0.0526302 1.08518
-0.113346 -0.0409782 1.10847
0.0719284 -0.0187367 1.07085
-0.149402 -0.0136582 1.09855
0.115975 0.00539185 1.07335
0.154004 0.00726593 1.06318
-0.154712 0.0285837 1.10869
0.0700044 0.0272046 1.06774
-0.250375 0.0314915 1.17092
-0.260264 0.0661313 1.24281
0.145164 0.0633177 1.1098
-0.0220467 0.0728766 1.1642
0.116216 0.0859248 1.10103
-0.0148765 -0.0836278 1.12996
-0.263041 -0.0134045 1.15878
-0.244264 0.0433092 1.18326
-0.245259 0.115288 1.28115
0.199298 0.0148447 1.05738
0.603924 -0.357482 1.24142
0.536427 -0.35809 1.30659
0.518762 -0.358942 1.32146
0.606598 -0.331633 1.25088
0.529094 -0.342745 1.30911
0.570351 -0.331059 1.27405
0.583956 -0.319849 1.29317
0.539297 -0.320567 1.31606
0.520298 -0.314627 1.30865
0.581901 -0.268738 1.26477
-0.285208 -0.208784 1.22445
-0.298145 -0.20351 1.2133
-0.272919 -0.202766 1.2337
0.518936 -0.227054 1.28946
0.5428 -0.240065 1.33065
0.590823 -0.173278 1.23626
0.550329 -0.175584 1.26045
0.52226 -0.175653 1.28982
-0.126568 -0.10345 1.1362
0.0277591 -0.0905258 1.10047
-0.231865 -0.10507 1.21396
0.593619 -0.124908 1.24584
-0.063073 -0.0861194 1.14458
0.114226 -0.067396 1.08041
0.558973 -0.0895178 1.24084
0.579873 -0.0862354 1.24332
-0.254484 -0.0580942 1.1539
-0.117468 -0.0222272 1.10507
0.559036 -0.0441195 1.19074
0.381752 -0.056928 1.27395
0.153354 -0.00922433 1.06398
-0.158488 -0.00490317 1.10579
0.22657 0.0139647 1.04469
-0.217943 0.0107952 1.14677
0.351017 -0.00705732 1.22882
0.359442 0.00456605 1.23603
0.0612185 0.0343295 1.07204
0.316815 0.0106595 1.22293
-0.306633 0.0375952 1.17384
-0.223697 0.0383713 1.15611
0.120212 0.0408384 1.07725
0.405657 0.0203447 1.25975
-0.172799 0.0474131 1.11432
-0.103295 0.0456176 1.12522
0.522387 0.0205337 1.29981
0.108426 0.0623837 1.0938
-0.265525 0.0567762 1.19014
0.143377 0.0687451 1.11352
0.405868 0.0422619 1.29025
0.077193 0.0750426 1.09608
0.254162 0.072099 1.13966
-0.138065 0.0775162 1.11905
0.223142 0.0802022 1.08593
0.555637 0.0660442 1.21818
0.210175 0.087425 1.08229
0.565378 0.0696635 1.21873
0.10482 0.0917466 1.09686
0.162347 0.0946557 1.10624
0.32429 0.0824253 1.25776
-0.035131 0.0978774 1.15883
0.574191 0.0791863 1.21447
0.493122 0.0798804 1.31266
-0.0851264 0.105723 1.13673
0.565713 0.0917725 1.22997
0.578244 0.0920494 1.22448
-0.094845 0.110237 1.13395
0.56447 0.0866794 1.24894
-0.103631 0.116974 1.1448
0.145558 0.114112 1.12239
0.105909 0.119378 1.12951
0.321072 0.114455 1.30814
0.439643 0.117208 1.33766
0.0282743 0.133442 1.15359
0.170253 0.133492 1.15414
0.150994 0.145617 1.15231
0.108395 0.15292 1.16965
0.588521 0.150362 1.25981
0.523075 0.151621 1.32714
0.524877 0.156084 1.29552
-0.113697 0.171687 1.19707
0.510695 0.175071 1.3228
0.526715 0.178993 1.3012
0.51546 0.191889 1.33034
0.500735 0.205094 1.35465
0.504722 0.217387 1.34674
0.0727992 0.234091 1.41137
0.422697 0.265044 1.44052
0.593927 0.261453 1.29354
0.58039 0.270964 1.30522
0.508913 0.306957 1.38312
0.542749 0.315952 1.35011
0.460826 0.326687 1.44177
0.595022 0.318419 1.31864
0.601588 0.314445 1.30135
0.579295 0.321153 1.3245
0.518048 0.343787 1.38775
0.597339 0.336493 1.30674
0.521192 0.350773 1.38256
0.484882 0.364423 1.42493
0.551531 -0.312581 1.32033
0.520623 -0.296779 1.30814
0.451815 -0.301071 1.3992
0.585962 -0.227295 1.24725
0.481124 -0.236066 1.33925
0.582287 -0.17942 1.24192
-0.0853038 -0.114402 1.14581
0.525269 -0.142035 1.26704
0.58802 -0.114054 1.23851
0.541354 -0.117409 1.25922
0.57366 -0.108265 1.23334
-0.255928 -0.0813217 1.2057
0.579417 -0.085281 1.23661
0.131606 -0.0337115 1.0721
0.0935972 -0.0185502 1.06338
-0.117089 -0.0240301 1.10412
-0.162151 -0.00754995 1.107
0.0536839 0.00164852 1.06242
0.135543 -0.00168451 1.0701
0.559519 -0.0294932 1.20772
-0.358693 -0.00659743 1.20445
0.305861 -0.0180156 1.23573
0.180961 0.0243547 1.0571
0.0310303 0.0299848 1.0646
-0.172153 0.0333391 1.10923
0.395565 0.00880151 1.26226
0.0549334 0.0470014 1.09126
0.343562 0.0283682 1.22697
-0.00933146 0.0813873 1.12318
-0.269264 0.0905029 1.20706
-0.0854362 0.131898 1.16912
0.47305 0.120774 1.3444
-0.290872 0.145387 1.29885
0.511779 0.219513 1.35059
0.587674 0.220001 1.28949
0.578319 -0.344162 1.27014
0.519846 -0.31492 1.30887
0.471265 -0.284122 1.36072
0.149264 -0.0469044 1.08289
0.212163 0.00885624 1.04059
-0.172857 0.0479119 1.11438
0.116235 0.0471826 1.09251
0.549273 0.0716034 1.22754
0.180468 0.0937072 1.09605
0.515964 0.152053 1.3035
0.502126 0.180349 1.34255
0.482567 0.184923 1.36488
0.467958 0.196458 1.37363
0.516724 0.261793 1.35535
0.508606 0.276033 1.38524
0.547621 0.272775 1.32825
0.445634 0.319393 1.45181
0.38261 -0.289114 1.44914
0.413666 -0.250781 1.43169
0.357465 -0.265453 1.51149
0.496081 -0.12847 1.31176
-0.00839471 -0.0778768 1.11932
-0.272115 -0.0702659 1.19042
0.13247 -0.0309997 1.0769
0.0229014 0.000889968 1.00967
-0.167393 -0.00978975 1.11589
0.180376 -0.0016741 1.0601
0.126236 0.00606802 1.06259
0.121773 0.0278163 1.07257
0.506712 0.00898949 1.24715
0.127523 0.0494072 1.06423
-0.08521 0.0743894 1.14775
-0.145152 0.0915824 1.12202
-0.415484 0.0807719 1.28263
-0.089783 0.0963762 1.16274
-0.377829 0.129858 1.31619
0.45804 0.150431 1.36827
0.358697 0.166991 1.3725
0.395408 0.219799 1.44327
0.40333 0.241738 1.43036
0.383303 0.251961 1.46292
0.45078 0.248541 1.4027
0.562929 0.270483 1.31858
0.542847 0.29025 1.33739
0.481918 -0.318509 1.33126
0.383289 -0.250565 1.4778
0.522686 -0.179133 1.27582
-0.0793559 -0.107119 1.15181
0.509955 -0.150348 1.29825
0.464033 -0.116847 1.32007
0.0644538 -0.0484365 1.08452
0.521135 -0.00219244 1.29372
-0.384649 0.109975 1.28961
0.46612 0.113972 1.35519
0.452341 0.217036 1.40325
0.109255 -0.0192258 1.08969
0.097222 0.00708525 1.06096
0.514506 -0.445143 1.29657
0.533187 -0.420044 1.28288
0.489336 -0.408405 1.33081
0.615905 -0.363038 1.2653
0.499247 -0.386578 1.32097
0.610521 -0.337952 1.2448
0.599312 -0.349298 1.26108
0.550551 -0.360519 1.28865
0.592048 -0.317973 1.25616
0.51565 -0.354836 1.3186
0.595939 -0.290392 1.2564
0.473081 -0.336446 1.36178
-0.290341 -0.220735 1.21369
0.595391 -0.260322 1.25037
0.579043 -0.255615 1.25808
0.590401 -0.255197 1.25584
-0.273421 -0.211036 1.22482
0.600258 -0.247683 1.25051
-0.132167 -0.150838 1.12943
0.55207 -0.253126 1.27201
-0.0195488 -0.200613 1.217
0.416617 -0.318104 1.40211
-0.0456377 -0.196036 1.21929
0.485769 -0.278567 1.3375
0.522649 -0.234155 1.26375
0.470777 -0.282557 1.35747
0.561122 -0.230237 1.26014
0.502878 -0.242576 1.29903
0.523933 -0.231293 1.28268
0.45676 -0.27862 1.37111
0.500652 -0.236149 1.30831
0.543548 -0.209179 1.25919
-0.12036 -0.141163 1.16878
0.55646 -0.201794 1.25327
-0.0679744 -0.123196 1.15049
0.588294 -0.183153 1.23582
0.514059 -0.207148 1.28578
0.458917 -0.246796 1.36115
0.527739 -0.198922 1.27503
-0.0667128 -0.105191 1.1434
0.532671 -0.161952 1.26423
-0.0876987 -0.0750017 1.15646
-0.255808 -0.10025 1.22652
-0.129371 -0.0400237 1.10478
0.568957 -0.130389 1.24756
-0.12182 -0.0300636 1.10055
0.528028 -0.126816 1.27462
-0.25034 -0.0660092 1.18488
0.070037 -0.00608387 1.06272
0.181782 -0.00350997 1.05387
0.00487225 0.0136558 1.04228
0.57156 -0.094367 1.24268
0.178946 0.00730674 1.06015
0.015578 0.0230928 1.03607
0.211071 0.0226638 1.03658
0.220962 0.0224506 1.04062
-0.157889 0.0101712 1.10462
-0.168803 0.0108209 1.10924
-0.300309 0.00331514 1.1365
0.104893 0.0265758 1.06792
-0.239535 0.00743578 1.16188
0.172838 0.0369679 1.0666
0.214997 0.0491823 1.04637
-0.0644933 0.0220444 1.12742
0.185712 0.050837 1.0461
0.189814 0.0548572 1.06129
0.114625 0.0486653 1.08586
0.23007 0.0454108 1.09542
-0.0146527 0.0526803 1.11278
0.146583 0.0596889 1.08655
0.52786 -0.0373371 1.28522
0.127931 0.0595755 1.09469
0.313677 0.00549153 1.20541
0.336174 -0.0113777 1.24454
-0.0398316 0.0474881 1.13471
0.210655 0.0620519 1.07721
0.107442 0.069959 1.084
0.490568 -0.0427926 1.30259
-0.0459668 0.0612099 1.13237
-0.0570185 0.0567536 1.142
0.342426 0.0102171 1.22837
0.301226 0.0234246 1.20398
0.36291 0.00904168 1.24863
0.520095 -0.00177021 1.30203
0.314463 0.0408618 1.2147
0.15473 0.0875102 1.10219
0.420437 0.0150704 1.28672
0.180525 0.0920532 1.10038
-0.132619 0.0963736 1.11863
0.0433064 0.095401 1.107
0.173185 0.095912 1.10051
0.327912 0.0439971 1.22785
0.301639 0.0472218 1.23365
0.318897 0.0501516 1.21955
0.355351 0.0432263 1.24236
0.106217 0.0991308 1.11379
0.33657 0.0469102 1.23627
0.208044 0.10137 1.10279
0.217745 0.106042 1.10312
0.326267 0.0577116 1.23444
0.351239 0.053181 1.2482
0.341281 0.0567633 1.25448
-0.0544588 0.105567 1.15418
0.144606 0.113902 1.12164
0.182834 0.114243 1.11621
0.208893 0.115306 1.10704
0.0366134 0.116802 1.12745
0.162988 0.116009 1.12443
0.546277 0.0711152 1.22419
0.196379 0.117823 1.12266
-0.416164 0.0779245 1.28891
-0.138838 0.127277 1.1375
-0.0268365 0.113991 1.16409
0.377108 0.0645095 1.27409
-0.0858224 0.112846 1.16784
0.213845 0.116099 1.14773
-0.131517 0.130698 1.14499
-0.0987284 0.125858 1.15331
0.360109 0.0724956 1.27897
0.106912 0.1303 1.13009
-0.126308 0.12935 1.15727
-0.0486663 0.123161 1.16891
0.0840157 0.129722 1.13893
0.120591 0.128433 1.14158
-0.136087 0.136599 1.14591
-0.0127042 0.130208 1.15718
0.131709 0.132032 1.14233
0.334594 0.0825527 1.27589
0.148394 0.13443 1.1427
0.0387282 0.130619 1.15507
0.140468 0.135966 1.14448
0.185651 0.130384 1.15165
0.308005 0.0901717 1.26618
0.197824 0.134933 1.14816
-0.0804762 0.135907 1.16692
0.0867391 0.139874 1.1542
0.123247 0.142796 1.14135
0.354162 0.0886646 1.29241
0.0296718 0.147516 1.15625
0.540952 0.106777 1.24424
0.163163 0.146911 1.15474
0.305756 0.103858 1.27994
0.539553 0.0953529 1.28719
0.174026 0.142629 1.1678
0.154299 0.149921 1.16373
-0.0451361 0.14745 1.20193
0.108754 0.151336 1.17606
0.0392549 0.155765 1.17897
0.176301 0.155247 1.17169
0.546191 0.116423 1.26419
0.557135 0.1174 1.26377
-0.410141 0.117029 1.34557
-0.024083 0.154171 1.18624
0.0221337 0.161821 1.16996
0.0766305 0.160878 1.17668
0.133446 0.156903 1.17937
0.177603 0.159763 1.18336
0.149271 0.163601 1.17662
0.557078 0.131311 1.25247
0.131913 0.165161 1.18243
-0.230905 0.161133 1.23785
-0.110667 0.17139 1.19232
0.0816416 0.166149 1.19156
0.551145 0.134182 1.2624
0.523208 0.120215 1.30949
0.174056 0.165804 1.19551
0.0921555 0.170948 1.19755
0.11549 0.174643 1.1966
0.520208 0.139195 1.28145
-0.178499 0.168035 1.25389
0.137197 0.176728 1.20108
0.165355 0.175517 1.20394
-0.0374778 0.17779 1.22307
0.10532 0.179051 1.20895
0.152912 0.175009 1.219
-0.186119 0.176789 1.26214
-0.157691 0.179953 1.25747
0.224686 0.166132 1.27678
0.109838 0.185064 1.21944
0.532268 0.15757 1.28994
0.0875436 0.188504 1.23772
-0.163869 0.18592 1.27378
-0.170348 0.189591 1.28395
0.501838 0.160619 1.32592
0.121007 0.194014 1.2405
0.0853318 0.19212 1.26083
0.276835 0.151242 1.40767
-0.112073 0.190848 1.28852
-0.144637 0.197308 1.29282
-0.13485 0.196423 1.317
0.285786 0.171427 1.37566
0.365062 0.169705 1.38931
-0.224686 0.200214 1.34032
-0.205427 0.201612 1.33719
0.0524505 0.205676 1.31125
-0.0571262 0.213055 1.30135
-0.0333637 0.212442 1.31331
-0.228325 0.202305 1.37908
0.536845 0.19769 1.31845
0.541641 0.202199 1.31044
0.552059 0.206322 1.30377
0.485577 0.199096 1.35446
0.531705 0.202727 1.32287
0.559691 0.208491 1.30119
-0.0349033 0.203894 1.37019
0.0375323 0.215735 1.33267
0.468941 0.194444 1.37993
0.0238284 0.209181 1.36189
0.0833817 0.219603 1.39154
0.540432 0.225363 1.32353
0.527585 0.229176 1.33596
0.427934 0.214292 1.42391
-0.0486496 0.225793 1.41641
0.490558 0.225875 1.37211
0.499511 0.227062 1.36479
0.56396 0.235813 1.31346
0.417483 0.219018 1.43681
0.443521 0.222254 1.41407
0.552827 0.240495 1.31939
0.469329 0.232196 1.38192
0.447365 0.23152 1.41328
0.0703442 0.240618 1.42542
0.408255 0.230074 1.42714
0.0196797 0.243355 1.44498
0.444725 0.237512 1.42354
0.501509 0.24618 1.36737
0.533372 0.252387 1.33719
0.00304072 0.242039 1.47359
0.0489036 0.249093 1.43037
0.427199 0.240301 1.43115
0.435245 0.243397 1.43001
0.493632 0.252027 1.37828
0.40679 0.242163 1.45275
0.389884 0.240766 1.46737
0.415009 0.24483 1.44227
0.0108288 0.25219 1.47476
0.546633 0.263632 1.33301
0.558456 0.265469 1.32992
0.435466 0.253386 1.43077
0.518283 0.263424 1.36256
0.39177 0.250846 1.46517
0.508858 0.264729 1.36888
0.472936 0.262623 1.41105
0.401806 0.256377 1.44905
0.568743 0.280248 1.32338
0.519777 0.273392 1.36652
0.557556 0.280049 1.32726
0.496878 0.273074 1.39166
0.547133 0.285378 1.33901
0.494053 0.281712 1.39527
0.458592 0.280299 1.42428
0.489134 0.284245 1.40676
0.454839 0.290431 1.43024
0.514439 0.297223 1.37875
0.548579 0.305237 1.34939
0.558437 0.304037 1.34323
0.534206 0.305298 1.36406
0.51053 0.305741 1.38817
0.541648 0.327096 1.35967
0.470874 0.318954 1.43574
0.506644 0.324227 1.39207
0.562658 0.327129 1.35894
0.396086 0.316145 1.55322
0.562497 0.344384 1.33403
0.481237 0.336612 1.43614
0.488412 0.337528 1.41271
0.485785 0.352798 1.42744
0.459895 0.364947 1.45789
0.528782 0.372827 1.37971
0.509663 0.389666 1.39512
0.53679 0.41385 1.34994
0.544742 -0.410422 1.27744
0.535996 -0.356332 1.30766
0.493257 -0.316026 1.33366
0.487596 -0.302854 1.33979
0.538375 -0.26905 1.28537
-0.155872 -0.151159 1.15191
0.516894 -0.258799 1.30391
-0.13797 -0.14213 1.14081
-0.0706317 -0.161387 1.18886
0.475117 -0.258044 1.33826
0.468274 -0.231463 1.35761
-0.130548 -0.0679413 1.11331
-0.0742837 -0.0803199 1.14358
0.0800957 -0.0381416 1.06111
0.0608649 -0.046255 1.08741
0.0525208 0.00115561 1.06293
-0.407235 -0.0564495 1.23741
0.0434368 0.0154133 1.06749
0.184217 0.022185 1.05619
0.0123874 0.0386455 1.05741
-0.186692 0.0249694 1.11044
0.108992 0.0402481 1.07448
-0.0280259 0.0380732 1.10628
0.042948 0.0422122 1.09294
-0.238598 0.0223803 1.16825
-0.102344 0.0461994 1.13062
-0.292408 0.0375156 1.17675
-0.0386497 0.0662825 1.14206
0.0153962 0.0741486 1.10997
0.130076 0.071315 1.10732
0.470212 -0.010568 1.28726
0.286094 0.043903 1.19874
0.105272 0.0922123 1.0975
0.481666 0.00225984 1.30231
-0.260593 0.0704138 1.19369
0.368439 0.0384538 1.25563
0.300679 0.0577683 1.21938
-0.146133 0.106563 1.13464
0.468883 0.0325418 1.29788
-0.0685313 0.104351 1.14896
0.549065 0.0526067 1.2419
0.124651 0.116169 1.11876
0.2195 0.114214 1.12357
0.0866782 0.119502 1.1289
-0.10921 0.117416 1.15396
0.0722061 0.127659 1.13023
0.187808 0.124812 1.13427
0.386359 0.0685046 1.28622
0.146327 0.126112 1.13864
-0.259209 0.104378 1.23639
-0.0696129 0.123511 1.16703
0.043944 0.136861 1.14879
-0.051511 0.136577 1.17534
0.0299649 0.146821 1.15561
0.129433 0.146745 1.16281
0.119448 0.155808 1.17198
0.2477 0.144363 1.26735
0.550623 0.128442 1.2891
0.0723129 0.189161 1.23375
0.138231 0.189581 1.23812
0.457225 0.15022 1.35698
0.446026 0.156668 1.36486
-0.123725 0.189897 1.29824
-0.204135 0.189086 1.31763
-0.0731597 0.193499 1.30841
-0.046928 0.204477 1.27423
0.0521618 0.20654 1.30485
0.0743667 0.209043 1.30751
0.00326368 0.211755 1.33528
-0.0211789 0.216959 1.38671
0.432035 0.199348 1.42232
0.324347 0.192368 1.54996
0.44803 0.209054 1.40757
0.535405 0.228542 1.30316
0.472497 0.217264 1.39003
0.00335219 0.227115 1.43739
-0.0226457 0.240578 1.45904
0.371221 0.231702 1.46992
0.449993 0.246273 1.41196
0.523913 0.303917 1.37386
0.440797 0.292375 1.44875
0.463038 0.304101 1.42958
0.472114 0.307593 1.41931
0.54784 0.31157 1.37944
0.372201 0.313497 1.5544
0.539101 0.346186 1.36822
0.493297 0.38335 1.41151
0.562109 -0.397741 1.27653
0.565119 -0.299207 1.27151
-0.0940128 -0.159708 1.14317
0.536037 -0.233177 1.27769
-0.294991 -0.146984 1.20389
-0.142293 -0.0241684 1.10799
0.187156 0.035955 1.0486
-0.0704509 0.0317098 1.1434
-0.405315 0.00642356 1.22947
0.196297 0.0707653 1.07606
0.0549884 0.0850416 1.10624
0.315019 0.0396857 1.21593
0.208326 0.103015 1.10092
-0.0870746 0.113291 1.13928
0.0547762 0.117322 1.12564
-0.136858 0.131073 1.14903
0.160532 0.128906 1.13329
0.130413 0.130397 1.14329
0.0297039 0.133348 1.14774
0.537837 0.0851375 1.27595
0.162816 0.146543 1.15649
0.119604 0.156392 1.16989
0.139613 0.175303 1.21611
0.51459 0.143725 1.30287
0.503642 0.159628 1.32781
-0.212841 0.210522 1.36719
0.5025 0.206153 1.42186
0.453944 0.221841 1.40826
0.0923126 0.239508 1.4095
0.51985 0.260692 1.36479
0.509461 0.262329 1.37138
0.471266 0.292225 1.41983
0.518703 0.303433 1.43544
0.551041 -0.345474 1.28988
0.428691 -0.410584 1.45947
-0.264693 -0.20551 1.20711
0.498393 -0.262898 1.32905
0.536509 -0.235378 1.28042
-0.294611 -0.168897 1.20528
-0.0694616 -0.14978 1.17025
0.174277 -0.108553 1.1456
0.539476 -0.167 1.25509
-0.130699 -0.0767458 1.12505
0.132393 -0.0306393 1.07429
0.111807 -0.0256168 1.07876
0.213256 -0.0219771 1.07846
0.187314 -0.00279418 1.04779
-0.248492 -0.0396677 1.16725
0.179039 -0.00383417 1.06199
0.0532642 0.000805572 1.06616
-0.0911015 -0.0142958 1.11201
0.098312 0.00709095 1.06232
0.463165 -0.117196 1.31781
0.11388 0.00640159 1.08127
0.106793 0.0367081 1.08351
0.303164 -0.0148312 1.21317
0.498581 -0.0605007 1.29948
-0.239025 0.0216279 1.16441
0.0589738 0.0498312 1.0855
0.200664 0.0617225 1.06573
0.528941 -0.0337223 1.28358
-0.0736151 0.0495728 1.13339
0.359079 0.00840479 1.2323
-0.272838 0.0488541 1.18305
-0.0712109 0.0577276 1.15202
-0.0378997 0.0629766 1.14606
-0.335004 0.0401813 1.21916
0.179873 0.0791715 1.08979
0.201694 0.0823392 1.08593
0.517917 -0.000361889 1.29951
0.48418 -0.00414085 1.30566
-0.10741 0.0834284 1.14178
0.176715 0.098695 1.11764
-0.132887 0.0976933 1.14535
-0.149725 0.107839 1.1382
-0.0669145 0.104594 1.1482
-0.0284734 0.106596 1.14868
0.156876 0.114576 1.12149
0.122622 0.117059 1.12215
-0.180744 0.113877 1.16195
-0.254268 0.109275 1.22216
-0.0689868 0.123156 1.16598
0.161486 0.130817 1.14321
-0.0500654 0.13641 1.1754
-0.00639222 0.1456 1.1527
0.0948732 0.144597 1.15123
-0.120504 0.148201 1.17231
0.365003 0.100119 1.30682
0.478005 0.103706 1.32321
-0.105822 0.153177 1.22508
0.108113 0.168099 1.19107
0.468894 0.118804 1.34563
0.502308 0.146314 1.3123
-0.2077 0.187782 1.32934
0.383393 0.157771 1.37863
0.0553 0.204826 1.30374
-0.0303577 0.211667 1.33508
0.00380144 0.211004 1.3402
0.452651 0.188116 1.39103
0.414677 0.204615 1.43925
0.306529 0.19569 1.49682
0.329696 0.201254 1.55678
0.47648 0.234602 1.39392
0.399977 0.228177 1.44543
-0.0197222 0.241345 1.4474
0.0726026 0.245752 1.42553
0.486606 0.25305 1.37679
0.362837 0.252431 1.49159
0.37182 0.289373 1.55707
-0.302274 -0.184499 1.22731
-0.266712 -0.166265 1.19911
0.473955 -0.0913018 1.30658
0.0598171 0.0521791 1.094
-0.165419 0.0620759 1.13087
-0.100618 0.113117 1.13125
0.11975 0.121949 1.12466
-0.0697346 0.12424 1.16411
0.346949 0.0762806 1.27119
-0.117506 0.150341 1.16731
-0.269593 0.157152 1.2045
-0.366108 0.157996 1.39482
-0.338359 0.161295 1.41496
-0.115469 0.185438 1.30658
0.193363 0.18083 1.32412
0.472447 0.17006 1.36142
0.0633985 0.204347 1.32151
0.432827 0.190544 1.42574
0.353399 0.199056 1.52554
0.023722 0.0553511 1.10177
0.453611 0.150787 1.36221
0.0235714 0.225698 1.40322
-0.299461 -0.160376 1.18729
0.153887 0.00580617 1.07034
-0.212666 -0.0131252 1.12735
-0.0902076 -0.00319122 1.11106
0.0299887 0.0296019 1.07202
0.0590442 0.0562262 1.09282
0.142888 0.0578485 1.10597
0.181749 0.0735762 1.08486
0.114015 0.0880262 1.10352
-0.0746345 0.0858904 1.13389
-0.102008 0.110369 1.14583
0.155722 0.114891 1.1229
-0.0518146 0.104672 1.17287
-0.0701892 0.125345 1.16683
0.340048 0.0827365 1.27144
0.137305 0.147381 1.16285
0.0262042 0.152857 1.17412
0.109999 0.159933 1.18178
-0.200533 0.167627 1.26604
-0.160227 0.190296 1.30731
-0.017323 0.200107 1.25321
0.195591 0.0108268 1.05812
-0.0118609 0.0703121 1.13862
-0.196272 0.159993 1.25544
0.105174 0.137005 1.13279
0.574727 -0.474283 1.24562
0.65896 -0.426064 1.2019
0.5406 -0.477511 1.27533
0.648363 -0.407677 1.21038
0.548269 -0.467539 1.28032
0.554169 -0.442016 1.26408
0.649194 -0.394759 1.21643
0.608884 -0.412809 1.23812
0.533432 -0.456612 1.28366
0.520235 -0.460616 1.29695
0.539436 -0.401646 1.28788
0.62219 -0.331364 1.22271
0.557975 -0.352184 1.28042
0.630384 -0.298313 1.22089
0.624455 -0.27887 1.2259
0.620008 -0.271769 1.23036
0.607091 -0.273774 1.24079
0.511386 -0.330997 1.32432
0.569233 -0.279646 1.26534
0.568776 -0.247215 1.25884
0.501209 -0.296339 1.3205
-0.0677102 -0.142308 1.17547
-0.14586 -0.109064 1.15961
-0.38276 -0.0897879 1.19076
0.042472 0.00210549 1.06493
0.098272 0.00945645 1.0574
0.546175 -0.153866 1.25179
0.608535 -0.139791 1.23335
0.545843 -0.154942 1.26632
-0.400756 -0.0143757 1.23857
0.235959 0.0617691 1.11067
0.120556 0.0976299 1.11543
0.301856 0.034229 1.20374
0.571059 0.0235857 1.23786
0.10614 0.134218 1.14617
0.286746 0.0793488 1.23797
0.324991 0.0691593 1.25173
0.348403 0.0666389 1.25896
0.133638 0.139564 1.15849
0.0881808 0.146213 1.16038
0.341647 0.0783843 1.26903
0.319712 0.0856183 1.26993
0.348752 0.0843812 1.27514
-0.127288 0.162285 1.1678
0.167709 0.156668 1.16408
0.292399 0.102799 1.2712
0.0632839 0.166291 1.18548
0.325067 0.103936 1.28938
0.16511 0.166958 1.18738
0.322178 0.107429 1.29812
0.153768 0.169172 1.19719
0.106675 0.172139 1.20091
0.536067 0.126117 1.26393
0.096305 0.175169 1.20105
0.293662 0.122722 1.30151
0.531688 0.131638 1.27454
0.286071 0.129365 1.30955
0.303886 0.126538 1.31341
0.13223 0.18012 1.22753
0.253014 0.150441 1.27634
0.14798 0.181422 1.22266
0.536372 0.143466 1.28118
0.309698 0.132681 1.32261
0.282012 0.137145 1.32023
0.292759 0.138314 1.32546
0.277758 0.145347 1.3264
0.540492 0.158177 1.28915
-0.154061 0.18879 1.28839
0.527535 0.207481 1.33245
0.551649 0.220952 1.31421
0.493437 0.205138 1.36478
0.442429 0.209242 1.40667
0.546997 0.240166 1.3298
0.54872 0.247296 1.32898
0.550815 0.258549 1.32454
0.0612535 0.238671 1.41683
0.525851 0.260497 1.35516
0.529248 0.268405 1.35073
0.553172 0.287555 1.33188
0.410211 0.25024 1.45649
0.459732 0.265793 1.41976
0.517518 0.284282 1.37024
0.524706 0.2914 1.37302
0.482934 0.298702 1.40916
0.458903 0.300165 1.43586
0.436938 0.312256 1.46407
0.647236 -0.394795 1.22515
0.591877 -0.400342 1.24204
0.633522 -0.329186 1.2135
0.441392 -0.491161 1.41201
0.526269 -0.281616 1.29319
0.537974 -0.198554 1.26549
-0.0743565 -0.0784705 1.14006
-0.360228 -0.0887546 1.18509
0.0581866 0.0292122 1.06837
0.0441172 0.0318181 1.07993
0.19525 0.0831015 1.08097
4.13997e-05 0.0751525 1.12533
0.0813938 0.106147 1.1053
0.461211 0.00730967 1.29931
0.188026 0.141204 1.16203
-0.0574795 0.15068 1.17989
0.549052 0.113124 1.24732
0.362331 0.098996 1.30317
0.114354 0.164773 1.19753
0.442247 0.114754 1.33777
0.425108 0.14678 1.36217
-0.096729 0.194952 1.30017
-0.0767541 0.194645 1.30115
-0.0454941 0.199903 1.28826
0.537566 0.29911 1.3532
-0.0751375 -0.168362 1.16595
0.525779 -0.197063 1.27129
0.207917 0.040576 1.04372
-0.0741418 0.0436879 1.15046
0.0898192 0.0876027 1.10403
-0.00938586 0.0812294 1.12106
0.206016 0.117898 1.12134
0.336483 0.0466855 1.23569
0.0755688 0.144984 1.14079
0.113601 0.143822 1.15828
0.153033 0.150002 1.16297
0.176727 0.157004 1.16813
0.354548 0.0898632 1.29146
0.178882 0.160232 1.18385
0.125494 0.169329 1.18883
0.590568 -0.405 1.2465
0.573559 -0.388828 1.24818
0.433616 -0.503675 1.41925
0.570433 -0.194228 1.25132
-0.162411 -0.00911648 1.11183
0.540924 -0.116802 1.25594
0.496189 -0.129948 1.31098
-0.405723 -0.00826329 1.21229
-0.1232 0.0707067 1.12824
-0.426162 0.0152628 1.2517
0.220163 0.112466 1.12433
0.338833 0.0550037 1.2563
0.386514 0.0638301 1.29061
0.21419 0.139711 1.18911
0.0220178 0.161858 1.17014
0.0708653 0.157071 1.1779
-0.0984809 0.164839 1.19335
0.108883 0.169501 1.18989
0.263338 0.129456 1.27082
0.10864 0.175919 1.21205
0.52494 0.168747 1.30592
0.254698 0.156345 1.35706
0.0137976 0.202417 1.28429
-0.0210197 0.20434 1.28838
0.0324479 0.208764 1.37731
0.0181374 0.217672 1.4104
0.381031 0.215369 1.46498
0.341765 0.200237 1.53095
0.0287589 0.254584 1.46404
0.154286 0.0127413 1.05576
-0.12824 0.0645109 1.11452
0.180715 0.0739665 1.09111
0.0114869 0.131464 1.13057
0.184839 0.122971 1.13763
0.0222757 0.157592 1.17531
-0.0180057 0.204461 1.28108
0.34399 0.202612 1.51641
0.350489 0.244176 1.53853
0.0721544 -0.0123161 1.05862
0.0420764 0.0408708 1.10001
0.105945 0.147379 1.15558
-0.0768007 -0.128012 1.15616
0.12318 -0.0585908 1.07826
-0.265384 -0.168904 1.22339
0.118786 0.12299 1.13227
0.186424 0.122348 1.13529
0.110505 0.165657 1.17294
-0.239328 0.136382 1.24606
0.119336 0.184218 1.2305
0.0586337 0.183448 1.2667
0.0973043 0.211191 1.35594
0.428727 0.207676 1.35191
0.114698 -0.055785 1.09116
-0.257348 -0.0815506 1.20509
-0.229629 -0.0120396 1.14927
-0.242861 0.0352737 1.16407
-0.156558 0.0778401 1.1235
0.560456 -0.0232687 1.25985
0.566648 0.0289387 1.21283
-0.199679 0.0798041 1.1837
0.612869 0.0462149 1.20973
0.559347 0.0599652 1.21518
-0.0996124 0.131726 1.17724
0.57758 0.104916 1.23156
0.598912 0.129747 1.22801
0.608794 0.210861 1.25845
0.502811 0.17538 1.35618
0.153696 0.0268969 1.07018
0.124706 0.0452304 1.07553
-0.0331627 0.102194 1.16368
0.593898 0.0583512 1.20667
0.445475 0.00337216 1.32171
0.516604 -0.0373369 1.22961
0.567023 0.0698896 1.22085
0.518933 0.136542 1.32041
0.608009 0.277239 1.36002
0.00882527 0.0276134 1.08133
0.101313 0.0551618 1.07926
0.557705 0.0156571 1.23675
0.587952 0.150785 1.2602
0.481653 -0.00448954 1.30912
0.47227 0.0264049 1.29905
0.549011 0.0932096 1.23298
0.561471 -0.146712 1.23141
-0.0321545 -0.091489 1.13124
-0.168541 -0.0572258 1.1362
0.55346 -0.079425 1.24654
0.331305 -0.0944073 1.28934
-0.289806 -0.0173965 1.16045
0.197552 0.0371269 1.04549
0.230597 0.0455832 1.0525
0.308384 -0.0270583 1.19503
0.573752 -0.00166557 1.19618
0.31805 0.0246408 1.20941
0.327509 0.037358 1.2118
0.563569 0.0391517 1.20738
0.386669 0.0244436 1.25599
0.534392 0.0101689 1.29216
0.597264 0.0449308 1.20896
0.607578 0.0558832 1.2107
0.606171 0.0661465 1.21106
0.585936 0.0699051 1.20919
0.610877 0.122597 1.20983
0.595014 0.130801 1.24811
0.613192 0.135332 1.24066
0.617123 0.147743 1.24033
0.566461 0.205327 1.29767
0.606646 0.273157 1.28064
0.606435 0.338233 1.30463
-0.0538481 -0.100648 1.15808
0.582118 -0.138388 1.24027
0.0875789 -0.00339385 1.06339
-0.253106 -0.0392844 1.17791
0.0748247 0.0245257 1.06018
-0.274473 0.0196555 1.15326
0.102318 0.0557162 1.08
0.565019 0.00336392 1.25059
-0.120698 0.0710765 1.1265
0.387765 0.0675116 1.28691
-0.390839 0.113824 1.29815
0.547999 -0.14474 1.2587
-0.106434 -0.0256172 1.10934
-0.242203 -0.0259211 1.18353
-0.107179 0.0806722 1.1266
0.557885 0.0616817 1.21811
0.529223 0.0400578 1.29855
0.566908 0.0744604 1.26283
0.568216 0.0829496 1.22609
0.561994 0.149775 1.26749
0.578987 0.2071 1.28689
0.538361 0.236278 1.32313
0.449791 -0.29684 1.3772
0.572416 -0.108212 1.23204
0.435089 -0.0308629 1.28394
0.565966 0.0151914 1.1999
0.394667 0.00960391 1.2872
0.459401 0.0103283 1.3041
-0.0704222 0.0843609 1.14265
0.54258 0.0930683 1.23875
0.359011 0.00752622 1.23786
0.538013 0.121168 1.25354
0.470195 0.0156656 1.28415
0.455735 0.220082 1.41021
0.527664 -0.373963 1.28812
0.512093 -0.375129 1.31966
0.413504 -0.397135 1.50544
0.481725 -0.373756 1.34811
0.527273 -0.36167 1.30925
0.529218 -0.344749 1.30912
0.524044 -0.335512 1.31796
0.547135 -0.32133 1.29047
0.532152 -0.306541 1.29758
0.576024 -0.288993 1.26444
0.436784 -0.280246 1.38988
0.504676 -0.270123 1.31628
0.0527967 -0.275896 1.45094
0.532772 -0.261691 1.2837
0.573382 -0.259068 1.26427
0.542684 -0.259098 1.28011
0.501104 -0.257811 1.31836
0.0460722 -0.263428 1.42971
0.451455 -0.256639 1.35146
0.420886 -0.257902 1.39796
0.521634 -0.247081 1.28664
0.359955 -0.254235 1.49731
0.502659 -0.24347 1.2995
0.105857 -0.249751 1.40218
0.0862978 -0.245677 1.39296
0.0635867 -0.237839 1.38969
0.094613 -0.216964 1.29896
0.472127 -0.21617 1.31295
-0.17118 -0.202294 1.27946
0.0483758 -0.198039 1.27557
0.391746 -0.202768 1.38684
0.0857063 -0.192908 1.27776
0.492854 -0.192262 1.2992
0.453448 -0.185697 1.34542
0.522326 -0.164954 1.30763
-0.0451357 -0.156433 1.17837
0.589835 -0.1623 1.23925
0.0755384 -0.156203 1.16803
-0.242671 -0.150265 1.214
0.564877 -0.158614 1.25216
0.121587 -0.15059 1.16278
0.0945596 -0.149467 1.16834
-0.0802406 -0.141925 1.15541
0.123148 -0.14337 1.1537
0.168497 -0.144652 1.17491
0.299131 -0.143375 1.31128
0.335777 -0.144027 1.31179
0.107491 -0.131945 1.13971
0.283157 -0.132181 1.2976
0.602913 -0.13615 1.23679
-0.142019 -0.129363 1.14694
0.513528 -0.128563 1.29285
-0.0258448 -0.124905 1.14791
0.533873 -0.127508 1.25867
-0.3415 -0.117341 1.24137
-0.00909587 -0.125174 1.1354
0.178293 -0.122287 1.13512
0.0416431 -0.119954 1.12276
-0.0523203 -0.116108 1.14308
0.0202047 -0.113271 1.12308
0.0341652 -0.116114 1.12385
-0.251901 -0.110625 1.20297
0.549562 -0.11324 1.24975
0.604281 -0.114007 1.23417
0.293633 -0.110343 1.29648
-0.277466 -0.102375 1.19549
0.394989 -0.101871 1.29703
0.318011 -0.101044 1.28398
0.573191 -0.105681 1.24401
0.314843 -0.0921303 1.27814
0.599324 -0.0980655 1.23001
0.173106 -0.0972823 1.11752
0.276233 -0.0901976 1.21372
0.562845 -0.0917021 1.23036
0.542776 -0.085745 1.25018
0.198718 -0.0857667 1.10998
0.556734 -0.0809544 1.22662
0.330765 -0.0744766 1.26478
0.56969 -0.0798639 1.22863
-0.091119 -0.0747595 1.15332
0.382466 -0.0708146 1.28019
0.4004 -0.0703652 1.28005
0.552045 -0.0728403 1.22388
-0.0555095 -0.0733279 1.11772
0.195669 -0.0694588 1.08798
0.596983 -0.0657737 1.22257
0.574321 -0.0622811 1.2137
-0.0797372 -0.0540882 1.14297
-0.0571 -0.0567078 1.136
0.34569 -0.0544795 1.25247
0.0197493 -0.0532138 1.09931
0.349827 -0.0478318 1.24956
0.461597 -0.0454499 1.29636
-0.0590849 -0.0464102 1.12944
0.00797853 -0.0489076 1.09942
0.0851983 -0.0512003 1.07216
0.0936181 -0.0538798 1.08764
0.605353 -0.0481794 1.22325
-0.0156422 -0.0427849 1.09633
-0.28931 -0.0278584 1.14354
0.578339 -0.0386847 1.20537
0.13036 -0.0375899 1.08101
0.174996 -0.0357301 1.08051
0.589323 -0.0340938 1.19919
0.582375 -0.0292186 1.199
-0.00610938 -0.0304016 1.05209
0.524951 -0.0144329 1.29141
0.33566 -0.0165605 1.22407
0.0177469 -0.0228658 1.0455
0.342708 -0.00934255 1.22484
0.0299332 -0.0213277 1.06327
0.475629 -0.0048967 1.27647
-0.000464447 0.000575 1.04973
0.510943 0.0244102 1.30357
0.594104 0.0120994 1.19869
0.553314 0.0477725 1.23967
0.06289 0.0390502 1.07395
0.106944 0.081965 1.10653
-0.312285 0.143673 1.23202
-0.258925 0.152716 1.28036
-0.304264 0.162107 1.18492
0.626461 0.187143 1.25302
0.491598 0.243609 1.38512
0.560889 0.224128 1.30418
0.625969 0.218618 1.25706
0.534392 0.264517 1.34013
0.465446 0.308945 1.43753
0.635738 0.250295 1.26038
0.579942 0.299764 1.36769
0.531153 0.305793 1.35653
0.494856 0.328152 1.40942
0.641161 0.293072 1.26407
0.531473 0.346246 1.37895
0.559927 0.336451 1.34724
0.638004 0.305936 1.26783
0.487771 0.374167 1.41805
0.478655 0.400425 1.42367
0.581368 0.38457 1.335
0.482095 0.424361 1.41454
0.586654 0.395887 1.33991
0.578578 0.400704 1.33162
0.454009 0.504609 1.51385
0.464363 0.491157 1.46254
0.566492 0.428973 1.3377
0.586685 0.422483 1.32131
0.508015 -0.359924 1.32604
0.46684 -0.301062 1.42788
0.44017 -0.26808 1.3902
0.0863188 -0.257924 1.41381
0.505955 -0.203825 1.29297
0.452769 -0.202156 1.35398
0.493405 -0.179926 1.2978
0.515883 -0.163808 1.27606
-0.0467579 -0.148843 1.17251
-0.0827967 -0.146246 1.17415
0.107661 -0.138068 1.15787
-0.256562 -0.135226 1.21664
0.354217 -0.134133 1.30447
0.596139 -0.138147 1.24327
0.167957 -0.129207 1.14445
-0.029094 -0.117809 1.14601
-0.098423 -0.115862 1.14723
0.0938673 -0.117751 1.12409
0.142679 -0.101007 1.11384
-0.0520285 -0.0927239 1.13908
-0.124123 -0.0860264 1.13225
0.604344 -0.0885043 1.23138
-0.411748 -0.0629646 1.24999
0.402152 -0.0720916 1.2853
0.0735026 -0.0751857 1.09497
-0.238011 -0.0623383 1.17457
-0.0722106 -0.0596789 1.14072
0.150138 -0.0628874 1.1029
-0.0881057 -0.0480742 1.14047
0.152208 -0.0348448 1.07876
0.363122 -0.0210577 1.24649
-0.256202 -0.00503493 1.16311
0.113604 0.00326865 1.07269
0.531238 0.34659 1.37929
0.558557 0.380686 1.34902
0.431182 0.457369 1.52247
0.497731 0.437987 1.4003
0.438493 0.490127 1.51246
0.449614 -0.277961 1.3813
0.529994 -0.21133 1.27821
0.195443 -0.186921 1.34098
0.50376 -0.175685 1.29241
0.576759 -0.157692 1.24919
0.303048 -0.14533 1.32476
-0.0835206 -0.102255 1.14222
-0.0541408 -0.0769877 1.13441
0.317764 -0.0757369 1.2583
0.570791 -0.0391027 1.22747
-0.391263 -0.0147952 1.20067
0.438671 0.221533 1.41329
0.428805 0.397885 1.5207
0.595473 0.340195 1.30487
0.541596 0.397334 1.35916
0.574588 0.401083 1.3305
0.383362 -0.346535 1.51071
0.459464 -0.321951 1.43776
0.10283 -0.205091 1.31476
0.153306 -0.199905 1.31641
0.109576 -0.159863 1.18191
0.560923 -0.157611 1.25339
-0.0665397 -0.141127 1.16392
-0.147454 -0.122471 1.12515
-0.108493 -0.118315 1.12212
-0.027984 -0.117906 1.14602
-0.0469293 -0.112114 1.14309
-0.0732011 -0.0997957 1.14512
0.0549973 -0.0981205 1.10877
0.13215 -0.0868881 1.10277
-0.0285828 -0.0755335 1.12781
0.059593 -0.0777316 1.10254
0.403937 -0.0694659 1.28788
-0.26261 -0.063034 1.16435
0.205719 -0.0715348 1.13069
-0.056793 -0.0659018 1.15252
0.307854 -0.0516602 1.23091
0.566128 -0.0545404 1.21409
-0.426038 -0.0217689 1.24787
0.478111 -0.0406405 1.29393
0.125045 -0.0474118 1.093
-0.128533 -0.0394857 1.10477
0.209222 -0.0488923 1.06174
-0.25871 -0.0159564 1.16228
0.0535494 0.00222371 1.06326
0.391362 0.338696 1.53731
0.410535 0.391994 1.53948
0.611922 0.307871 1.2937
0.405348 0.409915 1.53606
0.420476 0.421951 1.53294
0.41744 0.44392 1.53266
0.583825 0.370181 1.33079
0.433098 0.463376 1.52806
0.116521 -0.205581 1.31607
0.108148 -0.157664 1.17256
0.136163 -0.131488 1.14265
-0.202142 -0.0818959 1.13921
-0.0302359 -0.0725956 1.11727
0.124296 -0.0779571 1.0925
0.00401486 -0.0681242 1.11298
0.152198 -0.0635146 1.09908
0.292168 -0.0367696 1.21774
-0.081949 0.0393387 1.14627
-0.132927 0.0672757 1.14181
-0.25094 0.118941 1.25579
-0.296608 0.140905 1.2283
0.502144 -0.046791 1.30234
-0.0821645 0.0378133 1.13513
0.395039 0.0575258 1.27658
-0.254325 0.172868 1.27696
0.47706 -0.414874 1.37885
0.481028 -0.407338 1.35053
0.493124 -0.400863 1.33644
0.502353 -0.397914 1.32732
0.477132 -0.394438 1.3565
0.517488 -0.395022 1.30467
0.413687 -0.369203 1.50553
0.511869 -0.392266 1.31211
0.468753 -0.376587 1.36262
0.504311 -0.373165 1.3293
0.47544 -0.369177 1.357
0.46622 -0.352421 1.36494
0.483841 -0.352973 1.35232
0.465583 -0.336626 1.37114
0.446516 -0.338947 1.36724
0.395002 -0.301845 1.49099
0.412243 -0.293016 1.41994
0.470571 -0.298946 1.36633
0.489953 -0.301323 1.33772
0.422206 -0.290451 1.40165
0.454776 -0.293142 1.364
0.538266 -0.298604 1.29319
0.510932 -0.289953 1.31243
0.414238 -0.26445 1.41065
0.426386 -0.263983 1.39397
0.332702 -0.217117 1.57592
0.0162156 -0.249916 1.41527
0.547199 -0.269528 1.27725
0.0642499 -0.24498 1.41383
0.484914 -0.255936 1.3305
-0.12542 -0.212349 1.50801
0.484726 -0.245175 1.33126
0.516269 -0.238374 1.2894
0.493905 -0.233668 1.31132
-0.0727863 -0.218742 1.33537
0.461062 -0.217613 1.35575
0.518773 -0.229573 1.28688
0.113582 -0.213358 1.35456
0.510244 -0.228265 1.28763
0.529371 -0.22583 1.28013
-0.102674 -0.214323 1.31075
0.497763 -0.217612 1.3001
0.505054 -0.216942 1.29538
-0.119239 -0.211892 1.29752
0.102508 -0.196704 1.35839
-0.0192408 -0.212179 1.26754
0.483346 -0.204796 1.3081
0.0364524 -0.209259 1.26865
-0.143393 -0.20401 1.2744
0.499687 -0.196034 1.29333
-0.0915261 -0.198797 1.25837
0.0760558 -0.197016 1.25726
0.131707 -0.193127 1.26165
0.508662 -0.184847 1.28717
0.367329 -0.171979 1.33637
0.503324 -0.176646 1.29146
0.0657604 -0.189406 1.2483
0.169082 -0.179477 1.24647
0.0948309 -0.183865 1.22147
0.551777 -0.175639 1.26271
0.235859 -0.154871 1.3072
-0.0780189 -0.176271 1.2226
-0.0603296 -0.176369 1.19885
0.143734 -0.173587 1.2185
0.549168 -0.164864 1.25574
0.0644795 -0.169381 1.22738
0.137644 -0.17046 1.20581
0.274324 -0.143896 1.30847
0.151514 -0.168741 1.20772
0.522959 -0.152381 1.27033
0.0571692 -0.172165 1.1783
0.547189 -0.154777 1.25328
0.237922 -0.151845 1.25635
0.0872905 -0.163818 1.19384
0.00235923 -0.168755 1.17369
0.161858 -0.159829 1.20492
0.304088 -0.132706 1.29966
0.14495 -0.162167 1.19208
0.194346 -0.156647 1.20237
-0.0230747 -0.158299 1.178
0.299183 -0.12675 1.29393
0.124876 -0.158437 1.17747
-0.102405 -0.154356 1.17804
0.0753068 -0.155741 1.16863
-0.135418 -0.15461 1.15352
0.136625 -0.150928 1.17706
-0.00285868 -0.153533 1.15319
0.17915 -0.150963 1.17596
0.0943811 -0.149818 1.16679
0.11392 -0.149468 1.17026
0.144126 -0.149836 1.17047
0.280723 -0.119562 1.27837
0.19106 -0.143038 1.17825
0.139789 -0.145546 1.16217
0.123155 -0.143556 1.15748
0.158337 -0.139634 1.16398
-0.121801 -0.145469 1.12911
0.116413 -0.140303 1.15415
0.182281 -0.137005 1.16985
0.0939441 -0.141278 1.14693
0.174751 -0.135704 1.158
-0.0965852 -0.135097 1.14431
0.240413 -0.112163 1.2129
0.0954025 -0.13105 1.1435
-0.0946546 -0.121628 1.14203
0.463513 -0.0809407 1.30046
-0.0611188 -0.119931 1.1442
0.198765 -0.123067 1.15148
0.499038 -0.0785797 1.29693
0.111073 -0.124701 1.13319
0.136756 -0.125171 1.12617
0.374067 -0.0770219 1.28357
-0.147783 -0.113717 1.1194
0.22613 -0.113443 1.15319
0.130179 -0.120479 1.12456
0.296954 -0.0947771 1.21854
0.0767821 -0.11715 1.12383
0.217157 -0.11396 1.14362
0.493047 -0.0688429 1.28475
-0.0369943 -0.0946364 1.143
-0.0570001 -0.0988171 1.1446
-0.0034459 -0.106588 1.12623
0.0706175 -0.109448 1.10626
0.208759 -0.107222 1.12342
-0.415868 -0.044026 1.24544
0.122953 -0.096147 1.11505
0.199268 -0.0981193 1.11847
0.154847 -0.0958246 1.11341
0.357593 -0.0471421 1.25143
-0.0993006 -0.0765446 1.13302
0.0113089 -0.0873813 1.11202
-0.125963 -0.0745793 1.12546
0.116244 -0.0872445 1.10867
0.325773 -0.0454566 1.2326
0.103017 -0.0910249 1.09368
0.173044 -0.0864061 1.10646
0.228849 -0.0845238 1.09569
-0.134275 -0.0666156 1.10484
0.0179387 -0.0702739 1.09127
0.207693 -0.0762808 1.08261
-0.187887 -0.0490788 1.1256
0.149198 -0.0657763 1.10009
0.134015 -0.0641797 1.10167
0.506644 0.00737872 1.30657
-0.0721873 -0.0416236 1.13551
0.117694 -0.0569048 1.09496
0.103223 -0.058098 1.08073
-0.197958 -0.0139802 1.12584
0.0156802 -0.0380205 1.06717
-0.357782 0.0498621 1.22419
-0.213348 -0.0142926 1.14358
0.199203 -0.0305419 1.04882
0.170657 -0.0179442 1.06981
0.206927 -0.0262506 1.0417
-0.351345 0.0536479 1.16653
0.526675 0.0838237 1.2886
0.0535667 0.00171969 1.06157
0.485707 0.126588 1.35404
0.226392 0.00170432 1.06345
-0.321942 0.0915312 1.20648
-0.272509 0.0920326 1.20633
-0.337704 0.0840965 1.13137
0.481559 0.167072 1.36198
-0.333096 0.10789 1.1779
0.525532 0.117283 1.25192
-0.312929 0.126453 1.19238
0.479402 0.181339 1.36232
0.43552 0.232502 1.40484
0.516113 0.192285 1.3319
0.442854 0.259018 1.43751
0.544873 0.216241 1.31809
0.540759 0.226421 1.32479
0.520744 0.242953 1.3491
0.0331809 0.164465 1.16635
0.596683 0.208654 1.27663
0.50992 0.277252 1.37338
0.528826 0.273768 1.35259
0.456593 0.342034 1.44801
0.494359 0.316623 1.40665
0.505559 0.310168 1.39574
0.523884 0.307097 1.37327
0.570998 0.274675 1.31595
0.592995 0.291661 1.30126
0.576106 0.310408 1.32475
0.503989 0.380623 1.41186
0.498681 0.394492 1.40819
0.526827 0.371461 1.37228
0.577558 0.356575 1.33193
0.592137 0.368606 1.32479
0.599241 0.36251 1.31646
0.452903 0.505242 1.51107
0.545838 0.406444 1.34651
0.580184 0.404081 1.32056
0.610342 0.399277 1.29671
0.387691 -0.344023 1.51766
0.36156 -0.300443 1.51856
0.367157 -0.288771 1.50561
0.0114062 -0.277797 1.46268
0.391085 -0.253785 1.44954
0.0860628 -0.260377 1.41294
0.530194 -0.27605 1.30271
0.358403 -0.232514 1.52215
0.474325 -0.258064 1.33414
0.415271 -0.229304 1.4025
0.53874 -0.247402 1.28563
0.463872 -0.23235 1.34732
0.475935 -0.227462 1.33575
0.0216983 -0.22254 1.31757
0.493903 -0.220716 1.3101
0.0460016 -0.208524 1.32553
0.0229265 -0.215202 1.27747
-0.171457 -0.201581 1.27112
-0.238929 -0.170202 1.26041
0.210362 -0.161973 1.2423
0.057509 -0.171703 1.18099
-0.0510591 -0.167645 1.18613
-0.0979619 -0.167538 1.16951
-0.22525 -0.147354 1.2098
0.000115436 -0.159814 1.16776
0.0390295 -0.154029 1.15711
0.263425 -0.131737 1.25702
-0.0484102 -0.148668 1.17078
-0.149226 -0.162119 1.14324
0.534398 -0.112154 1.28368
0.233153 -0.130255 1.19851
0.260867 -0.121446 1.22903
-0.231264 -0.130274 1.18225
0.108428 -0.139478 1.15908
-0.138699 -0.137539 1.14245
0.122319 -0.132558 1.14054
0.142881 -0.132297 1.14158
0.129717 -0.128746 1.13618
-0.144479 -0.123548 1.12354
-0.0478456 -0.112301 1.14912
-0.0988209 -0.113237 1.1248
0.478007 -0.0636197 1.30042
0.359472 -0.066185 1.27058
0.0594822 -0.114898 1.11668
-0.0155019 -0.0980151 1.13134
0.312515 -0.052068 1.22763
0.34063 -0.0251856 1.23002
0.101717 -0.0708181 1.07837
0.154457 -0.0589728 1.09017
-0.129658 -0.0403808 1.10362
-0.0556954 -0.0296355 1.10369
-0.00194004 -0.0375607 1.07689
-0.0925854 -0.0160545 1.11256
0.209738 -0.0470968 1.05577
0.177167 -0.028282 1.06588
0.508042 0.0703767 1.30426
-0.340535 0.0922087 1.19455
-0.0738231 0.06014 1.14631
0.500594 0.147408 1.34328
-0.324849 0.125124 1.20119
-0.291729 0.138091 1.2116
0.578143 0.188811 1.28407
0.549643 0.22208 1.30884
0.169401 0.14395 1.13508
0.530755 0.34576 1.38181
0.590958 0.400828 1.31799
0.559558 0.417489 1.33986
0.512332 -0.391026 1.31505
0.498978 -0.387133 1.32855
0.503999 -0.374063 1.32852
0.524499 -0.375209 1.30504
0.475878 -0.369337 1.35791
0.469457 -0.332586 1.35386
0.514688 -0.302015 1.28886
0.163016 -0.154544 1.21238
-0.0646828 -0.161143 1.17212
0.178984 -0.154534 1.19403
0.165792 -0.14719 1.2109
-0.134333 -0.154628 1.15283
0.0836233 -0.146284 1.16249
-0.0807568 -0.139854 1.15403
0.184175 -0.136608 1.16848
0.318988 -0.10158 1.28343
0.330355 -0.0966501 1.28312
0.107073 -0.135221 1.13712
0.206783 -0.127252 1.16356
0.0780285 -0.120167 1.11935
0.209518 -0.115236 1.1194
0.209095 -0.0960614 1.11454
-0.0851874 -0.0731958 1.13371
0.19739 -0.0890345 1.10471
0.033365 -0.0176421 1.05218
-0.331517 0.108156 1.17875
0.476171 0.196329 1.36849
0.477597 0.34818 1.44095
0.543692 0.290597 1.33974
0.503103 0.333089 1.40325
0.599448 0.279573 1.28438
0.570835 0.329293 1.34528
0.362897 -0.299089 1.52709
0.0100351 -0.27842 1.45955
0.031687 -0.27354 1.45655
0.455022 -0.272308 1.38244
0.0156818 -0.248619 1.42281
-0.242394 -0.233645 1.48285
-0.0157667 -0.230579 1.40122
-0.274936 -0.222967 1.40449
0.0795457 -0.210591 1.29391
0.475807 -0.204522 1.31661
-0.203912 -0.202069 1.29278
0.00362148 -0.210665 1.27013
-0.118222 -0.18919 1.21086
0.512052 -0.14718 1.28583
-0.0969943 -0.165489 1.16881
0.163626 -0.161077 1.19573
0.20762 -0.145469 1.2167
0.0373244 -0.154042 1.15917
0.0695258 -0.129522 1.13208
0.123524 -0.109323 1.1181
0.258033 -0.0933103 1.15987
0.295525 -0.0758744 1.2184
0.346687 -0.0598449 1.25391
0.0102501 -0.0876419 1.11248
0.0791174 -0.0567295 1.08248
0.0464444 -0.0426534 1.09387
0.467877 0.0323389 1.29838
0.357806 0.00566223 1.22561
-0.105545 -0.0261102 1.11101
-0.0579205 -0.0220774 1.09509
0.183443 -0.0355753 1.0623
0.174602 -0.0274221 1.0676
0.468722 0.075425 1.31154
-0.269241 0.0328164 1.15446
0.1855 -0.0136361 1.05044
0.445786 0.115232 1.33224
-0.35394 0.0737724 1.17321
-0.33374 0.083973 1.18255
0.501181 0.146061 1.34952
-0.0844924 0.0739908 1.14562
-0.0735258 0.0852803 1.15095
0.132144 0.0699555 1.11437
-0.29276 0.141054 1.21842
0.178373 0.0698179 1.08158
-0.122344 0.137692 1.14853
0.531259 0.248224 1.33574
0.533765 0.287966 1.35402
0.583171 0.296932 1.30983
-0.158179 -0.244806 1.57711
-0.00705784 -0.259826 1.43624
0.47791 -0.261799 1.33675
-0.108842 -0.198368 1.30351
0.235024 -0.159592 1.2659
-0.254849 -0.143421 1.23035
-0.00256244 -0.166358 1.1641
0.13484 -0.12835 1.14134
-0.106633 -0.119088 1.13234
0.120511 -0.114681 1.10773
-0.227713 -0.06821 1.16221
-0.0840593 -0.0563196 1.15362
-0.247689 -0.0427721 1.16975
0.0981281 0.00823233 1.06142
0.150756 0.0803518 1.10989
-0.126866 0.120487 1.13791
0.00668741 -0.28971 1.46259
0.0351609 -0.23714 1.40491
-0.0619007 -0.122627 1.14963
-0.0790895 -0.106415 1.14277
-0.0515259 -0.0987288 1.14528
0.392727 -0.197858 1.38873
-0.102425 -0.203881 1.27709
0.037796 -0.160366 1.15322
0.116211 -0.109968 1.11828
-0.0849608 -0.051418 1.14594
0.121491 -0.0773966 1.09228
-0.0898614 -0.00644437 1.11273
0.113178 -0.000555497 1.07114
0.152778 0.00657466 1.06474
-0.0790031 0.0870805 1.14739
0.108251 -0.112506 1.12293
0.180258 -0.0875018 1.11984
-0.0169319 -0.0775437 1.12735
0.452245 -0.422043 1.38413
0.447975 -0.376314 1.39046
0.434099 -0.364277 1.4088
0.442557 -0.364515 1.39577
0.448443 -0.365385 1.39083
0.448825 -0.354853 1.38379
0.436414 -0.343272 1.39737
0.426537 -0.333229 1.41075
-0.148595 -0.245831 1.60872
0.385018 -0.293454 1.49691
0.442211 -0.318443 1.38943
0.433403 -0.30624 1.39786
0.446271 -0.310308 1.37146
0.0138008 -0.26361 1.46532
0.0914483 -0.271807 1.44128
0.433025 -0.297594 1.38666
0.376138 -0.260914 1.46659
0.465242 -0.293556 1.36235
0.457759 -0.282413 1.38993
0.470825 -0.282968 1.35404
0.453767 -0.27135 1.36828
0.0166066 -0.24095 1.41661
0.461253 -0.264428 1.36065
0.472336 -0.256909 1.34804
-0.0671438 -0.227296 1.3591
0.451479 -0.232519 1.35397
-0.0429807 -0.214016 1.35941
0.0553805 -0.222889 1.31529
-0.238012 -0.213185 1.29558
-0.0383045 -0.219856 1.28877
-0.0605958 -0.214164 1.29238
-0.231524 -0.211884 1.27983
-0.00460394 -0.214726 1.28628
0.0360471 -0.214583 1.28071
-0.0603384 -0.208788 1.27932
0.0897558 -0.203434 1.29351
-0.175818 -0.183769 1.31074
0.49646 -0.206413 1.29868
0.0969251 -0.203679 1.26919
-0.00874603 -0.206869 1.25246
-0.238112 -0.185109 1.27953
-0.213115 -0.181085 1.2769
0.109436 -0.200379 1.25767
0.0863891 -0.20065 1.25514
-0.20707 -0.183766 1.23554
0.0885619 -0.192196 1.22932
-0.101148 -0.185901 1.20318
0.0720622 -0.183583 1.21739
0.199675 -0.170888 1.24132
-0.0733615 -0.182067 1.19846
0.0871421 -0.179182 1.20965
-0.144547 -0.171904 1.18714
0.174358 -0.163928 1.21716
0.120593 -0.170543 1.19043
0.314897 -0.122206 1.2945
0.0332037 -0.173664 1.17094
