ply
format ascii 1.0
comment PCL generated
element vertex 1558
property float x
property float y
property float z
element camera 0
property float view_px
property float view_py
property float view_pz
property float x_axisx
property float x_axisy
property float x_axisz
property float y_axisx
property float y_axisy
property float y_axisz
property float z_axisx
property float z_axisy
property float z_axisz
property float focal
property float scalex
property float scaley
property float centerx
property float centery
property int viewportx
property int viewporty
property float k1
property float k2
end_header
-0.426162 -0.013675004 1.00967
-0.426162 -0.013675004 1.60467
0.65883791 -0.013675004 1.00967
0.65883791 -0.013675004 1.60467
-0.426162 -0.008675009 1.00967
-0.426162 -0.008675009 1.60467
0.65883791 -0.008675009 1.00967
0.65883791 -0.008675009 1.60467
-0.426162 -0.003674984 1.00967
-0.426162 -0.003674984 1.60467
0.65883791 -0.003674984 1.00967
0.65883791 -0.003674984 1.60467
-0.426162 0.0013250113 1.00967
-0.426162 0.0013250113 1.60467
0.65883791 0.0013250113 1.00967
0.65883791 0.0013250113 1.60467
-0.426162 0.0063250065 1.00967
-0.426162 0.0063250065 1.60467
0.65883791 0.0063250065 1.00967
0.65883791 0.0063250065 1.60467
-0.426162 0.011325002 1.00967
-0.426162 0.011325002 1.60467
0.65883791 0.011325002 1.00967
0.65883791 0.011325002 1.60467
-0.426162 0.016324997 1.00967
-0.426162 0.016324997 1.60467
0.65883791 0.016324997 1.00967
0.65883791 0.016324997 1.60467
-0.426162 0.021324992 1.00967
-0.426162 0.021324992 1.60467
0.65883791 0.021324992 1.00967
0.65883791 0.021324992 1.60467
-0.426162 0.026324987 1.00967
-0.426162 0.026324987 1.60467
0.65883791 0.026324987 1.00967
0.65883791 0.026324987 1.60467
-0.426162 0.031324983 1.00967
-0.426162 0.031324983 1.60467
0.65883791 0.031324983 1.00967
0.65883791 0.031324983 1.60467
-0.426162 0.036324978 1.00967
-0.426162 0.036324978 1.60467
0.65883791 0.036324978 1.00967
0.65883791 0.036324978 1.60467
-0.426162 0.041325033 1.00967
-0.426162 0.041325033 1.60467
0.65883791 0.041325033 1.00967
0.65883791 0.041325033 1.60467
-0.426162 0.046325028 1.00967
-0.426162 0.046325028 1.60467
0.65883791 0.046325028 1.00967
0.65883791 0.046325028 1.60467
-0.426162 0.051325023 1.00967
-0.426162 0.051325023 1.60467
0.65883791 0.051325023 1.00967
0.65883791 0.051325023 1.60467
-0.426162 0.056325018 1.00967
-0.426162 0.056325018 1.60467
0.65883791 0.056325018 1.00967
0.65883791 0.056325018 1.60467
-0.426162 0.061325014 1.00967
-0.426162 0.061325014 1.60467
0.65883791 0.061325014 1.00967
0.65883791 0.061325014 1.60467
-0.426162 0.066325009 1.00967
-0.426162 0.066325009 1.60467
0.65883791 0.066325009 1.00967
0.65883791 0.066325009 1.60467
-0.426162 0.071325004 1.00967
-0.426162 0.071325004 1.60467
0.65883791 0.071325004 1.00967
0.65883791 0.071325004 1.60467
-0.426162 0.076324999 1.00967
-0.426162 0.076324999 1.60467
0.65883791 0.076324999 1.00967
0.65883791 0.076324999 1.60467
-0.426162 0.081324995 1.00967
-0.426162 0.081324995 1.60467
0.65883791 0.081324995 1.00967
0.65883791 0.081324995 1.60467
-0.426162 0.08632499 1.00967
-0.426162 0.08632499 1.60467
0.65883791 0.08632499 1.00967
0.65883791 0.08632499 1.60467
-0.426162 0.091324985 1.00967
-0.426162 0.091324985 1.60467
0.65883791 0.091324985 1.00967
0.65883791 0.091324985 1.60467
-0.426162 0.09632498 1.00967
-0.426162 0.09632498 1.60467
0.65883791 0.09632498 1.00967
0.65883791 0.09632498 1.60467
-0.426162 0.10132498 1.00967
-0.426162 0.10132498 1.60467
0.65883791 0.10132498 1.00967
0.65883791 0.10132498 1.60467
-0.426162 0.10632503 1.00967
-0.426162 0.10632503 1.60467
0.65883791 0.10632503 1.00967
0.65883791 0.10632503 1.60467
-0.426162 0.11132503 1.00967
-0.426162 0.11132503 1.60467
0.65883791 0.11132503 1.00967
0.65883791 0.11132503 1.60467
-0.426162 0.11632502 1.00967
-0.426162 0.11632502 1.60467
0.65883791 0.11632502 1.00967
0.65883791 0.11632502 1.60467
-0.426162 0.12132502 1.00967
-0.426162 0.12132502 1.60467
0.65883791 0.12132502 1.00967
0.65883791 0.12132502 1.60467
-0.426162 0.12632501 1.00967
-0.426162 0.12632501 1.60467
0.65883791 0.12632501 1.00967
0.65883791 0.12632501 1.60467
-0.426162 0.13132501 1.00967
-0.426162 0.13132501 1.60467
0.65883791 0.13132501 1.00967
0.65883791 0.13132501 1.60467
-0.426162 0.136325 1.00967
-0.426162 0.136325 1.60467
0.65883791 0.136325 1.00967
0.65883791 0.136325 1.60467
-0.426162 0.141325 1.00967
-0.426162 0.141325 1.60467
0.65883791 0.141325 1.00967
0.65883791 0.141325 1.60467
-0.426162 0.14632499 1.00967
-0.426162 0.14632499 1.60467
0.65883791 0.14632499 1.00967
0.65883791 0.14632499 1.60467
-0.426162 0.15132499 1.00967
-0.426162 0.15132499 1.60467
0.65883791 0.15132499 1.00967
0.65883791 0.15132499 1.60467
-0.426162 0.15632498 1.00967
-0.426162 0.15632498 1.60467
0.65883791 0.15632498 1.00967
0.65883791 0.15632498 1.60467
-0.426162 0.16132498 1.00967
-0.426162 0.16132498 1.60467
0.65883791 0.16132498 1.00967
0.65883791 0.16132498 1.60467
-0.426162 0.16632497 1.00967
-0.426162 0.16632497 1.60467
0.65883791 0.16632497 1.00967
0.65883791 0.16632497 1.60467
-0.426162 0.17132503 1.00967
-0.426162 0.17132503 1.60467
0.65883791 0.17132503 1.00967
0.65883791 0.17132503 1.60467
-0.426162 0.17632502 1.00967
-0.426162 0.17632502 1.60467
0.65883791 0.17632502 1.00967
0.65883791 0.17632502 1.60467
-0.426162 0.18132502 1.00967
-0.426162 0.18132502 1.60467
0.65883791 0.18132502 1.00967
0.65883791 0.18132502 1.60467
-0.426162 0.18632501 1.00967
-0.426162 0.18632501 1.60467
0.65883791 0.18632501 1.00967
0.65883791 0.18632501 1.60467
-0.426162 0.19132501 1.00967
-0.426162 0.19132501 1.60467
0.65883791 0.19132501 1.00967
0.65883791 0.19132501 1.60467
-0.426162 0.196325 1.00967
-0.426162 0.196325 1.60467
0.65883791 0.196325 1.00967
0.65883791 0.196325 1.60467
-0.426162 0.201325 1.00967
-0.426162 0.201325 1.60467
0.65883791 0.201325 1.00967
0.65883791 0.201325 1.60467
-0.426162 0.20632499 1.00967
-0.426162 0.20632499 1.60467
0.65883791 0.20632499 1.00967
0.65883791 0.20632499 1.60467
-0.426162 0.21132499 1.00967
-0.426162 0.21132499 1.60467
0.65883791 0.21132499 1.00967
0.65883791 0.21132499 1.60467
-0.426162 0.21632499 1.00967
-0.426162 0.21632499 1.60467
0.65883791 0.21632499 1.00967
0.65883791 0.21632499 1.60467
-0.426162 0.22132498 1.00967
-0.426162 0.22132498 1.60467
0.65883791 0.22132498 1.00967
0.65883791 0.22132498 1.60467
-0.426162 0.22632498 1.00967
-0.426162 0.22632498 1.60467
0.65883791 0.22632498 1.00967
0.65883791 0.22632498 1.60467
-0.426162 0.23132497 1.00967
-0.426162 0.23132497 1.60467
0.65883791 0.23132497 1.00967
0.65883791 0.23132497 1.60467
-0.426162 0.23632503 1.00967
-0.426162 0.23632503 1.60467
0.65883791 0.23632503 1.00967
0.65883791 0.23632503 1.60467
-0.426162 0.24132502 1.00967
-0.426162 0.24132502 1.60467
0.65883791 0.24132502 1.00967
0.65883791 0.24132502 1.60467
-0.426162 0.24632502 1.00967
-0.426162 0.24632502 1.60467
0.65883791 0.24632502 1.00967
0.65883791 0.24632502 1.60467
-0.426162 0.25132501 1.00967
-0.426162 0.25132501 1.60467
0.65883791 0.25132501 1.00967
0.65883791 0.25132501 1.60467
-0.426162 0.25632501 1.00967
-0.426162 0.25632501 1.60467
0.65883791 0.25632501 1.00967
0.65883791 0.25632501 1.60467
-0.426162 0.261325 1.00967
-0.426162 0.261325 1.60467
0.65883791 0.261325 1.00967
0.65883791 0.261325 1.60467
-0.426162 0.266325 1.00967
-0.426162 0.266325 1.60467
0.65883791 0.266325 1.00967
0.65883791 0.266325 1.60467
-0.426162 0.27132499 1.00967
-0.426162 0.27132499 1.60467
0.65883791 0.27132499 1.00967
0.65883791 0.27132499 1.60467
-0.426162 0.27632499 1.00967
-0.426162 0.27632499 1.60467
0.65883791 0.27632499 1.00967
0.65883791 0.27632499 1.60467
-0.426162 0.28132498 1.00967
-0.426162 0.28132498 1.60467
0.65883791 0.28132498 1.00967
0.65883791 0.28132498 1.60467
-0.426162 0.28632498 1.00967
-0.426162 0.28632498 1.60467
0.65883791 0.28632498 1.00967
0.65883791 0.28632498 1.60467
-0.426162 0.29132497 1.00967
-0.426162 0.29132497 1.60467
0.65883791 0.29132497 1.00967
0.65883791 0.29132497 1.60467
-0.426162 0.29632497 1.00967
-0.426162 0.29632497 1.60467
0.65883791 0.29632497 1.00967
0.65883791 0.29632497 1.60467
-0.426162 0.30132502 1.00967
-0.426162 0.30132502 1.60467
0.65883791 0.30132502 1.00967
0.65883791 0.30132502 1.60467
-0.426162 0.30632502 1.00967
-0.426162 0.30632502 1.60467
0.65883791 0.30632502 1.00967
0.65883791 0.30632502 1.60467
-0.426162 0.31132501 1.00967
-0.426162 0.31132501 1.60467
0.65883791 0.31132501 1.00967
0.65883791 0.31132501 1.60467
-0.426162 0.31632501 1.00967
-0.426162 0.31632501 1.60467
0.65883791 0.31632501 1.00967
0.65883791 0.31632501 1.60467
-0.426162 0.321325 1.00967
-0.426162 0.321325 1.60467
0.65883791 0.321325 1.00967
0.65883791 0.321325 1.60467
-0.426162 0.326325 1.00967
-0.426162 0.326325 1.60467
0.65883791 0.326325 1.00967
0.65883791 0.326325 1.60467
-0.426162 0.33132499 1.00967
-0.426162 0.33132499 1.60467
0.65883791 0.33132499 1.00967
0.65883791 0.33132499 1.60467
-0.426162 0.33632499 1.00967
-0.426162 0.33632499 1.60467
0.65883791 0.33632499 1.00967
0.65883791 0.33632499 1.60467
-0.426162 0.34132499 1.00967
-0.426162 0.34132499 1.60467
0.65883791 0.34132499 1.00967
0.65883791 0.34132499 1.60467
-0.426162 0.34632498 1.00967
-0.426162 0.34632498 1.60467
0.65883791 0.34632498 1.00967
0.65883791 0.34632498 1.60467
-0.426162 0.35132498 1.00967
-0.426162 0.35132498 1.60467
0.65883791 0.35132498 1.00967
0.65883791 0.35132498 1.60467
-0.426162 0.35632497 1.00967
-0.426162 0.35632497 1.60467
0.65883791 0.35632497 1.00967
0.65883791 0.35632497 1.60467
-0.426162 0.36132503 1.00967
-0.426162 0.36132503 1.60467
0.65883791 0.36132503 1.00967
0.65883791 0.36132503 1.60467
-0.426162 0.36632502 1.00967
-0.426162 0.36632502 1.60467
0.65883791 0.36632502 1.00967
0.65883791 0.36632502 1.60467
-0.426162 0.37132502 1.00967
-0.426162 0.37132502 1.60467
0.65883791 0.37132502 1.00967
0.65883791 0.37132502 1.60467
-0.426162 0.37632501 1.00967
-0.426162 0.37632501 1.60467
0.65883791 0.37632501 1.00967
0.65883791 0.37632501 1.60467
-0.426162 0.38132501 1.00967
-0.426162 0.38132501 1.60467
0.65883791 0.38132501 1.00967
0.65883791 0.38132501 1.60467
-0.426162 0.386325 1.00967
-0.426162 0.386325 1.60467
0.65883791 0.386325 1.00967
0.65883791 0.386325 1.60467
-0.426162 0.391325 1.00967
-0.426162 0.391325 1.60467
0.65883791 0.391325 1.00967
0.65883791 0.391325 1.60467
-0.426162 0.39632499 1.00967
-0.426162 0.39632499 1.60467
0.65883791 0.39632499 1.00967
0.65883791 0.39632499 1.60467
-0.426162 0.40132499 1.00967
-0.426162 0.40132499 1.60467
0.65883791 0.40132499 1.00967
0.65883791 0.40132499 1.60467
-0.426162 0.40632498 1.00967
-0.426162 0.40632498 1.60467
0.65883791 0.40632498 1.00967
0.65883791 0.40632498 1.60467
-0.426162 0.41132498 1.00967
-0.426162 0.41132498 1.60467
0.65883791 0.41132498 1.00967
0.65883791 0.41132498 1.60467
-0.426162 0.41632497 1.00967
-0.426162 0.41632497 1.60467
0.65883791 0.41632497 1.00967
0.65883791 0.41632497 1.60467
-0.426162 0.42132497 1.00967
-0.426162 0.42132497 1.60467
0.65883791 0.42132497 1.00967
0.65883791 0.42132497 1.60467
-0.426162 0.42632502 1.00967
-0.426162 0.42632502 1.60467
0.65883791 0.42632502 1.00967
0.65883791 0.42632502 1.60467
-0.426162 0.43132502 1.00967
-0.426162 0.43132502 1.60467
0.65883791 0.43132502 1.00967
0.65883791 0.43132502 1.60467
-0.426162 0.43632501 1.00967
-0.426162 0.43632501 1.60467
0.65883791 0.43632501 1.00967
0.65883791 0.43632501 1.60467
-0.426162 0.44132501 1.00967
-0.426162 0.44132501 1.60467
0.65883791 0.44132501 1.00967
0.65883791 0.44132501 1.60467
-0.426162 0.446325 1.00967
-0.426162 0.446325 1.60467
0.65883791 0.446325 1.00967
0.65883791 0.446325 1.60467
-0.426162 0.451325 1.00967
-0.426162 0.451325 1.60467
0.65883791 0.451325 1.00967
0.65883791 0.451325 1.60467
-0.426162 0.45632499 1.00967
-0.426162 0.45632499 1.60467
0.65883791 0.45632499 1.00967
0.65883791 0.45632499 1.60467
-0.426162 0.46132499 1.00967
-0.426162 0.46132499 1.60467
0.65883791 0.46132499 1.00967
0.65883791 0.46132499 1.60467
-0.426162 0.46632499 1.00967
-0.426162 0.46632499 1.60467
0.65883791 0.46632499 1.00967
0.65883791 0.46632499 1.60467
-0.426162 0.47132498 1.00967
-0.426162 0.47132498 1.60467
0.65883791 0.47132498 1.00967
0.65883791 0.47132498 1.60467
-0.426162 0.47632498 1.00967
-0.426162 0.47632498 1.60467
0.65883791 0.47632498 1.00967
0.65883791 0.47632498 1.60467
-0.426162 0.48132497 1.00967
-0.426162 0.48132497 1.60467
0.65883791 0.48132497 1.00967
0.65883791 0.48132497 1.60467
-0.426162 0.48632497 1.00967
-0.426162 0.48632497 1.60467
0.65883791 0.48632497 1.00967
0.65883791 0.48632497 1.60467
-0.426162 0.49132502 1.00967
-0.426162 0.49132502 1.60467
0.65883791 0.49132502 1.00967
0.65883791 0.49132502 1.60467
-0.426162 0.49632502 1.00967
-0.426162 0.49632502 1.60467
0.65883791 0.49632502 1.00967
0.65883791 0.49632502 1.60467
-0.426162 0.50132501 1.00967
-0.426162 0.50132501 1.60467
0.65883791 0.50132501 1.00967
0.65883791 0.50132501 1.60467
-0.426162 0.50632501 1.00967
-0.426162 0.50632501 1.60467
0.65883791 0.50632501 1.00967
0.65883791 0.50632501 1.60467
-0.426162 0.511325 1.00967
-0.426162 0.511325 1.60467
0.65883791 0.511325 1.00967
0.65883791 0.511325 1.60467
-0.426162 0.516325 1.00967
-0.426162 0.516325 1.60467
0.65883791 0.516325 1.00967
0.65883791 0.516325 1.60467
-0.426162 0.52132499 1.00967
-0.426162 0.52132499 1.60467
0.65883791 0.52132499 1.00967
0.65883791 0.52132499 1.60467
-0.426162 0.52632499 1.00967
-0.426162 0.52632499 1.60467
0.65883791 0.52632499 1.00967
0.65883791 0.52632499 1.60467
-0.426162 -0.50367498 1.00967
-0.426162 0.52632499 1.00967
0.65883791 -0.50367498 1.00967
0.65883791 0.52632499 1.00967
-0.426162 -0.50367498 1.01467
-0.426162 0.52632499 1.01467
0.65883791 -0.50367498 1.01467
0.65883791 0.52632499 1.01467
-0.426162 -0.50367498 1.01967
-0.426162 0.52632499 1.01967
0.65883791 -0.50367498 1.01967
0.65883791 0.52632499 1.01967
-0.426162 -0.50367498 1.02467
-0.426162 0.52632499 1.02467
0.65883791 -0.50367498 1.02467
0.65883791 0.52632499 1.02467
-0.426162 -0.50367498 1.02967
-0.426162 0.52632499 1.02967
0.65883791 -0.50367498 1.02967
0.65883791 0.52632499 1.02967
-0.426162 -0.50367498 1.03467
-0.426162 0.52632499 1.03467
0.65883791 -0.50367498 1.03467
0.65883791 0.52632499 1.03467
-0.426162 -0.50367498 1.03967
-0.426162 0.52632499 1.03967
0.65883791 -0.50367498 1.03967
0.65883791 0.52632499 1.03967
-0.426162 -0.50367498 1.04467
-0.426162 0.52632499 1.04467
0.65883791 -0.50367498 1.04467
0.65883791 0.52632499 1.04467
-0.426162 -0.50367498 1.04967
-0.426162 0.52632499 1.04967
0.65883791 -0.50367498 1.04967
0.65883791 0.52632499 1.04967
-0.426162 -0.50367498 1.05467
-0.426162 0.52632499 1.05467
0.65883791 -0.50367498 1.05467
0.65883791 0.52632499 1.05467
-0.426162 -0.50367498 1.05967
-0.426162 0.52632499 1.05967
0.65883791 -0.50367498 1.05967
0.65883791 0.52632499 1.05967
-0.426162 -0.50367498 1.06467
-0.426162 0.52632499 1.06467
0.65883791 -0.50367498 1.06467
0.65883791 0.52632499 1.06467
-0.426162 -0.50367498 1.06967
-0.426162 0.52632499 1.06967
0.65883791 -0.50367498 1.06967
0.65883791 0.52632499 1.06967
-0.426162 -0.50367498 1.0746701
-0.426162 0.52632499 1.0746701
0.65883791 -0.50367498 1.0746701
0.65883791 0.52632499 1.0746701
-0.426162 -0.50367498 1.0796701
-0.426162 0.52632499 1.0796701
0.65883791 -0.50367498 1.0796701
0.65883791 0.52632499 1.0796701
-0.426162 -0.50367498 1.0846701
-0.426162 0.52632499 1.0846701
0.65883791 -0.50367498 1.0846701
0.65883791 0.52632499 1.0846701
-0.426162 -0.50367498 1.0896701
-0.426162 0.52632499 1.0896701
0.65883791 -0.50367498 1.0896701
0.65883791 0.52632499 1.0896701
-0.426162 -0.50367498 1.0946701
-0.426162 0.52632499 1.0946701
0.65883791 -0.50367498 1.0946701
0.65883791 0.52632499 1.0946701
-0.426162 -0.50367498 1.0996701
-0.426162 0.52632499 1.0996701
0.65883791 -0.50367498 1.0996701
0.65883791 0.52632499 1.0996701
-0.426162 -0.50367498 1.10467
-0.426162 0.52632499 1.10467
0.65883791 -0.50367498 1.10467
0.65883791 0.52632499 1.10467
-0.426162 -0.50367498 1.10967
-0.426162 0.52632499 1.10967
0.65883791 -0.50367498 1.10967
0.65883791 0.52632499 1.10967
-0.426162 -0.50367498 1.11467
-0.426162 0.52632499 1.11467
0.65883791 -0.50367498 1.11467
0.65883791 0.52632499 1.11467
-0.426162 -0.50367498 1.11967
-0.426162 0.52632499 1.11967
0.65883791 -0.50367498 1.11967
0.65883791 0.52632499 1.11967
-0.426162 -0.50367498 1.12467
-0.426162 0.52632499 1.12467
0.65883791 -0.50367498 1.12467
0.65883791 0.52632499 1.12467
-0.426162 -0.50367498 1.12967
-0.426162 0.52632499 1.12967
0.65883791 -0.50367498 1.12967
0.65883791 0.52632499 1.12967
-0.426162 -0.50367498 1.13467
-0.426162 0.52632499 1.13467
0.65883791 -0.50367498 1.13467
0.65883791 0.52632499 1.13467
-0.426162 -0.50367498 1.13967
-0.426162 0.52632499 1.13967
0.65883791 -0.50367498 1.13967
0.65883791 0.52632499 1.13967
-0.426162 -0.50367498 1.14467
-0.426162 0.52632499 1.14467
0.65883791 -0.50367498 1.14467
0.65883791 0.52632499 1.14467
-0.426162 -0.50367498 1.14967
-0.426162 0.52632499 1.14967
0.65883791 -0.50367498 1.14967
0.65883791 0.52632499 1.14967
-0.426162 -0.50367498 1.15467
-0.426162 0.52632499 1.15467
0.65883791 -0.50367498 1.15467
0.65883791 0.52632499 1.15467
-0.426162 -0.50367498 1.15967
-0.426162 0.52632499 1.15967
0.65883791 -0.50367498 1.15967
0.65883791 0.52632499 1.15967
-0.426162 -0.50367498 1.16467
-0.426162 0.52632499 1.16467
0.65883791 -0.50367498 1.16467
0.65883791 0.52632499 1.16467
-0.426162 -0.50367498 1.16967
-0.426162 0.52632499 1.16967
0.65883791 -0.50367498 1.16967
0.65883791 0.52632499 1.16967
-0.426162 -0.50367498 1.17467
-0.426162 0.52632499 1.17467
0.65883791 -0.50367498 1.17467
0.65883791 0.52632499 1.17467
-0.426162 -0.50367498 1.17967
-0.426162 0.52632499 1.17967
0.65883791 -0.50367498 1.17967
0.65883791 0.52632499 1.17967
-0.426162 -0.50367498 1.18467
-0.426162 0.52632499 1.18467
0.65883791 -0.50367498 1.18467
0.65883791 0.52632499 1.18467
-0.426162 -0.50367498 1.18967
-0.426162 0.52632499 1.18967
0.65883791 -0.50367498 1.18967
0.65883791 0.52632499 1.18967
-0.426162 -0.50367498 1.19467
-0.426162 0.52632499 1.19467
0.65883791 -0.50367498 1.19467
0.65883791 0.52632499 1.19467
-0.426162 -0.50367498 1.1996701
-0.426162 0.52632499 1.1996701
0.65883791 -0.50367498 1.1996701
0.65883791 0.52632499 1.1996701
-0.426162 -0.50367498 1.20467
-0.426162 0.52632499 1.20467
0.65883791 -0.50367498 1.20467
0.65883791 0.52632499 1.20467
-0.426162 -0.50367498 1.2096701
-0.426162 0.52632499 1.2096701
0.65883791 -0.50367498 1.2096701
0.65883791 0.52632499 1.2096701
-0.426162 -0.50367498 1.2146701
-0.426162 0.52632499 1.2146701
0.65883791 -0.50367498 1.2146701
0.65883791 0.52632499 1.2146701
-0.426162 -0.50367498 1.2196701
-0.426162 0.52632499 1.2196701
0.65883791 -0.50367498 1.2196701
0.65883791 0.52632499 1.2196701
-0.426162 -0.50367498 1.2246701
-0.426162 0.52632499 1.2246701
0.65883791 -0.50367498 1.2246701
0.65883791 0.52632499 1.2246701
-0.426162 -0.50367498 1.22967
-0.426162 0.52632499 1.22967
0.65883791 -0.50367498 1.22967
0.65883791 0.52632499 1.22967
-0.426162 -0.50367498 1.23467
-0.426162 0.52632499 1.23467
0.65883791 -0.50367498 1.23467
0.65883791 0.52632499 1.23467
-0.426162 -0.50367498 1.23967
-0.426162 0.52632499 1.23967
0.65883791 -0.50367498 1.23967
0.65883791 0.52632499 1.23967
-0.426162 -0.50367498 1.24467
-0.426162 0.52632499 1.24467
0.65883791 -0.50367498 1.24467
0.65883791 0.52632499 1.24467
-0.426162 -0.50367498 1.24967
-0.426162 0.52632499 1.24967
0.65883791 -0.50367498 1.24967
0.65883791 0.52632499 1.24967
-0.426162 -0.50367498 1.25467
-0.426162 0.52632499 1.25467
0.65883791 -0.50367498 1.25467
0.65883791 0.52632499 1.25467
-0.426162 -0.50367498 1.25967
-0.426162 0.52632499 1.25967
0.65883791 -0.50367498 1.25967
0.65883791 0.52632499 1.25967
-0.426162 -0.50367498 1.26467
-0.426162 0.52632499 1.26467
0.65883791 -0.50367498 1.26467
0.65883791 0.52632499 1.26467
-0.426162 -0.50367498 1.26967
-0.426162 0.52632499 1.26967
0.65883791 -0.50367498 1.26967
0.65883791 0.52632499 1.26967
-0.426162 -0.50367498 1.27467
-0.426162 0.52632499 1.27467
0.65883791 -0.50367498 1.27467
0.65883791 0.52632499 1.27467
-0.426162 -0.50367498 1.27967
-0.426162 0.52632499 1.27967
0.65883791 -0.50367498 1.27967
0.65883791 0.52632499 1.27967
-0.426162 -0.50367498 1.28467
-0.426162 0.52632499 1.28467
0.65883791 -0.50367498 1.28467
0.65883791 0.52632499 1.28467
-0.426162 -0.50367498 1.28967
-0.426162 0.52632499 1.28967
0.65883791 -0.50367498 1.28967
0.65883791 0.52632499 1.28967
-0.426162 -0.50367498 1.29467
-0.426162 0.52632499 1.29467
0.65883791 -0.50367498 1.29467
0.65883791 0.52632499 1.29467
-0.426162 -0.50367498 1.29967
-0.426162 0.52632499 1.29967
0.65883791 -0.50367498 1.29967
0.65883791 0.52632499 1.29967
-0.426162 -0.50367498 1.30467
-0.426162 0.52632499 1.30467
0.65883791 -0.50367498 1.30467
0.65883791 0.52632499 1.30467
-0.426162 -0.50367498 1.30967
-0.426162 0.52632499 1.30967
0.65883791 -0.50367498 1.30967
0.65883791 0.52632499 1.30967
-0.426162 -0.50367498 1.3146701
-0.426162 0.52632499 1.3146701
0.65883791 -0.50367498 1.3146701
0.65883791 0.52632499 1.3146701
-0.426162 -0.50367498 1.31967
-0.426162 0.52632499 1.31967
0.65883791 -0.50367498 1.31967
0.65883791 0.52632499 1.31967
-0.426162 -0.50367498 1.3246701
-0.426162 0.52632499 1.3246701
0.65883791 -0.50367498 1.3246701
0.65883791 0.52632499 1.3246701
-0.426162 -0.50367498 1.32967
-0.426162 0.52632499 1.32967
0.65883791 -0.50367498 1.32967
0.65883791 0.52632499 1.32967
-0.426162 -0.50367498 1.3346701
-0.426162 0.52632499 1.3346701
0.65883791 -0.50367498 1.3346701
0.65883791 0.52632499 1.3346701
-0.426162 -0.50367498 1.3396699
-0.426162 0.52632499 1.3396699
0.65883791 -0.50367498 1.3396699
0.65883791 0.52632499 1.3396699
-0.426162 -0.50367498 1.3446701
-0.426162 0.52632499 1.3446701
0.65883791 -0.50367498 1.3446701
0.65883791 0.52632499 1.3446701
-0.426162 -0.50367498 1.3496701
-0.426162 0.52632499 1.3496701
0.65883791 -0.50367498 1.3496701
0.65883791 0.52632499 1.3496701
-0.426162 -0.50367498 1.35467
-0.426162 0.52632499 1.35467
0.65883791 -0.50367498 1.35467
0.65883791 0.52632499 1.35467
-0.426162 -0.50367498 1.35967
-0.426162 0.52632499 1.35967
0.65883791 -0.50367498 1.35967
0.65883791 0.52632499 1.35967
-0.426162 -0.50367498 1.36467
-0.426162 0.52632499 1.36467
0.65883791 -0.50367498 1.36467
0.65883791 0.52632499 1.36467
-0.426162 -0.50367498 1.36967
-0.426162 0.52632499 1.36967
0.65883791 -0.50367498 1.36967
0.65883791 0.52632499 1.36967
-0.426162 -0.50367498 1.37467
-0.426162 0.52632499 1.37467
0.65883791 -0.50367498 1.37467
0.65883791 0.52632499 1.37467
-0.426162 -0.50367498 1.37967
-0.426162 0.52632499 1.37967
0.65883791 -0.50367498 1.37967
0.65883791 0.52632499 1.37967
-0.426162 -0.50367498 1.38467
-0.426162 0.52632499 1.38467
0.65883791 -0.50367498 1.38467
0.65883791 0.52632499 1.38467
-0.426162 -0.50367498 1.38967
-0.426162 0.52632499 1.38967
0.65883791 -0.50367498 1.38967
0.65883791 0.52632499 1.38967
-0.426162 -0.50367498 1.39467
-0.426162 0.52632499 1.39467
0.65883791 -0.50367498 1.39467
0.65883791 0.52632499 1.39467
-0.426162 -0.50367498 1.39967
-0.426162 0.52632499 1.39967
0.65883791 -0.50367498 1.39967
0.65883791 0.52632499 1.39967
-0.426162 -0.50367498 1.40467
-0.426162 0.52632499 1.40467
0.65883791 -0.50367498 1.40467
0.65883791 0.52632499 1.40467
-0.426162 -0.50367498 1.40967
-0.426162 0.52632499 1.40967
0.65883791 -0.50367498 1.40967
0.65883791 0.52632499 1.40967
-0.426162 -0.50367498 1.41467
-0.426162 0.52632499 1.41467
0.65883791 -0.50367498 1.41467
0.65883791 0.52632499 1.41467
-0.426162 -0.50367498 1.41967
-0.426162 0.52632499 1.41967
0.65883791 -0.50367498 1.41967
0.65883791 0.52632499 1.41967
-0.426162 -0.50367498 1.42467
-0.426162 0.52632499 1.42467
0.65883791 -0.50367498 1.42467
0.65883791 0.52632499 1.42467
-0.426162 -0.50367498 1.42967
-0.426162 0.52632499 1.42967
0.65883791 -0.50367498 1.42967
0.65883791 0.52632499 1.42967
-0.426162 -0.50367498 1.43467
-0.426162 0.52632499 1.43467
0.65883791 -0.50367498 1.43467
0.65883791 0.52632499 1.43467
-0.426162 -0.50367498 1.43967
-0.426162 0.52632499 1.43967
0.65883791 -0.50367498 1.43967
0.65883791 0.52632499 1.43967
-0.426162 -0.50367498 1.44467
-0.426162 0.52632499 1.44467
0.65883791 -0.50367498 1.44467
0.65883791 0.52632499 1.44467
-0.426162 -0.50367498 1.4496701
-0.426162 0.52632499 1.4496701
0.65883791 -0.50367498 1.4496701
0.65883791 0.52632499 1.4496701
-0.426162 -0.50367498 1.45467
-0.426162 0.52632499 1.45467
0.65883791 -0.50367498 1.45467
0.65883791 0.52632499 1.45467
-0.426162 -0.50367498 1.4596701
-0.426162 0.52632499 1.4596701
0.65883791 -0.50367498 1.4596701
0.65883791 0.52632499 1.4596701
-0.426162 -0.50367498 1.4646699
-0.426162 0.52632499 1.4646699
0.65883791 -0.50367498 1.4646699
0.65883791 0.52632499 1.4646699
-0.426162 -0.50367498 1.4696701
-0.426162 0.52632499 1.4696701
0.65883791 -0.50367498 1.4696701
0.65883791 0.52632499 1.4696701
-0.426162 -0.50367498 1.4746701
-0.426162 0.52632499 1.4746701
0.65883791 -0.50367498 1.4746701
0.65883791 0.52632499 1.4746701
-0.426162 -0.50367498 1.47967
-0.426162 0.52632499 1.47967
0.65883791 -0.50367498 1.47967
0.65883791 0.52632499 1.47967
-0.426162 -0.50367498 1.48467
-0.426162 0.52632499 1.48467
0.65883791 -0.50367498 1.48467
0.65883791 0.52632499 1.48467
-0.426162 -0.50367498 1.48967
-0.426162 0.52632499 1.48967
0.65883791 -0.50367498 1.48967
0.65883791 0.52632499 1.48967
-0.426162 -0.50367498 1.49467
-0.426162 0.52632499 1.49467
0.65883791 -0.50367498 1.49467
0.65883791 0.52632499 1.49467
-0.426162 -0.50367498 1.49967
-0.426162 0.52632499 1.49967
0.65883791 -0.50367498 1.49967
0.65883791 0.52632499 1.49967
-0.426162 -0.50367498 1.50467
-0.426162 0.52632499 1.50467
0.65883791 -0.50367498 1.50467
0.65883791 0.52632499 1.50467
-0.426162 -0.50367498 1.50967
-0.426162 0.52632499 1.50967
0.65883791 -0.50367498 1.50967
0.65883791 0.52632499 1.50967
-0.426162 -0.50367498 1.51467
-0.426162 0.52632499 1.51467
0.65883791 -0.50367498 1.51467
0.65883791 0.52632499 1.51467
-0.426162 -0.50367498 1.51967
-0.426162 0.52632499 1.51967
0.65883791 -0.50367498 1.51967
0.65883791 0.52632499 1.51967
-0.426162 -0.50367498 1.52467
-0.426162 0.52632499 1.52467
0.65883791 -0.50367498 1.52467
0.65883791 0.52632499 1.52467
-0.426162 -0.50367498 1.52967
-0.426162 0.52632499 1.52967
0.65883791 -0.50367498 1.52967
0.65883791 0.52632499 1.52967
-0.426162 -0.50367498 1.53467
-0.426162 0.52632499 1.53467
0.65883791 -0.50367498 1.53467
0.65883791 0.52632499 1.53467
-0.426162 -0.50367498 1.53967
-0.426162 0.52632499 1.53967
0.65883791 -0.50367498 1.53967
0.65883791 0.52632499 1.53967
-0.426162 -0.50367498 1.54467
-0.426162 0.52632499 1.54467
0.65883791 -0.50367498 1.54467
0.65883791 0.52632499 1.54467
-0.426162 -0.50367498 1.54967
-0.426162 0.52632499 1.54967
0.65883791 -0.50367498 1.54967
0.65883791 0.52632499 1.54967
-0.426162 -0.50367498 1.5546701
-0.426162 0.52632499 1.5546701
0.65883791 -0.50367498 1.5546701
0.65883791 0.52632499 1.5546701
-0.426162 -0.50367498 1.55967
-0.426162 0.52632499 1.55967
0.65883791 -0.50367498 1.55967
0.65883791 0.52632499 1.55967
-0.426162 -0.50367498 1.5646701
-0.426162 0.52632499 1.5646701
0.65883791 -0.50367498 1.5646701
0.65883791 0.52632499 1.5646701
-0.426162 -0.50367498 1.56967
-0.426162 0.52632499 1.56967
0.65883791 -0.50367498 1.56967
0.65883791 0.52632499 1.56967
-0.426162 -0.50367498 1.5746701
-0.426162 0.52632499 1.5746701
0.65883791 -0.50367498 1.5746701
0.65883791 0.52632499 1.5746701
-0.426162 -0.50367498 1.57967
-0.426162 0.52632499 1.57967
0.65883791 -0.50367498 1.57967
0.65883791 0.52632499 1.57967
-0.426162 -0.50367498 1.5846701
-0.426162 0.52632499 1.5846701
0.65883791 -0.50367498 1.5846701
0.65883791 0.52632499 1.5846701
-0.426162 -0.50367498 1.5896699
-0.426162 0.52632499 1.5896699
0.65883791 -0.50367498 1.5896699
0.65883791 0.52632499 1.5896699
-0.426162 -0.50367498 1.5946701
-0.426162 0.52632499 1.5946701
0.65883791 -0.50367498 1.5946701
0.65883791 0.52632499 1.5946701
-0.426162 -0.50367498 1.5996699
-0.426162 0.52632499 1.5996699
0.65883791 -0.50367498 1.5996699
0.65883791 0.52632499 1.5996699
-0.426162 -0.50367498 1.60467
-0.426162 0.52632499 1.60467
0.65883791 -0.50367498 1.60467
0.65883791 0.52632499 1.60467
-0.426162 -0.50367498 1.00967
-0.426162 0.52632499 1.00967
-0.426162 -0.50367498 1.60467
-0.426162 0.52632499 1.60467
-0.42116201 -0.50367498 1.00967
-0.42116201 0.52632499 1.00967
-0.42116201 -0.50367498 1.60467
-0.42116201 0.52632499 1.60467
-0.41616201 -0.50367498 1.00967
-0.41616201 0.52632499 1.00967
-0.41616201 -0.50367498 1.60467
-0.41616201 0.52632499 1.60467
-0.41116202 -0.50367498 1.00967
-0.41116202 0.52632499 1.00967
-0.41116202 -0.50367498 1.60467
-0.41116202 0.52632499 1.60467
-0.40616199 -0.50367498 1.00967
-0.40616199 0.52632499 1.00967
-0.40616199 -0.50367498 1.60467
-0.40616199 0.52632499 1.60467
-0.401162 -0.50367498 1.00967
-0.401162 0.52632499 1.00967
-0.401162 -0.50367498 1.60467
-0.401162 0.52632499 1.60467
-0.396162 -0.50367498 1.00967
-0.396162 0.52632499 1.00967
-0.396162 -0.50367498 1.60467
-0.396162 0.52632499 1.60467
-0.39116201 -0.50367498 1.00967
-0.39116201 0.52632499 1.00967
-0.39116201 -0.50367498 1.60467
-0.39116201 0.52632499 1.60467
-0.38616201 -0.50367498 1.00967
-0.38616201 0.52632499 1.00967
-0.38616201 -0.50367498 1.60467
-0.38616201 0.52632499 1.60467
-0.38116202 -0.50367498 1.00967
-0.38116202 0.52632499 1.00967
-0.38116202 -0.50367498 1.60467
-0.38116202 0.52632499 1.60467
-0.37616199 -0.50367498 1.00967
-0.37616199 0.52632499 1.00967
-0.37616199 -0.50367498 1.60467
-0.37616199 0.52632499 1.60467
-0.371162 -0.50367498 1.00967
-0.371162 0.52632499 1.00967
-0.371162 -0.50367498 1.60467
-0.371162 0.52632499 1.60467
-0.366162 -0.50367498 1.00967
-0.366162 0.52632499 1.00967
-0.366162 -0.50367498 1.60467
-0.366162 0.52632499 1.60467
-0.36116201 -0.50367498 1.00967
-0.36116201 0.52632499 1.00967
-0.36116201 -0.50367498 1.60467
-0.36116201 0.52632499 1.60467
-0.35616201 -0.50367498 1.00967
-0.35616201 0.52632499 1.00967
-0.35616201 -0.50367498 1.60467
-0.35616201 0.52632499 1.60467
-0.35116202 -0.50367498 1.00967
-0.35116202 0.52632499 1.00967
-0.35116202 -0.50367498 1.60467
-0.35116202 0.52632499 1.60467
-0.34616202 -0.50367498 1.00967
-0.34616202 0.52632499 1.00967
-0.34616202 -0.50367498 1.60467
-0.34616202 0.52632499 1.60467
-0.341162 -0.50367498 1.00967
-0.341162 0.52632499 1.00967
-0.341162 -0.50367498 1.60467
-0.341162 0.52632499 1.60467
-0.336162 -0.50367498 1.00967
-0.336162 0.52632499 1.00967
-0.336162 -0.50367498 1.60467
-0.336162 0.52632499 1.60467
-0.33116201 -0.50367498 1.00967
-0.33116201 0.52632499 1.00967
-0.33116201 -0.50367498 1.60467
-0.33116201 0.52632499 1.60467
-0.32616201 -0.50367498 1.00967
-0.32616201 0.52632499 1.00967
-0.32616201 -0.50367498 1.60467
-0.32616201 0.52632499 1.60467
-0.32116202 -0.50367498 1.00967
-0.32116202 0.52632499 1.00967
-0.32116202 -0.50367498 1.60467
-0.32116202 0.52632499 1.60467
-0.31616199 -0.50367498 1.00967
-0.31616199 0.52632499 1.00967
-0.31616199 -0.50367498 1.60467
-0.31616199 0.52632499 1.60467
-0.31116199 -0.50367498 1.00967
-0.31116199 0.52632499 1.00967
-0.31116199 -0.50367498 1.60467
-0.31116199 0.52632499 1.60467
-0.306162 -0.50367498 1.00967
-0.306162 0.52632499 1.00967
-0.306162 -0.50367498 1.60467
-0.306162 0.52632499 1.60467
-0.301162 -0.50367498 1.00967
-0.301162 0.52632499 1.00967
-0.301162 -0.50367498 1.60467
-0.301162 0.52632499 1.60467
-0.29616201 -0.50367498 1.00967
-0.29616201 0.52632499 1.00967
-0.29616201 -0.50367498 1.60467
-0.29616201 0.52632499 1.60467
-0.29116201 -0.50367498 1.00967
-0.29116201 0.52632499 1.00967
-0.29116201 -0.50367498 1.60467
-0.29116201 0.52632499 1.60467
-0.28616202 -0.50367498 1.00967
-0.28616202 0.52632499 1.00967
-0.28616202 -0.50367498 1.60467
-0.28616202 0.52632499 1.60467
-0.28116202 -0.50367498 1.00967
-0.28116202 0.52632499 1.00967
-0.28116202 -0.50367498 1.60467
-0.28116202 0.52632499 1.60467
-0.27616203 -0.50367498 1.00967
-0.27616203 0.52632499 1.00967
-0.27616203 -0.50367498 1.60467
-0.27616203 0.52632499 1.60467
-0.271162 -0.50367498 1.00967
-0.271162 0.52632499 1.00967
-0.271162 -0.50367498 1.60467
-0.271162 0.52632499 1.60467
-0.26616201 -0.50367498 1.00967
-0.26616201 0.52632499 1.00967
-0.26616201 -0.50367498 1.60467
-0.26616201 0.52632499 1.60467
-0.26116201 -0.50367498 1.00967
-0.26116201 0.52632499 1.00967
-0.26116201 -0.50367498 1.60467
-0.26116201 0.52632499 1.60467
-0.25616199 -0.50367498 1.00967
-0.25616199 0.52632499 1.00967
-0.25616199 -0.50367498 1.60467
-0.25616199 0.52632499 1.60467
-0.25116199 -0.50367498 1.00967
-0.25116199 0.52632499 1.00967
-0.25116199 -0.50367498 1.60467
-0.25116199 0.52632499 1.60467
-0.24616201 -0.50367498 1.00967
-0.24616201 0.52632499 1.00967
-0.24616201 -0.50367498 1.60467
-0.24616201 0.52632499 1.60467
-0.241162 -0.50367498 1.00967
-0.241162 0.52632499 1.00967
-0.241162 -0.50367498 1.60467
-0.241162 0.52632499 1.60467
-0.23616201 -0.50367498 1.00967
-0.23616201 0.52632499 1.00967
-0.23616201 -0.50367498 1.60467
-0.23616201 0.52632499 1.60467
-0.23116201 -0.50367498 1.00967
-0.23116201 0.52632499 1.00967
-0.23116201 -0.50367498 1.60467
-0.23116201 0.52632499 1.60467
-0.22616202 -0.50367498 1.00967
-0.22616202 0.52632499 1.00967
-0.22616202 -0.50367498 1.60467
-0.22616202 0.52632499 1.60467
-0.22116201 -0.50367498 1.00967
-0.22116201 0.52632499 1.00967
-0.22116201 -0.50367498 1.60467
-0.22116201 0.52632499 1.60467
-0.21616201 -0.50367498 1.00967
-0.21616201 0.52632499 1.00967
-0.21616201 -0.50367498 1.60467
-0.21616201 0.52632499 1.60467
-0.21116202 -0.50367498 1.00967
-0.21116202 0.52632499 1.00967
-0.21116202 -0.50367498 1.60467
-0.21116202 0.52632499 1.60467
-0.20616201 -0.50367498 1.00967
-0.20616201 0.52632499 1.00967
-0.20616201 -0.50367498 1.60467
-0.20616201 0.52632499 1.60467
-0.20116201 -0.50367498 1.00967
-0.20116201 0.52632499 1.00967
-0.20116201 -0.50367498 1.60467
-0.20116201 0.52632499 1.60467
-0.19616202 -0.50367498 1.00967
-0.19616202 0.52632499 1.00967
-0.19616202 -0.50367498 1.60467
-0.19616202 0.52632499 1.60467
-0.19116201 -0.50367498 1.00967
-0.19116201 0.52632499 1.00967
-0.19116201 -0.50367498 1.60467
-0.19116201 0.52632499 1.60467
-0.18616201 -0.50367498 1.00967
-0.18616201 0.52632499 1.00967
-0.18616201 -0.50367498 1.60467
-0.18616201 0.52632499 1.60467
-0.18116201 -0.50367498 1.00967
-0.18116201 0.52632499 1.00967
-0.18116201 -0.50367498 1.60467
-0.18116201 0.52632499 1.60467
-0.176162 -0.50367498 1.00967
-0.176162 0.52632499 1.00967
-0.176162 -0.50367498 1.60467
-0.176162 0.52632499 1.60467
-0.17116201 -0.50367498 1.00967
-0.17116201 0.52632499 1.00967
-0.17116201 -0.50367498 1.60467
-0.17116201 0.52632499 1.60467
-0.16616201 -0.50367498 1.00967
-0.16616201 0.52632499 1.00967
-0.16616201 -0.50367498 1.60467
-0.16616201 0.52632499 1.60467
-0.16116202 -0.50367498 1.00967
-0.16116202 0.52632499 1.00967
-0.16116202 -0.50367498 1.60467
-0.16116202 0.52632499 1.60467
-0.15616202 -0.50367498 1.00967
-0.15616202 0.52632499 1.00967
-0.15616202 -0.50367498 1.60467
-0.15616202 0.52632499 1.60467
-0.151162 -0.50367498 1.00967
-0.151162 0.52632499 1.00967
-0.151162 -0.50367498 1.60467
-0.151162 0.52632499 1.60467
-0.146162 -0.50367498 1.00967
-0.146162 0.52632499 1.00967
-0.146162 -0.50367498 1.60467
-0.146162 0.52632499 1.60467
-0.14116201 -0.50367498 1.00967
-0.14116201 0.52632499 1.00967
-0.14116201 -0.50367498 1.60467
-0.14116201 0.52632499 1.60467
-0.13616201 -0.50367498 1.00967
-0.13616201 0.52632499 1.00967
-0.13616201 -0.50367498 1.60467
-0.13616201 0.52632499 1.60467
-0.13116202 -0.50367498 1.00967
-0.13116202 0.52632499 1.00967
-0.13116202 -0.50367498 1.60467
-0.13116202 0.52632499 1.60467
-0.12616202 -0.50367498 1.00967
-0.12616202 0.52632499 1.00967
-0.12616202 -0.50367498 1.60467
-0.12616202 0.52632499 1.60467
-0.121162 -0.50367498 1.00967
-0.121162 0.52632499 1.00967
-0.121162 -0.50367498 1.60467
-0.121162 0.52632499 1.60467
-0.116162 -0.50367498 1.00967
-0.116162 0.52632499 1.00967
-0.116162 -0.50367498 1.60467
-0.116162 0.52632499 1.60467
-0.11116201 -0.50367498 1.00967
-0.11116201 0.52632499 1.00967
-0.11116201 -0.50367498 1.60467
-0.11116201 0.52632499 1.60467
-0.10616201 -0.50367498 1.00967
-0.10616201 0.52632499 1.00967
-0.10616201 -0.50367498 1.60467
-0.10616201 0.52632499 1.60467
-0.10116202 -0.50367498 1.00967
-0.10116202 0.52632499 1.00967
-0.10116202 -0.50367498 1.60467
-0.10116202 0.52632499 1.60467
-0.096162021 -0.50367498 1.00967
-0.096162021 0.52632499 1.00967
-0.096162021 -0.50367498 1.60467
-0.096162021 0.52632499 1.60467
-0.091162026 -0.50367498 1.00967
-0.091162026 0.52632499 1.00967
-0.091162026 -0.50367498 1.60467
-0.091162026 0.52632499 1.60467
-0.086162001 -0.50367498 1.00967
-0.086162001 0.52632499 1.00967
-0.086162001 -0.50367498 1.60467
-0.086162001 0.52632499 1.60467
-0.081162006 -0.50367498 1.00967
-0.081162006 0.52632499 1.00967
-0.081162006 -0.50367498 1.60467
-0.081162006 0.52632499 1.60467
-0.07616201 -0.50367498 1.00967
-0.07616201 0.52632499 1.00967
-0.07616201 -0.50367498 1.60467
-0.07616201 0.52632499 1.60467
-0.071162015 -0.50367498 1.00967
-0.071162015 0.52632499 1.00967
-0.071162015 -0.50367498 1.60467
-0.071162015 0.52632499 1.60467
-0.06616202 -0.50367498 1.00967
-0.06616202 0.52632499 1.00967
-0.06616202 -0.50367498 1.60467
-0.06616202 0.52632499 1.60467
-0.061162025 -0.50367498 1.00967
-0.061162025 0.52632499 1.00967
-0.061162025 -0.50367498 1.60467
-0.061162025 0.52632499 1.60467
-0.056162 -0.50367498 1.00967
-0.056162 0.52632499 1.00967
-0.056162 -0.50367498 1.60467
-0.056162 0.52632499 1.60467
-0.051162004 -0.50367498 1.00967
-0.051162004 0.52632499 1.00967
-0.051162004 -0.50367498 1.60467
-0.051162004 0.52632499 1.60467
-0.046162009 -0.50367498 1.00967
-0.046162009 0.52632499 1.00967
-0.046162009 -0.50367498 1.60467
-0.046162009 0.52632499 1.60467
-0.041162014 -0.50367498 1.00967
-0.041162014 0.52632499 1.00967
-0.041162014 -0.50367498 1.60467
-0.041162014 0.52632499 1.60467
-0.036162019 -0.50367498 1.00967
-0.036162019 0.52632499 1.00967
-0.036162019 -0.50367498 1.60467
-0.036162019 0.52632499 1.60467
-0.031162024 -0.50367498 1.00967
-0.031162024 0.52632499 1.00967
-0.031162024 -0.50367498 1.60467
-0.031162024 0.52632499 1.60467
-0.026162028 -0.50367498 1.00967
-0.026162028 0.52632499 1.00967
-0.026162028 -0.50367498 1.60467
-0.026162028 0.52632499 1.60467
-0.021162003 -0.50367498 1.00967
-0.021162003 0.52632499 1.00967
-0.021162003 -0.50367498 1.60467
-0.021162003 0.52632499 1.60467
-0.016162008 -0.50367498 1.00967
-0.016162008 0.52632499 1.00967
-0.016162008 -0.50367498 1.60467
-0.016162008 0.52632499 1.60467
-0.011162013 -0.50367498 1.00967
-0.011162013 0.52632499 1.00967
-0.011162013 -0.50367498 1.60467
-0.011162013 0.52632499 1.60467
-0.0061620176 -0.50367498 1.00967
-0.0061620176 0.52632499 1.00967
-0.0061620176 -0.50367498 1.60467
-0.0061620176 0.52632499 1.60467
-0.0011620224 -0.50367498 1.00967
-0.0011620224 0.52632499 1.00967
-0.0011620224 -0.50367498 1.60467
-0.0011620224 0.52632499 1.60467
0.0038379729 -0.50367498 1.00967
0.0038379729 0.52632499 1.00967
0.0038379729 -0.50367498 1.60467
0.0038379729 0.52632499 1.60467
0.0088379979 -0.50367498 1.00967
0.0088379979 0.52632499 1.00967
0.0088379979 -0.50367498 1.60467
0.0088379979 0.52632499 1.60467
0.013837993 -0.50367498 1.00967
0.013837993 0.52632499 1.00967
0.013837993 -0.50367498 1.60467
0.013837993 0.52632499 1.60467
0.018837988 -0.50367498 1.00967
0.018837988 0.52632499 1.00967
0.018837988 -0.50367498 1.60467
0.018837988 0.52632499 1.60467
0.023837984 -0.50367498 1.00967
0.023837984 0.52632499 1.00967
0.023837984 -0.50367498 1.60467
0.023837984 0.52632499 1.60467
0.028837979 -0.50367498 1.00967
0.028837979 0.52632499 1.00967
0.028837979 -0.50367498 1.60467
0.028837979 0.52632499 1.60467
0.033837974 -0.50367498 1.00967
0.033837974 0.52632499 1.00967
0.033837974 -0.50367498 1.60467
0.033837974 0.52632499 1.60467
0.038837999 -0.50367498 1.00967
0.038837999 0.52632499 1.00967
0.038837999 -0.50367498 1.60467
0.038837999 0.52632499 1.60467
0.043837994 -0.50367498 1.00967
0.043837994 0.52632499 1.00967
0.043837994 -0.50367498 1.60467
0.043837994 0.52632499 1.60467
0.04883799 -0.50367498 1.00967
0.04883799 0.52632499 1.00967
0.04883799 -0.50367498 1.60467
0.04883799 0.52632499 1.60467
0.053837985 -0.50367498 1.00967
0.053837985 0.52632499 1.00967
0.053837985 -0.50367498 1.60467
0.053837985 0.52632499 1.60467
0.05883798 -0.50367498 1.00967
0.05883798 0.52632499 1.00967
0.05883798 -0.50367498 1.60467
0.05883798 0.52632499 1.60467
0.063837975 -0.50367498 1.00967
0.063837975 0.52632499 1.00967
0.063837975 -0.50367498 1.60467
0.063837975 0.52632499 1.60467
0.06883797 -0.50367498 1.00967
0.06883797 0.52632499 1.00967
0.06883797 -0.50367498 1.60467
0.06883797 0.52632499 1.60467
0.073837996 -0.50367498 1.00967
0.073837996 0.52632499 1.00967
0.073837996 -0.50367498 1.60467
0.073837996 0.52632499 1.60467
0.078837991 -0.50367498 1.00967
0.078837991 0.52632499 1.00967
0.078837991 -0.50367498 1.60467
0.078837991 0.52632499 1.60467
0.083837986 -0.50367498 1.00967
0.083837986 0.52632499 1.00967
0.083837986 -0.50367498 1.60467
0.083837986 0.52632499 1.60467
0.088837981 -0.50367498 1.00967
0.088837981 0.52632499 1.00967
0.088837981 -0.50367498 1.60467
0.088837981 0.52632499 1.60467
0.093837976 -0.50367498 1.00967
0.093837976 0.52632499 1.00967
0.093837976 -0.50367498 1.60467
0.093837976 0.52632499 1.60467
0.098837972 -0.50367498 1.00967
0.098837972 0.52632499 1.00967
0.098837972 -0.50367498 1.60467
0.098837972 0.52632499 1.60467
0.10383797 -0.50367498 1.00967
0.10383797 0.52632499 1.00967
0.10383797 -0.50367498 1.60467
0.10383797 0.52632499 1.60467
0.10883796 -0.50367498 1.00967
0.10883796 0.52632499 1.00967
0.10883796 -0.50367498 1.60467
0.10883796 0.52632499 1.60467
0.11383796 -0.50367498 1.00967
0.11383796 0.52632499 1.00967
0.11383796 -0.50367498 1.60467
0.11383796 0.52632499 1.60467
0.11883801 -0.50367498 1.00967
0.11883801 0.52632499 1.00967
0.11883801 -0.50367498 1.60467
0.11883801 0.52632499 1.60467
0.12383801 -0.50367498 1.00967
0.12383801 0.52632499 1.00967
0.12383801 -0.50367498 1.60467
0.12383801 0.52632499 1.60467
0.128838 -0.50367498 1.00967
0.128838 0.52632499 1.00967
0.128838 -0.50367498 1.60467
0.128838 0.52632499 1.60467
0.133838 -0.50367498 1.00967
0.133838 0.52632499 1.00967
0.133838 -0.50367498 1.60467
0.133838 0.52632499 1.60467
0.13883799 -0.50367498 1.00967
0.13883799 0.52632499 1.00967
0.13883799 -0.50367498 1.60467
0.13883799 0.52632499 1.60467
0.14383799 -0.50367498 1.00967
0.14383799 0.52632499 1.00967
0.14383799 -0.50367498 1.60467
0.14383799 0.52632499 1.60467
0.14883798 -0.50367498 1.00967
0.14883798 0.52632499 1.00967
0.14883798 -0.50367498 1.60467
0.14883798 0.52632499 1.60467
0.15383798 -0.50367498 1.00967
0.15383798 0.52632499 1.00967
0.15383798 -0.50367498 1.60467
0.15383798 0.52632499 1.60467
0.15883797 -0.50367498 1.00967
0.15883797 0.52632499 1.00967
0.15883797 -0.50367498 1.60467
0.15883797 0.52632499 1.60467
0.16383797 -0.50367498 1.00967
0.16383797 0.52632499 1.00967
0.16383797 -0.50367498 1.60467
0.16383797 0.52632499 1.60467
0.16883796 -0.50367498 1.00967
0.16883796 0.52632499 1.00967
0.16883796 -0.50367498 1.60467
0.16883796 0.52632499 1.60467
0.17383796 -0.50367498 1.00967
0.17383796 0.52632499 1.00967
0.17383796 -0.50367498 1.60467
0.17383796 0.52632499 1.60467
0.17883795 -0.50367498 1.00967
0.17883795 0.52632499 1.00967
0.17883795 -0.50367498 1.60467
0.17883795 0.52632499 1.60467
0.18383801 -0.50367498 1.00967
0.18383801 0.52632499 1.00967
0.18383801 -0.50367498 1.60467
0.18383801 0.52632499 1.60467
0.18883801 -0.50367498 1.00967
0.18883801 0.52632499 1.00967
0.18883801 -0.50367498 1.60467
0.18883801 0.52632499 1.60467
0.193838 -0.50367498 1.00967
0.193838 0.52632499 1.00967
0.193838 -0.50367498 1.60467
0.193838 0.52632499 1.60467
0.198838 -0.50367498 1.00967
0.198838 0.52632499 1.00967
0.198838 -0.50367498 1.60467
0.198838 0.52632499 1.60467
0.20383799 -0.50367498 1.00967
0.20383799 0.52632499 1.00967
0.20383799 -0.50367498 1.60467
0.20383799 0.52632499 1.60467
0.20883799 -0.50367498 1.00967
0.20883799 0.52632499 1.00967
0.20883799 -0.50367498 1.60467
0.20883799 0.52632499 1.60467
0.21383798 -0.50367498 1.00967
0.21383798 0.52632499 1.00967
0.21383798 -0.50367498 1.60467
0.21383798 0.52632499 1.60467
0.21883798 -0.50367498 1.00967
0.21883798 0.52632499 1.00967
0.21883798 -0.50367498 1.60467
0.21883798 0.52632499 1.60467
0.22383797 -0.50367498 1.00967
0.22383797 0.52632499 1.00967
0.22383797 -0.50367498 1.60467
0.22383797 0.52632499 1.60467
0.22883797 -0.50367498 1.00967
0.22883797 0.52632499 1.00967
0.22883797 -0.50367498 1.60467
0.22883797 0.52632499 1.60467
0.23383796 -0.50367498 1.00967
0.23383796 0.52632499 1.00967
0.23383796 -0.50367498 1.60467
0.23383796 0.52632499 1.60467
0.23883796 -0.50367498 1.00967
0.23883796 0.52632499 1.00967
0.23883796 -0.50367498 1.60467
0.23883796 0.52632499 1.60467
0.24383795 -0.50367498 1.00967
0.24383795 0.52632499 1.00967
0.24383795 -0.50367498 1.60467
0.24383795 0.52632499 1.60467
0.24883801 -0.50367498 1.00967
0.24883801 0.52632499 1.00967
0.24883801 -0.50367498 1.60467
0.24883801 0.52632499 1.60467
0.253838 -0.50367498 1.00967
0.253838 0.52632499 1.00967
0.253838 -0.50367498 1.60467
0.253838 0.52632499 1.60467
0.258838 -0.50367498 1.00967
0.258838 0.52632499 1.00967
0.258838 -0.50367498 1.60467
0.258838 0.52632499 1.60467
0.26383799 -0.50367498 1.00967
0.26383799 0.52632499 1.00967
0.26383799 -0.50367498 1.60467
0.26383799 0.52632499 1.60467
0.26883799 -0.50367498 1.00967
0.26883799 0.52632499 1.00967
0.26883799 -0.50367498 1.60467
0.26883799 0.52632499 1.60467
0.27383798 -0.50367498 1.00967
0.27383798 0.52632499 1.00967
0.27383798 -0.50367498 1.60467
0.27383798 0.52632499 1.60467
0.27883798 -0.50367498 1.00967
0.27883798 0.52632499 1.00967
0.27883798 -0.50367498 1.60467
0.27883798 0.52632499 1.60467
0.28383797 -0.50367498 1.00967
0.28383797 0.52632499 1.00967
0.28383797 -0.50367498 1.60467
0.28383797 0.52632499 1.60467
0.28883797 -0.50367498 1.00967
0.28883797 0.52632499 1.00967
0.28883797 -0.50367498 1.60467
0.28883797 0.52632499 1.60467
0.29383796 -0.50367498 1.00967
0.29383796 0.52632499 1.00967
0.29383796 -0.50367498 1.60467
0.29383796 0.52632499 1.60467
0.29883796 -0.50367498 1.00967
0.29883796 0.52632499 1.00967
0.29883796 -0.50367498 1.60467
0.29883796 0.52632499 1.60467
0.30383795 -0.50367498 1.00967
0.30383795 0.52632499 1.00967
0.30383795 -0.50367498 1.60467
0.30383795 0.52632499 1.60467
0.30883795 -0.50367498 1.00967
0.30883795 0.52632499 1.00967
0.30883795 -0.50367498 1.60467
0.30883795 0.52632499 1.60467
0.31383801 -0.50367498 1.00967
0.31383801 0.52632499 1.00967
0.31383801 -0.50367498 1.60467
0.31383801 0.52632499 1.60467
0.318838 -0.50367498 1.00967
0.318838 0.52632499 1.00967
0.318838 -0.50367498 1.60467
0.318838 0.52632499 1.60467
0.323838 -0.50367498 1.00967
0.323838 0.52632499 1.00967
0.323838 -0.50367498 1.60467
0.323838 0.52632499 1.60467
0.32883799 -0.50367498 1.00967
0.32883799 0.52632499 1.00967
0.32883799 -0.50367498 1.60467
0.32883799 0.52632499 1.60467
0.33383799 -0.50367498 1.00967
0.33383799 0.52632499 1.00967
0.33383799 -0.50367498 1.60467
0.33383799 0.52632499 1.60467
0.33883798 -0.50367498 1.00967
0.33883798 0.52632499 1.00967
0.33883798 -0.50367498 1.60467
0.33883798 0.52632499 1.60467
0.34383798 -0.50367498 1.00967
0.34383798 0.52632499 1.00967
0.34383798 -0.50367498 1.60467
0.34383798 0.52632499 1.60467
0.34883797 -0.50367498 1.00967
0.34883797 0.52632499 1.00967
0.34883797 -0.50367498 1.60467
0.34883797 0.52632499 1.60467
0.35383797 -0.50367498 1.00967
0.35383797 0.52632499 1.00967
0.35383797 -0.50367498 1.60467
0.35383797 0.52632499 1.60467
0.35883796 -0.50367498 1.00967
0.35883796 0.52632499 1.00967
0.35883796 -0.50367498 1.60467
0.35883796 0.52632499 1.60467
0.36383796 -0.50367498 1.00967
0.36383796 0.52632499 1.00967
0.36383796 -0.50367498 1.60467
0.36383796 0.52632499 1.60467
0.36883795 -0.50367498 1.00967
0.36883795 0.52632499 1.00967
0.36883795 -0.50367498 1.60467
0.36883795 0.52632499 1.60467
0.37383795 -0.50367498 1.00967
0.37383795 0.52632499 1.00967
