ply
format ascii 1.0
comment PCL generated
element vertex 1450
property float x
property float y
property float z
element camera 0
property float view_px
property float view_py
property float view_pz
property float x_axisx
property float x_axisy
property float x_axisz
property float y_axisx
property float y_axisy
property float y_axisz
property float z_axisx
property float z_axisy
property float z_axisz
property float focal
property float scalex
property float scaley
property float centerx
property float centery
property int viewportx
property int viewporty
property float k1
property float k2
end_header
0.74327397 -0.44191301 0.96093899
0.74327397 -0.44191301 1.545939
-0.42172599 -0.43691298 0.96093899
-0.42172599 -0.43691298 1.545939
0.74327397 -0.43691298 0.96093899
0.74327397 -0.43691298 1.545939
-0.42172599 -0.43191299 0.96093899
-0.42172599 -0.43191299 1.545939
0.74327397 -0.43191299 0.96093899
0.74327397 -0.43191299 1.545939
-0.42172599 -0.42691299 0.96093899
-0.42172599 -0.42691299 1.545939
0.74327397 -0.42691299 0.96093899
0.74327397 -0.42691299 1.545939
-0.42172599 -0.421913 0.96093899
-0.42172599 -0.421913 1.545939
0.74327397 -0.421913 0.96093899
0.74327397 -0.421913 1.545939
-0.42172599 -0.416913 0.96093899
-0.42172599 -0.416913 1.545939
0.74327397 -0.416913 0.96093899
0.74327397 -0.416913 1.545939
-0.42172599 -0.41191298 0.96093899
-0.42172599 -0.41191298 1.545939
0.74327397 -0.41191298 0.96093899
0.74327397 -0.41191298 1.545939
-0.42172599 -0.40691298 0.96093899
-0.42172599 -0.40691298 1.545939
0.74327397 -0.40691298 0.96093899
0.74327397 -0.40691298 1.545939
-0.42172599 -0.40191299 0.96093899
-0.42172599 -0.40191299 1.545939
0.74327397 -0.40191299 0.96093899
0.74327397 -0.40191299 1.545939
-0.42172599 -0.39691299 0.96093899
-0.42172599 -0.39691299 1.545939
0.74327397 -0.39691299 0.96093899
0.74327397 -0.39691299 1.545939
-0.42172599 -0.391913 0.96093899
-0.42172599 -0.391913 1.545939
0.74327397 -0.391913 0.96093899
0.74327397 -0.391913 1.545939
-0.42172599 -0.386913 0.96093899
-0.42172599 -0.386913 1.545939
0.74327397 -0.386913 0.96093899
0.74327397 -0.386913 1.545939
-0.42172599 -0.38191301 0.96093899
-0.42172599 -0.38191301 1.545939
0.74327397 -0.38191301 0.96093899
0.74327397 -0.38191301 1.545939
-0.42172599 -0.37691301 0.96093899
-0.42172599 -0.37691301 1.545939
0.74327397 -0.37691301 0.96093899
0.74327397 -0.37691301 1.545939
-0.42172599 -0.37191299 0.96093899
-0.42172599 -0.37191299 1.545939
0.74327397 -0.37191299 0.96093899
0.74327397 -0.37191299 1.545939
-0.42172599 -0.36691299 0.96093899
-0.42172599 -0.36691299 1.545939
0.74327397 -0.36691299 0.96093899
0.74327397 -0.36691299 1.545939
-0.42172599 -0.361913 0.96093899
-0.42172599 -0.361913 1.545939
0.74327397 -0.361913 0.96093899
0.74327397 -0.361913 1.545939
-0.42172599 -0.356913 0.96093899
-0.42172599 -0.356913 1.545939
0.74327397 -0.356913 0.96093899
0.74327397 -0.356913 1.545939
-0.42172599 -0.35191298 0.96093899
-0.42172599 -0.35191298 1.545939
0.74327397 -0.35191298 0.96093899
0.74327397 -0.35191298 1.545939
-0.42172599 -0.34691298 0.96093899
-0.42172599 -0.34691298 1.545939
0.74327397 -0.34691298 0.96093899
0.74327397 -0.34691298 1.545939
-0.42172599 -0.34191298 0.96093899
-0.42172599 -0.34191298 1.545939
0.74327397 -0.34191298 0.96093899
0.74327397 -0.34191298 1.545939
-0.42172599 -0.33691299 0.96093899
-0.42172599 -0.33691299 1.545939
0.74327397 -0.33691299 0.96093899
0.74327397 -0.33691299 1.545939
-0.42172599 -0.33191299 0.96093899
-0.42172599 -0.33191299 1.545939
0.74327397 -0.33191299 0.96093899
0.74327397 -0.33191299 1.545939
-0.42172599 -0.326913 0.96093899
-0.42172599 -0.326913 1.545939
0.74327397 -0.326913 0.96093899
0.74327397 -0.326913 1.545939
-0.42172599 -0.321913 0.96093899
-0.42172599 -0.321913 1.545939
0.74327397 -0.321913 0.96093899
0.74327397 -0.321913 1.545939
-0.42172599 -0.31691301 0.96093899
-0.42172599 -0.31691301 1.545939
0.74327397 -0.31691301 0.96093899
0.74327397 -0.31691301 1.545939
-0.42172599 -0.31191301 0.96093899
-0.42172599 -0.31191301 1.545939
0.74327397 -0.31191301 0.96093899
0.74327397 -0.31191301 1.545939
-0.42172599 -0.30691299 0.96093899
-0.42172599 -0.30691299 1.545939
0.74327397 -0.30691299 0.96093899
0.74327397 -0.30691299 1.545939
-0.42172599 -0.30191299 0.96093899
-0.42172599 -0.30191299 1.545939
0.74327397 -0.30191299 0.96093899
0.74327397 -0.30191299 1.545939
-0.42172599 -0.296913 0.96093899
-0.42172599 -0.296913 1.545939
0.74327397 -0.296913 0.96093899
0.74327397 -0.296913 1.545939
-0.42172599 -0.291913 0.96093899
-0.42172599 -0.291913 1.545939
0.74327397 -0.291913 0.96093899
0.74327397 -0.291913 1.545939
-0.42172599 -0.28691298 0.96093899
-0.42172599 -0.28691298 1.545939
0.74327397 -0.28691298 0.96093899
0.74327397 -0.28691298 1.545939
-0.42172599 -0.28191298 0.96093899
-0.42172599 -0.28191298 1.545939
0.74327397 -0.28191298 0.96093899
0.74327397 -0.28191298 1.545939
-0.42172599 -0.27691299 0.96093899
-0.42172599 -0.27691299 1.545939
0.74327397 -0.27691299 0.96093899
0.74327397 -0.27691299 1.545939
-0.42172599 -0.27191299 0.96093899
-0.42172599 -0.27191299 1.545939
0.74327397 -0.27191299 0.96093899
0.74327397 -0.27191299 1.545939
-0.42172599 -0.266913 0.96093899
-0.42172599 -0.266913 1.545939
0.74327397 -0.266913 0.96093899
0.74327397 -0.266913 1.545939
-0.42172599 -0.261913 0.96093899
-0.42172599 -0.261913 1.545939
0.74327397 -0.261913 0.96093899
0.74327397 -0.261913 1.545939
-0.42172599 -0.25691301 0.96093899
-0.42172599 -0.25691301 1.545939
0.74327397 -0.25691301 0.96093899
0.74327397 -0.25691301 1.545939
-0.42172599 -0.25191301 0.96093899
-0.42172599 -0.25191301 1.545939
0.74327397 -0.25191301 0.96093899
0.74327397 -0.25191301 1.545939
-0.42172599 -0.246913 0.96093899
-0.42172599 -0.246913 1.545939
0.74327397 -0.246913 0.96093899
0.74327397 -0.246913 1.545939
-0.42172599 -0.24191299 0.96093899
-0.42172599 -0.24191299 1.545939
0.74327397 -0.24191299 0.96093899
0.74327397 -0.24191299 1.545939
-0.42172599 -0.236913 0.96093899
-0.42172599 -0.236913 1.545939
0.74327397 -0.236913 0.96093899
0.74327397 -0.236913 1.545939
-0.42172599 -0.231913 0.96093899
-0.42172599 -0.231913 1.545939
0.74327397 -0.231913 0.96093899
0.74327397 -0.231913 1.545939
-0.42172599 -0.22691301 0.96093899
-0.42172599 -0.22691301 1.545939
0.74327397 -0.22691301 0.96093899
0.74327397 -0.22691301 1.545939
-0.42172599 -0.22191301 0.96093899
-0.42172599 -0.22191301 1.545939
0.74327397 -0.22191301 0.96093899
0.74327397 -0.22191301 1.545939
-0.42172599 -0.21691298 0.96093899
-0.42172599 -0.21691298 1.545939
0.74327397 -0.21691298 0.96093899
0.74327397 -0.21691298 1.545939
-0.42172599 -0.21191299 0.96093899
-0.42172599 -0.21191299 1.545939
0.74327397 -0.21191299 0.96093899
0.74327397 -0.21191299 1.545939
-0.42172599 -0.20691299 0.96093899
-0.42172599 -0.20691299 1.545939
0.74327397 -0.20691299 0.96093899
0.74327397 -0.20691299 1.545939
-0.42172599 -0.201913 0.96093899
-0.42172599 -0.201913 1.545939
0.74327397 -0.201913 0.96093899
0.74327397 -0.201913 1.545939
-0.42172599 -0.196913 0.96093899
-0.42172599 -0.196913 1.545939
0.74327397 -0.196913 0.96093899
0.74327397 -0.196913 1.545939
-0.42172599 -0.19191301 0.96093899
-0.42172599 -0.19191301 1.545939
0.74327397 -0.19191301 0.96093899
0.74327397 -0.19191301 1.545939
-0.42172599 -0.18691298 0.96093899
-0.42172599 -0.18691298 1.545939
0.74327397 -0.18691298 0.96093899
0.74327397 -0.18691298 1.545939
-0.42172599 -0.18191299 0.96093899
-0.42172599 -0.18191299 1.545939
0.74327397 -0.18191299 0.96093899
0.74327397 -0.18191299 1.545939
-0.42172599 -0.17691299 0.96093899
-0.42172599 -0.17691299 1.545939
0.74327397 -0.17691299 0.96093899
0.74327397 -0.17691299 1.545939
-0.42172599 -0.171913 0.96093899
-0.42172599 -0.171913 1.545939
0.74327397 -0.171913 0.96093899
0.74327397 -0.171913 1.545939
-0.42172599 -0.166913 0.96093899
-0.42172599 -0.166913 1.545939
0.74327397 -0.166913 0.96093899
0.74327397 -0.166913 1.545939
-0.42172599 -0.16191301 0.96093899
-0.42172599 -0.16191301 1.545939
0.74327397 -0.16191301 0.96093899
0.74327397 -0.16191301 1.545939
-0.42172599 -0.15691301 0.96093899
-0.42172599 -0.15691301 1.545939
0.74327397 -0.15691301 0.96093899
0.74327397 -0.15691301 1.545939
-0.42172599 -0.15191299 0.96093899
-0.42172599 -0.15191299 1.545939
0.74327397 -0.15191299 0.96093899
0.74327397 -0.15191299 1.545939
-0.42172599 -0.14691299 0.96093899
-0.42172599 -0.14691299 1.545939
0.74327397 -0.14691299 0.96093899
0.74327397 -0.14691299 1.545939
-0.42172599 -0.141913 0.96093899
-0.42172599 -0.141913 1.545939
0.74327397 -0.141913 0.96093899
0.74327397 -0.141913 1.545939
-0.42172599 -0.136913 0.96093899
-0.42172599 -0.136913 1.545939
0.74327397 -0.136913 0.96093899
0.74327397 -0.136913 1.545939
-0.42172599 -0.13191301 0.96093899
-0.42172599 -0.13191301 1.545939
0.74327397 -0.13191301 0.96093899
0.74327397 -0.13191301 1.545939
-0.42172599 -0.12691301 0.96093899
-0.42172599 -0.12691301 1.545939
0.74327397 -0.12691301 0.96093899
0.74327397 -0.12691301 1.545939
-0.42172599 -0.12191299 0.96093899
-0.42172599 -0.12191299 1.545939
0.74327397 -0.12191299 0.96093899
0.74327397 -0.12191299 1.545939
-0.42172599 -0.11691299 0.96093899
-0.42172599 -0.11691299 1.545939
0.74327397 -0.11691299 0.96093899
0.74327397 -0.11691299 1.545939
-0.42172599 -0.111913 0.96093899
-0.42172599 -0.111913 1.545939
0.74327397 -0.111913 0.96093899
0.74327397 -0.111913 1.545939
-0.42172599 -0.106913 0.96093899
-0.42172599 -0.106913 1.545939
0.74327397 -0.106913 0.96093899
0.74327397 -0.106913 1.545939
-0.42172599 -0.10191301 0.96093899
-0.42172599 -0.10191301 1.545939
0.74327397 -0.10191301 0.96093899
0.74327397 -0.10191301 1.545939
-0.42172599 -0.09691301 0.96093899
-0.42172599 -0.09691301 1.545939
0.74327397 -0.09691301 0.96093899
0.74327397 -0.09691301 1.545939
-0.42172599 -0.091913015 0.96093899
-0.42172599 -0.091913015 1.545939
0.74327397 -0.091913015 0.96093899
0.74327397 -0.091913015 1.545939
-0.42172599 -0.08691299 0.96093899
-0.42172599 -0.08691299 1.545939
0.74327397 -0.08691299 0.96093899
0.74327397 -0.08691299 1.545939
-0.42172599 -0.081912994 0.96093899
-0.42172599 -0.081912994 1.545939
0.74327397 -0.081912994 0.96093899
0.74327397 -0.081912994 1.545939
-0.42172599 -0.076912999 0.96093899
-0.42172599 -0.076912999 1.545939
0.74327397 -0.076912999 0.96093899
0.74327397 -0.076912999 1.545939
-0.42172599 -0.071913004 0.96093899
-0.42172599 -0.071913004 1.545939
0.74327397 -0.071913004 0.96093899
0.74327397 -0.071913004 1.545939
-0.42172599 -0.066913009 0.96093899
-0.42172599 -0.066913009 1.545939
0.74327397 -0.066913009 0.96093899
0.74327397 -0.066913009 1.545939
-0.42172599 -0.061913013 0.96093899
-0.42172599 -0.061913013 1.545939
0.74327397 -0.061913013 0.96093899
0.74327397 -0.061913013 1.545939
-0.42172599 -0.056912988 0.96093899
-0.42172599 -0.056912988 1.545939
0.74327397 -0.056912988 0.96093899
0.74327397 -0.056912988 1.545939
-0.42172599 -0.051912993 0.96093899
-0.42172599 -0.051912993 1.545939
0.74327397 -0.051912993 0.96093899
0.74327397 -0.051912993 1.545939
-0.42172599 -0.046912998 0.96093899
-0.42172599 -0.046912998 1.545939
0.74327397 -0.046912998 0.96093899
0.74327397 -0.046912998 1.545939
-0.42172599 -0.041913003 0.96093899
-0.42172599 -0.041913003 1.545939
0.74327397 -0.041913003 0.96093899
0.74327397 -0.041913003 1.545939
-0.42172599 -0.036913007 0.96093899
-0.42172599 -0.036913007 1.545939
0.74327397 -0.036913007 0.96093899
0.74327397 -0.036913007 1.545939
-0.42172599 -0.031913012 0.96093899
-0.42172599 -0.031913012 1.545939
0.74327397 -0.031913012 0.96093899
0.74327397 -0.031913012 1.545939
-0.42172599 -0.026912987 0.96093899
-0.42172599 -0.026912987 1.545939
0.74327397 -0.026912987 0.96093899
0.74327397 -0.026912987 1.545939
-0.42172599 -0.021912992 0.96093899
-0.42172599 -0.021912992 1.545939
0.74327397 -0.021912992 0.96093899
0.74327397 -0.021912992 1.545939
-0.42172599 -0.016912997 0.96093899
-0.42172599 -0.016912997 1.545939
0.74327397 -0.016912997 0.96093899
0.74327397 -0.016912997 1.545939
-0.42172599 -0.011913002 0.96093899
-0.42172599 -0.011913002 1.545939
0.74327397 -0.011913002 0.96093899
0.74327397 -0.011913002 1.545939
-0.42172599 -0.0069130063 0.96093899
-0.42172599 -0.0069130063 1.545939
0.74327397 -0.0069130063 0.96093899
0.74327397 -0.0069130063 1.545939
-0.42172599 -0.0019130111 0.96093899
-0.42172599 -0.0019130111 1.545939
0.74327397 -0.0019130111 0.96093899
0.74327397 -0.0019130111 1.545939
-0.42172599 0.0030869842 0.96093899
-0.42172599 0.0030869842 1.545939
0.74327397 0.0030869842 0.96093899
0.74327397 0.0030869842 1.545939
-0.42172599 0.0080870092 0.96093899
-0.42172599 0.0080870092 1.545939
0.74327397 0.0080870092 0.96093899
0.74327397 0.0080870092 1.545939
-0.42172599 0.013087004 0.96093899
-0.42172599 0.013087004 1.545939
0.74327397 0.013087004 0.96093899
0.74327397 0.013087004 1.545939
-0.42172599 0.018087 0.96093899
-0.42172599 0.018087 1.545939
0.74327397 0.018087 0.96093899
0.74327397 0.018087 1.545939
-0.42172599 0.023086995 0.96093899
-0.42172599 0.023086995 1.545939
0.74327397 0.023086995 0.96093899
0.74327397 0.023086995 1.545939
-0.42172599 0.02808699 0.96093899
-0.42172599 0.02808699 1.545939
0.74327397 0.02808699 0.96093899
0.74327397 0.02808699 1.545939
-0.42172599 0.033086985 0.96093899
-0.42172599 0.033086985 1.545939
0.74327397 0.033086985 0.96093899
0.74327397 0.033086985 1.545939
-0.42172599 0.038086981 0.96093899
-0.42172599 0.038086981 1.545939
0.74327397 0.038086981 0.96093899
0.74327397 0.038086981 1.545939
-0.42172599 0.043086976 0.96093899
-0.42172599 0.043086976 1.545939
0.74327397 0.043086976 0.96093899
0.74327397 0.043086976 1.545939
-0.42172599 0.048086971 0.96093899
-0.42172599 0.048086971 1.545939
0.74327397 0.048086971 0.96093899
0.74327397 0.048086971 1.545939
-0.42172599 0.053087026 0.96093899
-0.42172599 0.053087026 1.545939
0.74327397 0.053087026 0.96093899
0.74327397 0.053087026 1.545939
-0.42172599 0.058087021 0.96093899
-0.42172599 0.058087021 1.545939
0.74327397 0.058087021 0.96093899
0.74327397 0.058087021 1.545939
-0.42172599 0.063087016 0.96093899
-0.42172599 0.063087016 1.545939
0.74327397 0.063087016 0.96093899
0.74327397 0.063087016 1.545939
-0.42172599 0.068087012 0.96093899
-0.42172599 0.068087012 1.545939
0.74327397 0.068087012 0.96093899
0.74327397 0.068087012 1.545939
-0.42172599 0.073087007 0.96093899
-0.42172599 0.073087007 1.545939
0.74327397 0.073087007 0.96093899
0.74327397 0.073087007 1.545939
-0.42172599 0.078087002 0.96093899
-0.42172599 0.078087002 1.545939
0.74327397 0.078087002 0.96093899
0.74327397 0.078087002 1.545939
-0.42172599 0.083086997 0.96093899
-0.42172599 0.083086997 1.545939
0.74327397 0.083086997 0.96093899
0.74327397 0.083086997 1.545939
-0.42172599 0.088086993 0.96093899
-0.42172599 0.088086993 1.545939
0.74327397 0.088086993 0.96093899
0.74327397 0.088086993 1.545939
-0.42172599 0.093086988 0.96093899
-0.42172599 0.093086988 1.545939
0.74327397 0.093086988 0.96093899
0.74327397 0.093086988 1.545939
-0.42172599 0.098086983 0.96093899
-0.42172599 0.098086983 1.545939
0.74327397 0.098086983 0.96093899
0.74327397 0.098086983 1.545939
-0.42172599 0.10308698 0.96093899
-0.42172599 0.10308698 1.545939
0.74327397 0.10308698 0.96093899
0.74327397 0.10308698 1.545939
-0.42172599 0.10808697 0.96093899
-0.42172599 0.10808697 1.545939
0.74327397 0.10808697 0.96093899
0.74327397 0.10808697 1.545939
-0.42172599 0.11308697 0.96093899
-0.42172599 0.11308697 1.545939
0.74327397 0.11308697 0.96093899
0.74327397 0.11308697 1.545939
-0.42172599 0.11808702 0.96093899
-0.42172599 0.11808702 1.545939
0.74327397 0.11808702 0.96093899
0.74327397 0.11808702 1.545939
-0.42172599 0.12308702 0.96093899
-0.42172599 0.12308702 1.545939
0.74327397 0.12308702 0.96093899
0.74327397 0.12308702 1.545939
-0.42172599 0.12808701 0.96093899
-0.42172599 0.12808701 1.545939
0.74327397 0.12808701 0.96093899
0.74327397 0.12808701 1.545939
-0.42172599 0.13308701 0.96093899
-0.42172599 0.13308701 1.545939
0.74327397 0.13308701 0.96093899
0.74327397 0.13308701 1.545939
-0.42172599 0.138087 0.96093899
-0.42172599 0.138087 1.545939
0.74327397 0.138087 0.96093899
0.74327397 0.138087 1.545939
-0.42172599 0.143087 0.96093899
-0.42172599 0.143087 1.545939
0.74327397 0.143087 0.96093899
0.74327397 0.143087 1.545939
-0.42172599 0.14808699 0.96093899
-0.42172599 0.14808699 1.545939
0.74327397 0.14808699 0.96093899
0.74327397 0.14808699 1.545939
-0.42172599 0.15308699 0.96093899
-0.42172599 0.15308699 1.545939
0.74327397 0.15308699 0.96093899
0.74327397 0.15308699 1.545939
-0.42172599 0.15808699 0.96093899
-0.42172599 0.15808699 1.545939
0.74327397 0.15808699 0.96093899
0.74327397 0.15808699 1.545939
-0.42172599 0.16308698 0.96093899
-0.42172599 0.16308698 1.545939
0.74327397 0.16308698 0.96093899
0.74327397 0.16308698 1.545939
-0.42172599 0.16808698 0.96093899
-0.42172599 0.16808698 1.545939
0.74327397 0.16808698 0.96093899
0.74327397 0.16808698 1.545939
-0.42172599 0.17308697 0.96093899
-0.42172599 0.17308697 1.545939
0.74327397 0.17308697 0.96093899
0.74327397 0.17308697 1.545939
-0.42172599 0.17808697 0.96093899
-0.42172599 0.17808697 1.545939
0.74327397 0.17808697 0.96093899
0.74327397 0.17808697 1.545939
-0.42172599 0.18308702 0.96093899
-0.42172599 0.18308702 1.545939
0.74327397 0.18308702 0.96093899
0.74327397 0.18308702 1.545939
-0.42172599 0.18808702 0.96093899
-0.42172599 0.18808702 1.545939
0.74327397 0.18808702 0.96093899
0.74327397 0.18808702 1.545939
-0.42172599 0.19308701 0.96093899
-0.42172599 0.19308701 1.545939
0.74327397 0.19308701 0.96093899
0.74327397 0.19308701 1.545939
-0.42172599 0.19808701 0.96093899
-0.42172599 0.19808701 1.545939
0.74327397 0.19808701 0.96093899
0.74327397 0.19808701 1.545939
-0.42172599 0.203087 0.96093899
-0.42172599 0.203087 1.545939
0.74327397 0.203087 0.96093899
0.74327397 0.203087 1.545939
-0.42172599 0.208087 0.96093899
-0.42172599 0.208087 1.545939
0.74327397 0.208087 0.96093899
0.74327397 0.208087 1.545939
-0.42172599 0.21308699 0.96093899
-0.42172599 0.21308699 1.545939
0.74327397 0.21308699 0.96093899
0.74327397 0.21308699 1.545939
-0.42172599 0.21808699 0.96093899
-0.42172599 0.21808699 1.545939
0.74327397 0.21808699 0.96093899
0.74327397 0.21808699 1.545939
-0.42172599 0.22308698 0.96093899
-0.42172599 0.22308698 1.545939
0.74327397 0.22308698 0.96093899
0.74327397 0.22308698 1.545939
-0.42172599 0.22808698 0.96093899
-0.42172599 0.22808698 1.545939
0.74327397 0.22808698 0.96093899
0.74327397 0.22808698 1.545939
-0.42172599 0.23308697 0.96093899
-0.42172599 0.23308697 1.545939
0.74327397 0.23308697 0.96093899
0.74327397 0.23308697 1.545939
-0.42172599 0.23808697 0.96093899
-0.42172599 0.23808697 1.545939
0.74327397 0.23808697 0.96093899
0.74327397 0.23808697 1.545939
-0.42172599 0.24308696 0.96093899
-0.42172599 0.24308696 1.545939
0.74327397 0.24308696 0.96093899
0.74327397 0.24308696 1.545939
-0.42172599 0.24808702 0.96093899
-0.42172599 0.24808702 1.545939
0.74327397 0.24808702 0.96093899
0.74327397 0.24808702 1.545939
-0.42172599 0.25308701 0.96093899
-0.42172599 0.25308701 1.545939
0.74327397 0.25308701 0.96093899
0.74327397 0.25308701 1.545939
-0.42172599 0.25808701 0.96093899
-0.42172599 0.25808701 1.545939
0.74327397 0.25808701 0.96093899
0.74327397 0.25808701 1.545939
-0.42172599 0.263087 0.96093899
-0.42172599 0.263087 1.545939
0.74327397 0.263087 0.96093899
0.74327397 0.263087 1.545939
-0.42172599 0.268087 0.96093899
-0.42172599 0.268087 1.545939
0.74327397 0.268087 0.96093899
0.74327397 0.268087 1.545939
-0.42172599 0.27308699 0.96093899
-0.42172599 0.27308699 1.545939
0.74327397 0.27308699 0.96093899
0.74327397 0.27308699 1.545939
-0.42172599 0.27808699 0.96093899
-0.42172599 0.27808699 1.545939
0.74327397 0.27808699 0.96093899
0.74327397 0.27808699 1.545939
-0.42172599 0.28308699 0.96093899
-0.42172599 0.28308699 1.545939
0.74327397 0.28308699 0.96093899
0.74327397 0.28308699 1.545939
-0.42172599 0.28808698 0.96093899
-0.42172599 0.28808698 1.545939
0.74327397 0.28808698 0.96093899
0.74327397 0.28808698 1.545939
-0.42172599 0.29308698 0.96093899
-0.42172599 0.29308698 1.545939
0.74327397 0.29308698 0.96093899
0.74327397 0.29308698 1.545939
-0.42172599 0.29808697 0.96093899
-0.42172599 0.29808697 1.545939
0.74327397 0.29808697 0.96093899
0.74327397 0.29808697 1.545939
-0.42172599 0.30308697 0.96093899
-0.42172599 0.30308697 1.545939
0.74327397 0.30308697 0.96093899
0.74327397 0.30308697 1.545939
-0.42172599 0.30808696 0.96093899
-0.42172599 0.30808696 1.545939
0.74327397 0.30808696 0.96093899
0.74327397 0.30808696 1.545939
-0.42172599 0.31308702 0.96093899
-0.42172599 0.31308702 1.545939
0.74327397 0.31308702 0.96093899
0.74327397 0.31308702 1.545939
-0.42172599 0.31808701 0.96093899
-0.42172599 0.31808701 1.545939
0.74327397 0.31808701 0.96093899
0.74327397 0.31808701 1.545939
-0.42172599 0.32308701 0.96093899
-0.42172599 0.32308701 1.545939
0.74327397 0.32308701 0.96093899
0.74327397 0.32308701 1.545939
-0.42172599 0.328087 0.96093899
-0.42172599 0.328087 1.545939
0.74327397 0.328087 0.96093899
0.74327397 0.328087 1.545939
-0.42172599 0.333087 0.96093899
-0.42172599 0.333087 1.545939
0.74327397 0.333087 0.96093899
0.74327397 0.333087 1.545939
-0.42172599 0.33808699 0.96093899
-0.42172599 0.33808699 1.545939
0.74327397 0.33808699 0.96093899
0.74327397 0.33808699 1.545939
-0.42172599 0.34308699 0.96093899
-0.42172599 0.34308699 1.545939
0.74327397 0.34308699 0.96093899
0.74327397 0.34308699 1.545939
-0.42172599 0.34808698 0.96093899
-0.42172599 0.34808698 1.545939
0.74327397 0.34808698 0.96093899
0.74327397 0.34808698 1.545939
-0.42172599 0.35308698 0.96093899
-0.42172599 0.35308698 1.545939
0.74327397 0.35308698 0.96093899
0.74327397 0.35308698 1.545939
-0.42172599 0.35808697 0.96093899
-0.42172599 0.35808697 1.545939
0.74327397 0.35808697 0.96093899
0.74327397 0.35808697 1.545939
-0.42172599 0.36308697 0.96093899
-0.42172599 0.36308697 1.545939
0.74327397 0.36308697 0.96093899
0.74327397 0.36308697 1.545939
-0.42172599 0.36808696 0.96093899
-0.42172599 0.36808696 1.545939
0.74327397 0.36808696 0.96093899
0.74327397 0.36808696 1.545939
-0.42172599 0.37308702 0.96093899
-0.42172599 0.37308702 1.545939
0.74327397 0.37308702 0.96093899
0.74327397 0.37308702 1.545939
-0.42172599 0.37808701 0.96093899
-0.42172599 0.37808701 1.545939
0.74327397 0.37808701 0.96093899
0.74327397 0.37808701 1.545939
-0.42172599 0.38308701 0.96093899
-0.42172599 0.38308701 1.545939
0.74327397 0.38308701 0.96093899
0.74327397 0.38308701 1.545939
-0.42172599 0.388087 0.96093899
-0.42172599 0.388087 1.545939
0.74327397 0.388087 0.96093899
0.74327397 0.388087 1.545939
-0.42172599 0.393087 0.96093899
-0.42172599 0.393087 1.545939
0.74327397 0.393087 0.96093899
0.74327397 0.393087 1.545939
-0.42172599 0.39808699 0.96093899
-0.42172599 0.39808699 1.545939
0.74327397 0.39808699 0.96093899
0.74327397 0.39808699 1.545939
-0.42172599 0.40308699 0.96093899
-0.42172599 0.40308699 1.545939
0.74327397 0.40308699 0.96093899
0.74327397 0.40308699 1.545939
-0.42172599 0.40808699 0.96093899
-0.42172599 0.40808699 1.545939
0.74327397 0.40808699 0.96093899
0.74327397 0.40808699 1.545939
-0.42172599 0.41308698 0.96093899
-0.42172599 0.41308698 1.545939
0.74327397 0.41308698 0.96093899
0.74327397 0.41308698 1.545939
-0.42172599 0.41808698 0.96093899
-0.42172599 0.41808698 1.545939
0.74327397 0.41808698 0.96093899
0.74327397 0.41808698 1.545939
-0.42172599 0.42308697 0.96093899
-0.42172599 0.42308697 1.545939
0.74327397 0.42308697 0.96093899
0.74327397 0.42308697 1.545939
-0.42172599 0.42808697 0.96093899
-0.42172599 0.42808697 1.545939
0.74327397 0.42808697 0.96093899
0.74327397 0.42808697 1.545939
-0.42172599 0.43308696 0.96093899
-0.42172599 0.43308696 1.545939
0.74327397 0.43308696 0.96093899
0.74327397 0.43308696 1.545939
-0.42172599 0.43808702 0.96093899
-0.42172599 0.43808702 1.545939
0.74327397 0.43808702 0.96093899
0.74327397 0.43808702 1.545939
-0.42172599 0.44308701 0.96093899
-0.42172599 0.44308701 1.545939
0.74327397 0.44308701 0.96093899
0.74327397 0.44308701 1.545939
-0.42172599 0.44808701 0.96093899
-0.42172599 0.44808701 1.545939
0.74327397 0.44808701 0.96093899
0.74327397 0.44808701 1.545939
-0.42172599 0.453087 0.96093899
-0.42172599 0.453087 1.545939
0.74327397 0.453087 0.96093899
0.74327397 0.453087 1.545939
-0.42172599 0.458087 0.96093899
-0.42172599 0.458087 1.545939
0.74327397 0.458087 0.96093899
0.74327397 0.458087 1.545939
-0.42172599 0.46308699 0.96093899
-0.42172599 0.46308699 1.545939
0.74327397 0.46308699 0.96093899
0.74327397 0.46308699 1.545939
-0.42172599 0.46808699 0.96093899
-0.42172599 0.46808699 1.545939
0.74327397 0.46808699 0.96093899
0.74327397 0.46808699 1.545939
-0.42172599 0.47308698 0.96093899
-0.42172599 0.47308698 1.545939
0.74327397 0.47308698 0.96093899
0.74327397 0.47308698 1.545939
-0.42172599 0.47808698 0.96093899
-0.42172599 0.47808698 1.545939
0.74327397 0.47808698 0.96093899
0.74327397 0.47808698 1.545939
-0.42172599 0.48308697 0.96093899
-0.42172599 0.48308697 1.545939
0.74327397 0.48308697 0.96093899
0.74327397 0.48308697 1.545939
-0.42172599 0.48808697 0.96093899
-0.42172599 0.48808697 1.545939
0.74327397 0.48808697 0.96093899
0.74327397 0.48808697 1.545939
-0.42172599 0.49308696 0.96093899
-0.42172599 0.49308696 1.545939
0.74327397 0.49308696 0.96093899
0.74327397 0.49308696 1.545939
-0.42172599 0.49808696 0.96093899
-0.42172599 0.49808696 1.545939
0.74327397 0.49808696 0.96093899
0.74327397 0.49808696 1.545939
-0.42172599 0.50308704 0.96093899
-0.42172599 0.50308704 1.545939
0.74327397 0.50308704 0.96093899
0.74327397 0.50308704 1.545939
-0.42172599 0.50808704 0.96093899
-0.42172599 0.50808704 1.545939
0.74327397 0.50808704 0.96093899
0.74327397 0.50808704 1.545939
-0.42172599 0.51308703 0.96093899
-0.42172599 0.51308703 1.545939
0.74327397 0.51308703 0.96093899
0.74327397 0.51308703 1.545939
-0.42172599 0.51808703 0.96093899
-0.42172599 0.51808703 1.545939
0.74327397 0.51808703 0.96093899
0.74327397 0.51808703 1.545939
-0.42172599 -0.49191299 0.96093899
-0.42172599 0.51808703 0.96093899
0.74327397 -0.49191299 0.96093899
0.74327397 0.51808703 0.96093899
-0.42172599 -0.49191299 0.96593899
-0.42172599 0.51808703 0.96593899
0.74327397 -0.49191299 0.96593899
0.74327397 0.51808703 0.96593899
-0.42172599 -0.49191299 0.97093898
-0.42172599 0.51808703 0.97093898
0.74327397 -0.49191299 0.97093898
0.74327397 0.51808703 0.97093898
-0.42172599 -0.49191299 0.97593898
-0.42172599 0.51808703 0.97593898
0.74327397 -0.49191299 0.97593898
0.74327397 0.51808703 0.97593898
-0.42172599 -0.49191299 0.98093897
-0.42172599 0.51808703 0.98093897
0.74327397 -0.49191299 0.98093897
0.74327397 0.51808703 0.98093897
-0.42172599 -0.49191299 0.98593897
-0.42172599 0.51808703 0.98593897
0.74327397 -0.49191299 0.98593897
0.74327397 0.51808703 0.98593897
-0.42172599 -0.49191299 0.99093896
-0.42172599 0.51808703 0.99093896
0.74327397 -0.49191299 0.99093896
0.74327397 0.51808703 0.99093896
-0.42172599 -0.49191299 0.99593902
-0.42172599 0.51808703 0.99593902
0.74327397 -0.49191299 0.99593902
0.74327397 0.51808703 0.99593902
-0.42172599 -0.49191299 1.000939
-0.42172599 0.51808703 1.000939
0.74327397 -0.49191299 1.000939
0.74327397 0.51808703 1.000939
-0.42172599 -0.49191299 1.005939
-0.42172599 0.51808703 1.005939
0.74327397 -0.49191299 1.005939
0.74327397 0.51808703 1.005939
-0.42172599 -0.49191299 1.010939
-0.42172599 0.51808703 1.010939
0.74327397 -0.49191299 1.010939
0.74327397 0.51808703 1.010939
-0.42172599 -0.49191299 1.015939
-0.42172599 0.51808703 1.015939
0.74327397 -0.49191299 1.015939
0.74327397 0.51808703 1.015939
-0.42172599 -0.49191299 1.020939
-0.42172599 0.51808703 1.020939
0.74327397 -0.49191299 1.020939
0.74327397 0.51808703 1.020939
-0.42172599 -0.49191299 1.025939
-0.42172599 0.51808703 1.025939
0.74327397 -0.49191299 1.025939
0.74327397 0.51808703 1.025939
-0.42172599 -0.49191299 1.030939
-0.42172599 0.51808703 1.030939
0.74327397 -0.49191299 1.030939
0.74327397 0.51808703 1.030939
-0.42172599 -0.49191299 1.035939
-0.42172599 0.51808703 1.035939
0.74327397 -0.49191299 1.035939
0.74327397 0.51808703 1.035939
-0.42172599 -0.49191299 1.040939
-0.42172599 0.51808703 1.040939
0.74327397 -0.49191299 1.040939
0.74327397 0.51808703 1.040939
-0.42172599 -0.49191299 1.045939
-0.42172599 0.51808703 1.045939
0.74327397 -0.49191299 1.045939
0.74327397 0.51808703 1.045939
-0.42172599 -0.49191299 1.050939
-0.42172599 0.51808703 1.050939
0.74327397 -0.49191299 1.050939
0.74327397 0.51808703 1.050939
-0.42172599 -0.49191299 1.055939
-0.42172599 0.51808703 1.055939
0.74327397 -0.49191299 1.055939
0.74327397 0.51808703 1.055939
-0.42172599 -0.49191299 1.060939
-0.42172599 0.51808703 1.060939
0.74327397 -0.49191299 1.060939
0.74327397 0.51808703 1.060939
-0.42172599 -0.49191299 1.0659389
-0.42172599 0.51808703 1.0659389
0.74327397 -0.49191299 1.0659389
0.74327397 0.51808703 1.0659389
-0.42172599 -0.49191299 1.0709389
-0.42172599 0.51808703 1.0709389
0.74327397 -0.49191299 1.0709389
0.74327397 0.51808703 1.0709389
-0.42172599 -0.49191299 1.0759389
-0.42172599 0.51808703 1.0759389
0.74327397 -0.49191299 1.0759389
0.74327397 0.51808703 1.0759389
-0.42172599 -0.49191299 1.0809389
-0.42172599 0.51808703 1.0809389
0.74327397 -0.49191299 1.0809389
0.74327397 0.51808703 1.0809389
-0.42172599 -0.49191299 1.0859389
-0.42172599 0.51808703 1.0859389
0.74327397 -0.49191299 1.0859389
0.74327397 0.51808703 1.0859389
-0.42172599 -0.49191299 1.090939
-0.42172599 0.51808703 1.090939
0.74327397 -0.49191299 1.090939
0.74327397 0.51808703 1.090939
-0.42172599 -0.49191299 1.0959389
-0.42172599 0.51808703 1.0959389
0.74327397 -0.49191299 1.0959389
0.74327397 0.51808703 1.0959389
-0.42172599 -0.49191299 1.100939
-0.42172599 0.51808703 1.100939
0.74327397 -0.49191299 1.100939
0.74327397 0.51808703 1.100939
-0.42172599 -0.49191299 1.105939
-0.42172599 0.51808703 1.105939
0.74327397 -0.49191299 1.105939
0.74327397 0.51808703 1.105939
-0.42172599 -0.49191299 1.110939
-0.42172599 0.51808703 1.110939
0.74327397 -0.49191299 1.110939
0.74327397 0.51808703 1.110939
-0.42172599 -0.49191299 1.115939
-0.42172599 0.51808703 1.115939
0.74327397 -0.49191299 1.115939
0.74327397 0.51808703 1.115939
-0.42172599 -0.49191299 1.120939
-0.42172599 0.51808703 1.120939
0.74327397 -0.49191299 1.120939
0.74327397 0.51808703 1.120939
-0.42172599 -0.49191299 1.125939
-0.42172599 0.51808703 1.125939
0.74327397 -0.49191299 1.125939
0.74327397 0.51808703 1.125939
-0.42172599 -0.49191299 1.130939
-0.42172599 0.51808703 1.130939
0.74327397 -0.49191299 1.130939
0.74327397 0.51808703 1.130939
-0.42172599 -0.49191299 1.135939
-0.42172599 0.51808703 1.135939
0.74327397 -0.49191299 1.135939
0.74327397 0.51808703 1.135939
-0.42172599 -0.49191299 1.140939
-0.42172599 0.51808703 1.140939
0.74327397 -0.49191299 1.140939
0.74327397 0.51808703 1.140939
-0.42172599 -0.49191299 1.145939
-0.42172599 0.51808703 1.145939
0.74327397 -0.49191299 1.145939
0.74327397 0.51808703 1.145939
-0.42172599 -0.49191299 1.150939
-0.42172599 0.51808703 1.150939
0.74327397 -0.49191299 1.150939
0.74327397 0.51808703 1.150939
-0.42172599 -0.49191299 1.155939
-0.42172599 0.51808703 1.155939
0.74327397 -0.49191299 1.155939
0.74327397 0.51808703 1.155939
-0.42172599 -0.49191299 1.160939
-0.42172599 0.51808703 1.160939
0.74327397 -0.49191299 1.160939
0.74327397 0.51808703 1.160939
-0.42172599 -0.49191299 1.165939
-0.42172599 0.51808703 1.165939
0.74327397 -0.49191299 1.165939
0.74327397 0.51808703 1.165939
-0.42172599 -0.49191299 1.170939
-0.42172599 0.51808703 1.170939
0.74327397 -0.49191299 1.170939
0.74327397 0.51808703 1.170939
-0.42172599 -0.49191299 1.175939
-0.42172599 0.51808703 1.175939
0.74327397 -0.49191299 1.175939
0.74327397 0.51808703 1.175939
-0.42172599 -0.49191299 1.180939
-0.42172599 0.51808703 1.180939
0.74327397 -0.49191299 1.180939
0.74327397 0.51808703 1.180939
-0.42172599 -0.49191299 1.185939
-0.42172599 0.51808703 1.185939
0.74327397 -0.49191299 1.185939
0.74327397 0.51808703 1.185939
-0.42172599 -0.49191299 1.1909389
-0.42172599 0.51808703 1.1909389
0.74327397 -0.49191299 1.1909389
0.74327397 0.51808703 1.1909389
-0.42172599 -0.49191299 1.1959389
-0.42172599 0.51808703 1.1959389
0.74327397 -0.49191299 1.1959389
0.74327397 0.51808703 1.1959389
-0.42172599 -0.49191299 1.2009389
-0.42172599 0.51808703 1.2009389
0.74327397 -0.49191299 1.2009389
0.74327397 0.51808703 1.2009389
-0.42172599 -0.49191299 1.2059389
-0.42172599 0.51808703 1.2059389
0.74327397 -0.49191299 1.2059389
0.74327397 0.51808703 1.2059389
-0.42172599 -0.49191299 1.2109389
-0.42172599 0.51808703 1.2109389
0.74327397 -0.49191299 1.2109389
0.74327397 0.51808703 1.2109389
-0.42172599 -0.49191299 1.215939
-0.42172599 0.51808703 1.215939
0.74327397 -0.49191299 1.215939
0.74327397 0.51808703 1.215939
-0.42172599 -0.49191299 1.2209389
-0.42172599 0.51808703 1.2209389
0.74327397 -0.49191299 1.2209389
0.74327397 0.51808703 1.2209389
-0.42172599 -0.49191299 1.225939
-0.42172599 0.51808703 1.225939
0.74327397 -0.49191299 1.225939
0.74327397 0.51808703 1.225939
-0.42172599 -0.49191299 1.2309389
-0.42172599 0.51808703 1.2309389
0.74327397 -0.49191299 1.2309389
0.74327397 0.51808703 1.2309389
-0.42172599 -0.49191299 1.235939
-0.42172599 0.51808703 1.235939
0.74327397 -0.49191299 1.235939
0.74327397 0.51808703 1.235939
-0.42172599 -0.49191299 1.240939
-0.42172599 0.51808703 1.240939
0.74327397 -0.49191299 1.240939
0.74327397 0.51808703 1.240939
-0.42172599 -0.49191299 1.245939
-0.42172599 0.51808703 1.245939
0.74327397 -0.49191299 1.245939
0.74327397 0.51808703 1.245939
-0.42172599 -0.49191299 1.250939
-0.42172599 0.51808703 1.250939
0.74327397 -0.49191299 1.250939
0.74327397 0.51808703 1.250939
-0.42172599 -0.49191299 1.255939
-0.42172599 0.51808703 1.255939
0.74327397 -0.49191299 1.255939
0.74327397 0.51808703 1.255939
-0.42172599 -0.49191299 1.260939
-0.42172599 0.51808703 1.260939
0.74327397 -0.49191299 1.260939
0.74327397 0.51808703 1.260939
-0.42172599 -0.49191299 1.265939
-0.42172599 0.51808703 1.265939
0.74327397 -0.49191299 1.265939
0.74327397 0.51808703 1.265939
-0.42172599 -0.49191299 1.270939
-0.42172599 0.51808703 1.270939
0.74327397 -0.49191299 1.270939
0.74327397 0.51808703 1.270939
-0.42172599 -0.49191299 1.275939
-0.42172599 0.51808703 1.275939
0.74327397 -0.49191299 1.275939
0.74327397 0.51808703 1.275939
-0.42172599 -0.49191299 1.280939
-0.42172599 0.51808703 1.280939
0.74327397 -0.49191299 1.280939
0.74327397 0.51808703 1.280939
-0.42172599 -0.49191299 1.285939
-0.42172599 0.51808703 1.285939
0.74327397 -0.49191299 1.285939
0.74327397 0.51808703 1.285939
-0.42172599 -0.49191299 1.290939
-0.42172599 0.51808703 1.290939
0.74327397 -0.49191299 1.290939
0.74327397 0.51808703 1.290939
-0.42172599 -0.49191299 1.295939
-0.42172599 0.51808703 1.295939
0.74327397 -0.49191299 1.295939
0.74327397 0.51808703 1.295939
-0.42172599 -0.49191299 1.300939
-0.42172599 0.51808703 1.300939
0.74327397 -0.49191299 1.300939
0.74327397 0.51808703 1.300939
-0.42172599 -0.49191299 1.305939
-0.42172599 0.51808703 1.305939
0.74327397 -0.49191299 1.305939
0.74327397 0.51808703 1.305939
-0.42172599 -0.49191299 1.310939
-0.42172599 0.51808703 1.310939
0.74327397 -0.49191299 1.310939
0.74327397 0.51808703 1.310939
-0.42172599 -0.49191299 1.3159389
-0.42172599 0.51808703 1.3159389
0.74327397 -0.49191299 1.3159389
0.74327397 0.51808703 1.3159389
-0.42172599 -0.49191299 1.3209389
-0.42172599 0.51808703 1.3209389
0.74327397 -0.49191299 1.3209389
0.74327397 0.51808703 1.3209389
-0.42172599 -0.49191299 1.3259389
-0.42172599 0.51808703 1.3259389
0.74327397 -0.49191299 1.3259389
0.74327397 0.51808703 1.3259389
-0.42172599 -0.49191299 1.3309391
-0.42172599 0.51808703 1.3309391
0.74327397 -0.49191299 1.3309391
0.74327397 0.51808703 1.3309391
-0.42172599 -0.49191299 1.3359389
-0.42172599 0.51808703 1.3359389
0.74327397 -0.49191299 1.3359389
0.74327397 0.51808703 1.3359389
-0.42172599 -0.49191299 1.340939
-0.42172599 0.51808703 1.340939
0.74327397 -0.49191299 1.340939
0.74327397 0.51808703 1.340939
-0.42172599 -0.49191299 1.3459389
-0.42172599 0.51808703 1.3459389
0.74327397 -0.49191299 1.3459389
0.74327397 0.51808703 1.3459389
-0.42172599 -0.49191299 1.350939
-0.42172599 0.51808703 1.350939
0.74327397 -0.49191299 1.350939
0.74327397 0.51808703 1.350939
-0.42172599 -0.49191299 1.3559389
-0.42172599 0.51808703 1.3559389
0.74327397 -0.49191299 1.3559389
0.74327397 0.51808703 1.3559389
-0.42172599 -0.49191299 1.360939
-0.42172599 0.51808703 1.360939
0.74327397 -0.49191299 1.360939
0.74327397 0.51808703 1.360939
-0.42172599 -0.49191299 1.365939
-0.42172599 0.51808703 1.365939
0.74327397 -0.49191299 1.365939
0.74327397 0.51808703 1.365939
-0.42172599 -0.49191299 1.370939
-0.42172599 0.51808703 1.370939
0.74327397 -0.49191299 1.370939
0.74327397 0.51808703 1.370939
-0.42172599 -0.49191299 1.375939
-0.42172599 0.51808703 1.375939
0.74327397 -0.49191299 1.375939
0.74327397 0.51808703 1.375939
-0.42172599 -0.49191299 1.380939
-0.42172599 0.51808703 1.380939
0.74327397 -0.49191299 1.380939
0.74327397 0.51808703 1.380939
-0.42172599 -0.49191299 1.385939
-0.42172599 0.51808703 1.385939
0.74327397 -0.49191299 1.385939
0.74327397 0.51808703 1.385939
-0.42172599 -0.49191299 1.390939
-0.42172599 0.51808703 1.390939
0.74327397 -0.49191299 1.390939
0.74327397 0.51808703 1.390939
-0.42172599 -0.49191299 1.395939
-0.42172599 0.51808703 1.395939
0.74327397 -0.49191299 1.395939
0.74327397 0.51808703 1.395939
-0.42172599 -0.49191299 1.400939
-0.42172599 0.51808703 1.400939
0.74327397 -0.49191299 1.400939
0.74327397 0.51808703 1.400939
-0.42172599 -0.49191299 1.405939
-0.42172599 0.51808703 1.405939
0.74327397 -0.49191299 1.405939
0.74327397 0.51808703 1.405939
-0.42172599 -0.49191299 1.410939
-0.42172599 0.51808703 1.410939
0.74327397 -0.49191299 1.410939
0.74327397 0.51808703 1.410939
-0.42172599 -0.49191299 1.415939
-0.42172599 0.51808703 1.415939
0.74327397 -0.49191299 1.415939
0.74327397 0.51808703 1.415939
-0.42172599 -0.49191299 1.420939
-0.42172599 0.51808703 1.420939
0.74327397 -0.49191299 1.420939
0.74327397 0.51808703 1.420939
-0.42172599 -0.49191299 1.425939
-0.42172599 0.51808703 1.425939
0.74327397 -0.49191299 1.425939
0.74327397 0.51808703 1.425939
-0.42172599 -0.49191299 1.430939
-0.42172599 0.51808703 1.430939
0.74327397 -0.49191299 1.430939
0.74327397 0.51808703 1.430939
-0.42172599 -0.49191299 1.435939
-0.42172599 0.51808703 1.435939
0.74327397 -0.49191299 1.435939
0.74327397 0.51808703 1.435939
-0.42172599 -0.49191299 1.4409389
-0.42172599 0.51808703 1.4409389
0.74327397 -0.49191299 1.4409389
0.74327397 0.51808703 1.4409389
-0.42172599 -0.49191299 1.4459389
-0.42172599 0.51808703 1.4459389
0.74327397 -0.49191299 1.4459389
0.74327397 0.51808703 1.4459389
-0.42172599 -0.49191299 1.4509389
-0.42172599 0.51808703 1.4509389
0.74327397 -0.49191299 1.4509389
0.74327397 0.51808703 1.4509389
-0.42172599 -0.49191299 1.4559389
-0.42172599 0.51808703 1.4559389
0.74327397 -0.49191299 1.4559389
0.74327397 0.51808703 1.4559389
-0.42172599 -0.49191299 1.4609389
-0.42172599 0.51808703 1.4609389
0.74327397 -0.49191299 1.4609389
0.74327397 0.51808703 1.4609389
-0.42172599 -0.49191299 1.465939
-0.42172599 0.51808703 1.465939
0.74327397 -0.49191299 1.465939
0.74327397 0.51808703 1.465939
-0.42172599 -0.49191299 1.4709389
-0.42172599 0.51808703 1.4709389
0.74327397 -0.49191299 1.4709389
0.74327397 0.51808703 1.4709389
-0.42172599 -0.49191299 1.475939
-0.42172599 0.51808703 1.475939
0.74327397 -0.49191299 1.475939
0.74327397 0.51808703 1.475939
-0.42172599 -0.49191299 1.4809389
-0.42172599 0.51808703 1.4809389
0.74327397 -0.49191299 1.4809389
0.74327397 0.51808703 1.4809389
-0.42172599 -0.49191299 1.485939
-0.42172599 0.51808703 1.485939
0.74327397 -0.49191299 1.485939
0.74327397 0.51808703 1.485939
-0.42172599 -0.49191299 1.4909389
-0.42172599 0.51808703 1.4909389
0.74327397 -0.49191299 1.4909389
0.74327397 0.51808703 1.4909389
-0.42172599 -0.49191299 1.495939
-0.42172599 0.51808703 1.495939
0.74327397 -0.49191299 1.495939
0.74327397 0.51808703 1.495939
-0.42172599 -0.49191299 1.5009389
-0.42172599 0.51808703 1.5009389
0.74327397 -0.49191299 1.5009389
0.74327397 0.51808703 1.5009389
-0.42172599 -0.49191299 1.505939
-0.42172599 0.51808703 1.505939
0.74327397 -0.49191299 1.505939
0.74327397 0.51808703 1.505939
-0.42172599 -0.49191299 1.510939
-0.42172599 0.51808703 1.510939
0.74327397 -0.49191299 1.510939
0.74327397 0.51808703 1.510939
-0.42172599 -0.49191299 1.515939
-0.42172599 0.51808703 1.515939
0.74327397 -0.49191299 1.515939
0.74327397 0.51808703 1.515939
-0.42172599 -0.49191299 1.520939
-0.42172599 0.51808703 1.520939
0.74327397 -0.49191299 1.520939
0.74327397 0.51808703 1.520939
-0.42172599 -0.49191299 1.525939
-0.42172599 0.51808703 1.525939
0.74327397 -0.49191299 1.525939
0.74327397 0.51808703 1.525939
-0.42172599 -0.49191299 1.530939
-0.42172599 0.51808703 1.530939
0.74327397 -0.49191299 1.530939
0.74327397 0.51808703 1.530939
-0.42172599 -0.49191299 1.535939
-0.42172599 0.51808703 1.535939
0.74327397 -0.49191299 1.535939
0.74327397 0.51808703 1.535939
-0.42172599 -0.49191299 1.540939
-0.42172599 0.51808703 1.540939
0.74327397 -0.49191299 1.540939
0.74327397 0.51808703 1.540939
-0.42172599 -0.49191299 1.545939
-0.42172599 0.51808703 1.545939
0.74327397 -0.49191299 1.545939
0.74327397 0.51808703 1.545939
-0.42172599 -0.49191299 0.96093899
-0.42172599 0.51808703 0.96093899
-0.42172599 -0.49191299 1.545939
-0.42172599 0.51808703 1.545939
-0.41672599 -0.49191299 0.96093899
-0.41672599 0.51808703 0.96093899
-0.41672599 -0.49191299 1.545939
-0.41672599 0.51808703 1.545939
-0.411726 -0.49191299 0.96093899
-0.411726 0.51808703 0.96093899
-0.411726 -0.49191299 1.545939
-0.411726 0.51808703 1.545939
-0.406726 -0.49191299 0.96093899
-0.406726 0.51808703 0.96093899
-0.406726 -0.49191299 1.545939
-0.406726 0.51808703 1.545939
-0.40172598 -0.49191299 0.96093899
-0.40172598 0.51808703 0.96093899
-0.40172598 -0.49191299 1.545939
-0.40172598 0.51808703 1.545939
-0.39672598 -0.49191299 0.96093899
-0.39672598 0.51808703 0.96093899
-0.39672598 -0.49191299 1.545939
-0.39672598 0.51808703 1.545939
-0.39172599 -0.49191299 0.96093899
-0.39172599 0.51808703 0.96093899
-0.39172599 -0.49191299 1.545939
-0.39172599 0.51808703 1.545939
-0.38672599 -0.49191299 0.96093899
-0.38672599 0.51808703 0.96093899
-0.38672599 -0.49191299 1.545939
-0.38672599 0.51808703 1.545939
-0.381726 -0.49191299 0.96093899
-0.381726 0.51808703 0.96093899
-0.381726 -0.49191299 1.545939
-0.381726 0.51808703 1.545939
-0.376726 -0.49191299 0.96093899
-0.376726 0.51808703 0.96093899
-0.376726 -0.49191299 1.545939
-0.376726 0.51808703 1.545939
-0.37172598 -0.49191299 0.96093899
-0.37172598 0.51808703 0.96093899
-0.37172598 -0.49191299 1.545939
-0.37172598 0.51808703 1.545939
-0.36672598 -0.49191299 0.96093899
-0.36672598 0.51808703 0.96093899
-0.36672598 -0.49191299 1.545939
-0.36672598 0.51808703 1.545939
-0.36172599 -0.49191299 0.96093899
-0.36172599 0.51808703 0.96093899
-0.36172599 -0.49191299 1.545939
-0.36172599 0.51808703 1.545939
-0.35672599 -0.49191299 0.96093899
-0.35672599 0.51808703 0.96093899
-0.35672599 -0.49191299 1.545939
-0.35672599 0.51808703 1.545939
-0.351726 -0.49191299 0.96093899
-0.351726 0.51808703 0.96093899
-0.351726 -0.49191299 1.545939
-0.351726 0.51808703 1.545939
-0.346726 -0.49191299 0.96093899
-0.346726 0.51808703 0.96093899
-0.346726 -0.49191299 1.545939
-0.346726 0.51808703 1.545939
-0.34172601 -0.49191299 0.96093899
-0.34172601 0.51808703 0.96093899
-0.34172601 -0.49191299 1.545939
-0.34172601 0.51808703 1.545939
-0.33672598 -0.49191299 0.96093899
-0.33672598 0.51808703 0.96093899
-0.33672598 -0.49191299 1.545939
-0.33672598 0.51808703 1.545939
-0.33172598 -0.49191299 0.96093899
-0.33172598 0.51808703 0.96093899
-0.33172598 -0.49191299 1.545939
-0.33172598 0.51808703 1.545939
-0.32672599 -0.49191299 0.96093899
-0.32672599 0.51808703 0.96093899
-0.32672599 -0.49191299 1.545939
-0.32672599 0.51808703 1.545939
-0.32172599 -0.49191299 0.96093899
-0.32172599 0.51808703 0.96093899
-0.32172599 -0.49191299 1.545939
-0.32172599 0.51808703 1.545939
-0.316726 -0.49191299 0.96093899
-0.316726 0.51808703 0.96093899
-0.316726 -0.49191299 1.545939
-0.316726 0.51808703 1.545939
-0.31172597 -0.49191299 0.96093899
-0.31172597 0.51808703 0.96093899
-0.31172597 -0.49191299 1.545939
-0.31172597 0.51808703 1.545939
-0.30672598 -0.49191299 0.96093899
-0.30672598 0.51808703 0.96093899
-0.30672598 -0.49191299 1.545939
-0.30672598 0.51808703 1.545939
-0.30172598 -0.49191299 0.96093899
-0.30172598 0.51808703 0.96093899
-0.30172598 -0.49191299 1.545939
-0.30172598 0.51808703 1.545939
-0.29672599 -0.49191299 0.96093899
-0.29672599 0.51808703 0.96093899
-0.29672599 -0.49191299 1.545939
-0.29672599 0.51808703 1.545939
-0.29172599 -0.49191299 0.96093899
-0.29172599 0.51808703 0.96093899
-0.29172599 -0.49191299 1.545939
-0.29172599 0.51808703 1.545939
-0.286726 -0.49191299 0.96093899
-0.286726 0.51808703 0.96093899
-0.286726 -0.49191299 1.545939
-0.286726 0.51808703 1.545939
-0.281726 -0.49191299 0.96093899
-0.281726 0.51808703 0.96093899
-0.281726 -0.49191299 1.545939
-0.281726 0.51808703 1.545939
-0.27672601 -0.49191299 0.96093899
-0.27672601 0.51808703 0.96093899
-0.27672601 -0.49191299 1.545939
-0.27672601 0.51808703 1.545939
-0.27172601 -0.49191299 0.96093899
-0.27172601 0.51808703 0.96093899
-0.27172601 -0.49191299 1.545939
-0.27172601 0.51808703 1.545939
-0.26672599 -0.49191299 0.96093899
-0.26672599 0.51808703 0.96093899
-0.26672599 -0.49191299 1.545939
-0.26672599 0.51808703 1.545939
-0.26172599 -0.49191299 0.96093899
-0.26172599 0.51808703 0.96093899
-0.26172599 -0.49191299 1.545939
-0.26172599 0.51808703 1.545939
-0.256726 -0.49191299 0.96093899
-0.256726 0.51808703 0.96093899
-0.256726 -0.49191299 1.545939
-0.256726 0.51808703 1.545939
-0.25172597 -0.49191299 0.96093899
-0.25172597 0.51808703 0.96093899
-0.25172597 -0.49191299 1.545939
-0.25172597 0.51808703 1.545939
-0.24672599 -0.49191299 0.96093899
-0.24672599 0.51808703 0.96093899
-0.24672599 -0.49191299 1.545939
-0.24672599 0.51808703 1.545939
-0.241726 -0.49191299 0.96093899
-0.241726 0.51808703 0.96093899
-0.241726 -0.49191299 1.545939
-0.241726 0.51808703 1.545939
-0.23672599 -0.49191299 0.96093899
-0.23672599 0.51808703 0.96093899
-0.23672599 -0.49191299 1.545939
-0.23672599 0.51808703 1.545939
-0.23172599 -0.49191299 0.96093899
-0.23172599 0.51808703 0.96093899
-0.23172599 -0.49191299 1.545939
-0.23172599 0.51808703 1.545939
-0.226726 -0.49191299 0.96093899
-0.226726 0.51808703 0.96093899
-0.226726 -0.49191299 1.545939
-0.226726 0.51808703 1.545939
-0.221726 -0.49191299 0.96093899
-0.221726 0.51808703 0.96093899
-0.221726 -0.49191299 1.545939
-0.221726 0.51808703 1.545939
-0.21672599 -0.49191299 0.96093899
-0.21672599 0.51808703 0.96093899
-0.21672599 -0.49191299 1.545939
-0.21672599 0.51808703 1.545939
-0.21172599 -0.49191299 0.96093899
-0.21172599 0.51808703 0.96093899
-0.21172599 -0.49191299 1.545939
-0.21172599 0.51808703 1.545939
-0.206726 -0.49191299 0.96093899
-0.206726 0.51808703 0.96093899
-0.206726 -0.49191299 1.545939
-0.206726 0.51808703 1.545939
-0.20172599 -0.49191299 0.96093899
-0.20172599 0.51808703 0.96093899
-0.20172599 -0.49191299 1.545939
-0.20172599 0.51808703 1.545939
-0.19672599 -0.49191299 0.96093899
-0.19672599 0.51808703 0.96093899
-0.19672599 -0.49191299 1.545939
-0.19672599 0.51808703 1.545939
-0.191726 -0.49191299 0.96093899
-0.191726 0.51808703 0.96093899
-0.191726 -0.49191299 1.545939
-0.191726 0.51808703 1.545939
-0.18672599 -0.49191299 0.96093899
-0.18672599 0.51808703 0.96093899
-0.18672599 -0.49191299 1.545939
-0.18672599 0.51808703 1.545939
-0.18172599 -0.49191299 0.96093899
-0.18172599 0.51808703 0.96093899
-0.18172599 -0.49191299 1.545939
-0.18172599 0.51808703 1.545939
-0.176726 -0.49191299 0.96093899
-0.176726 0.51808703 0.96093899
-0.176726 -0.49191299 1.545939
-0.176726 0.51808703 1.545939
-0.17172599 -0.49191299 0.96093899
-0.17172599 0.51808703 0.96093899
-0.17172599 -0.49191299 1.545939
-0.17172599 0.51808703 1.545939
-0.16672599 -0.49191299 0.96093899
-0.16672599 0.51808703 0.96093899
-0.16672599 -0.49191299 1.545939
-0.16672599 0.51808703 1.545939
