ply
format ascii 1.0
comment PCL generated
element vertex 1592
property float x
property float y
property float z
element camera 0
property float view_px
property float view_py
property float view_pz
property float x_axisx
property float x_axisy
property float x_axisz
property float y_axisx
property float y_axisy
property float y_axisz
property float z_axisx
property float z_axisy
property float z_axisz
property float focal
property float scalex
property float scaley
property float centerx
property float centery
property int viewportx
property int viewporty
property float k1
property float k2
end_header
-0.072671898 0.46434399 1.23053
-0.46648601 0.451902 1.51933
0.064815499 0.50745302 1.23771
-0.389144 0.42090899 1.36709
-0.41052401 0.42603299 1.3790801
-0.033475801 0.48771 1.23324
-0.42805901 0.43213499 1.37924
-0.17736299 0.462286 1.23603
-0.092565998 0.49116501 1.2247699
-0.48245701 0.46798599 1.47517
-0.44059899 0.43553701 1.3413301
-0.34292299 0.438519 1.2732
-0.0126249 0.521047 1.2345901
0.14501899 0.57114702 1.23751
-0.48388299 0.495271 1.53728
-0.256854 0.470707 1.21483
-0.17572699 0.51170099 1.23657
-0.51203197 0.50393301 1.48469
-0.384978 0.44983599 1.24833
-0.35929 0.464874 1.24231
-0.54612899 0.48485801 1.43233
-0.40890101 0.47803 1.3020999
0.00612257 0.57376301 1.22136
-0.431802 0.506805 1.37111
-0.397971 0.47670001 1.2658401
-0.46778801 0.51090801 1.3868999
-0.37995899 0.51691902 1.2460001
-0.228523 0.57820302 1.20541
-0.45012999 0.54459298 1.29693
-0.45082301 0.55089498 1.27671
-0.285014 0.578798 1.21584
-0.26248899 0.583745 1.20778
-0.33227599 0.58118999 1.21126
-0.36939701 0.578982 1.19807
-0.239953 -0.27919301 1.31911
0.086987004 0.0116285 1.24008
-0.196766 -0.0102608 1.1465
-0.36408001 0.252018 1.6871901
-0.272991 0.26803601 1.52921
0.0156797 0.313613 1.3101
0.0886117 0.370812 1.29566
-0.066180602 0.36009201 1.28553
-0.31499299 0.333841 1.39942
-0.209326 0.34772599 1.30756
-0.0801038 0.37860101 1.28013
0.036001399 0.41422901 1.279
-0.573825 0.37472999 1.71139
-0.397174 0.360672 1.45973
-0.34884399 0.36895499 1.42978
-0.31323799 0.359487 1.36699
0.018988401 0.43037799 1.26601
-0.384648 0.381937 1.43677
-0.378658 0.39535201 1.41528
-0.109587 0.430213 1.2709
0.0081190104 0.46154699 1.23812
-0.283106 0.405579 1.30748
-0.403963 0.407958 1.41546
-0.112359 0.454081 1.245
-0.43446901 0.424851 1.41153
-0.236883 0.46366599 1.23408
-0.47758001 0.493462 1.43472
-0.40311599 0.44674999 1.25137
-0.48699099 0.51594698 1.39035
-0.32062399 0.51207203 1.20681
-0.41532201 0.52564597 1.24511
-0.165315 0.60002702 1.16868
-0.202023 -0.121715 1.38486
0.098217003 0.068760499 1.2554801
0.123887 0.27645999 1.30962
0.030700499 0.28455299 1.32031
-0.31751099 0.32120499 1.45453
-0.089000799 0.37595701 1.31446
-0.205458 0.35857499 1.2937
-0.41026399 0.37996301 1.45613
-0.0371789 0.41662201 1.25977
-0.33247599 0.38770401 1.37185
0.062246799 0.477391 1.19794
-0.357122 0.431927 1.34013
-0.38318601 0.448026 1.28109
-0.171839 -0.28498101 1.32485
-0.19430199 -0.19365101 1.35203
0.094271198 -0.111412 1.19954
-0.19644199 -0.0854932 1.1159199
-0.26100901 0.024672899 1.5424401
-0.34448701 0.267719 1.7441601
0.26169801 0.35629401 1.34446
-0.31895599 0.27599499 1.5505199
-0.45844001 0.32084 1.8142999
-0.52326798 0.317976 1.84343
-0.0124521 0.343564 1.28114
-0.27092299 0.325353 1.3753
-0.40453601 0.32033199 1.47667
-0.0632976 0.36000299 1.28698
0.121226 0.41993201 1.2704901
-0.48638999 0.37761801 1.67548
-0.34782299 0.36952299 1.4308
0.175724 0.457941 1.25677
0.130426 0.47597 1.26828
-0.087843701 0.43411699 1.26486
0.0146969 0.46945801 1.2453001
-0.36234999 0.41347 1.37964
-0.171646 0.431483 1.2575099
-0.113445 0.454054 1.24428
-0.43244401 0.418625 1.3995
-0.39586601 0.42346501 1.36283
0.088053197 0.55547899 1.24933
-0.23707899 0.46191201 1.23097
-0.41564199 0.44931599 1.3435301
-0.33640099 0.45157799 1.27027
-0.21662199 0.47319001 1.22491
-0.077733599 0.51779097 1.22562
0.034317002 0.56142801 1.24266
-0.399551 0.44923401 1.25253
-0.222074 0.503245 1.24213
-0.39774501 0.484846 1.2572401
-0.25313699 -0.019266499 1.54467
0.038290299 0.12894399 1.29685
0.113688 0.318894 1.31287
-0.24251901 0.34274301 1.3401999
-0.26190799 0.38037401 1.31566
-0.22394399 0.39365101 1.29725
-0.165566 0.403797 1.27027
-0.32641301 0.412992 1.36017
-0.16808701 0.435435 1.25877
-0.45646799 0.458581 1.48595
-0.13018399 0.46781299 1.22215
-0.202684 0.47408599 1.2412601
-0.084300198 0.52285701 1.24063
-0.31368801 0.44671401 1.2183501
-0.44329199 0.47556201 1.38006
-0.144458 0.50924498 1.22026
-0.222746 0.115027 1.51431
0.115454 0.31507501 1.3167599
-0.304912 0.42936 1.3227
-0.26408499 0.480995 1.2211601
-0.25409201 -0.034308702 1.5503401
-0.231364 0.0170817 1.55439
-0.0031818501 0.30109701 1.31337
-0.368233 0.30044699 1.52303
-0.245452 0.33818999 1.33926
-0.253759 0.383113 1.31463
-0.322575 0.41515201 1.35821
-0.184944 -0.30093101 1.32452
0.120864 -0.22313701 1.09519
-0.23755901 -0.295463 1.30636
0.118692 -0.196437 1.1135
0.113708 -0.184645 1.11937
-0.20740201 -0.207166 1.06208
-0.154992 -0.175832 1.25046
-0.21085501 -0.186665 1.36026
-0.192035 -0.158776 1.06709
-0.22398899 -0.18086401 1.36417
-0.202407 -0.158823 1.0756201
-0.213091 -0.172253 1.36809
-0.171905 -0.15236899 1.3221999
-0.227468 -0.135065 1.38781
-0.176476 -0.098575696 1.2869
-0.18106399 -0.099354401 1.26443
-0.18396001 -0.075169101 1.12287
-0.191801 -0.075727098 1.38506
-0.224058 -0.0677642 1.41241
-0.227369 -0.057284899 1.4536099
-0.19467901 -0.0239732 1.14125
-0.18560299 -0.010583 1.19011
-0.1865 -0.00023488401 1.4196301
-0.205008 -0.00284258 1.16013
-0.20085999 0.023089301 1.1640199
-0.21042299 0.029167101 1.21918
-0.20513301 0.0305721 1.1804301
-0.19979399 0.0466488 1.1946599
-0.197404 0.069807798 1.45925
-0.18258899 0.077073202 1.4124399
-0.17918301 0.098560199 1.46216
-0.181409 0.129397 1.45293
-0.19389801 0.107563 1.19265
-0.219071 0.13131399 1.48422
-0.21158101 0.144189 1.4966201
-0.19304299 0.13740499 1.33898
-0.204414 0.121682 1.21024
-0.208235 0.13594 1.21667
-0.21469501 0.141708 1.22963
-0.264303 0.195829 1.73956
-0.25812399 0.179735 1.53873
-0.181924 0.193361 1.46128
-0.20607799 0.164257 1.22911
-0.200414 0.185794 1.27824
-0.20441601 0.193151 1.23915
-0.22717901 0.215441 1.4222
0.087734103 0.30356699 1.32749
-0.236875 0.21726499 1.45099
0.27118301 0.369607 1.32683
0.039726101 0.30541399 1.3253
-0.239196 0.236074 1.43104
-0.215783 0.238617 1.40381
0.13637599 0.34145299 1.30636
-0.31781 0.245313 1.65162
-0.31356001 0.26257199 1.5856
-0.29992899 0.261709 1.5511
-0.29242799 0.26619801 1.51873
-0.113475 0.296491 1.29843
-0.317399 0.284428 1.53582
-0.230331 0.287992 1.38027
-0.38685399 0.28224799 1.58123
-0.027322801 0.35620701 1.29089
-0.202787 0.312388 1.31514
-0.22591899 0.31461701 1.37524
-0.383751 0.298233 1.5580601
-0.0200927 0.37304199 1.277
-0.335394 0.31823599 1.48523
-0.395585 0.30805099 1.54287
-0.238711 0.328711 1.35646
-0.20221201 0.33145401 1.30804
-0.407974 0.36060199 1.73874
-0.399685 0.31383201 1.50063
-0.316569 0.34605101 1.46545
-0.208258 0.35213399 1.30987
-0.38971999 0.325894 1.49288
-0.327315 0.346214 1.40407
-0.40457201 0.34247401 1.50243
-0.273516 0.35701701 1.33584
-0.44640401 0.33822 1.49025
-0.159569 0.40426499 1.26354
-0.43543601 0.357638 1.4702801
-0.35601699 0.37938201 1.40877
-0.28978199 0.392295 1.33202
-0.345148 0.39168999 1.39724
-0.32660401 0.38749501 1.36019
-0.27590999 0.397558 1.30748
-0.54378998 0.40019399 1.67812
-0.249515 0.424505 1.2876
-0.35848999 0.40704399 1.37608
-0.42568099 0.40165401 1.43731
-0.36856401 0.407556 1.3794
-0.46338001 0.402183 1.46937
-0.39936799 0.41154999 1.4017
-0.437325 0.406165 1.42317
-0.46400401 0.428482 1.48454
-0.39247599 0.428581 1.3516099
-0.455899 0.43292099 1.43897
-0.36102101 0.44452801 1.3307
-0.52653599 0.44455299 1.54491
-0.40925401 0.43884999 1.36036
-0.45712 0.44937199 1.44477
-0.414929 0.44628099 1.34993
-0.40304601 0.44808301 1.34198
-0.401353 0.45488799 1.29871
-0.40731001 0.473836 1.3423001
-0.44120201 0.50612003 1.43409
-0.43720299 0.51308298 1.35212
-0.37718499 0.50643897 1.25003
-0.42408499 0.51827198 1.3432
-0.58623397 0.486882 1.42779
-0.44734299 0.53597802 1.31743
-0.45125601 0.51987398 1.27305
-0.163467 -0.161129 1.31296
-0.188164 -0.095251903 1.38881
-0.18151601 0.0089442497 1.43343
-0.183126 0.13288601 1.49357
-0.205222 0.19228201 1.4951
-0.261365 0.20980801 1.5541101
0.104576 0.36295599 1.29039
-0.384096 0.28450099 1.69496
-0.33351201 0.30503801 1.51092
-0.204577 0.31186101 1.30031
-0.219707 0.320279 1.32546
-0.172355 0.329402 1.32006
-0.378061 0.315442 1.5105799
-0.27161199 0.32603499 1.36663
0.21532001 0.49264199 1.23131
-0.52815598 0.342051 1.65777
-0.0055397502 0.46698499 1.26115
-0.444233 0.36921999 1.48506
-0.33736199 0.41170701 1.36431
-0.529944 0.417564 1.6205601
-0.32370901 0.43205899 1.3279099
-0.31749901 0.42687401 1.23272
-0.483473 0.42816699 1.4256901
-0.558478 0.43698001 1.55002
-0.38145399 0.432704 1.27967
-0.386785 0.453486 1.31814
-0.417772 0.453765 1.3427401
-0.462908 0.48794401 1.39596
-0.409509 0.502958 1.32928
-0.444767 0.52171499 1.3649
-0.38514 0.503178 1.23666
-0.176625 0.104325 1.45982
-0.21073601 0.124558 1.23087
0.098012701 0.24247301 1.29712
-0.25062099 0.194667 1.77672
-0.22947501 0.186352 1.5158499
-0.186341 0.179812 1.39256
-0.30521899 0.21327101 1.7287199
0.21111999 0.42377201 1.2509201
-0.066797704 0.34565499 1.29346
-0.0444411 0.39133799 1.2668999
-0.18170901 0.389521 1.27663
-0.35014299 0.36782801 1.42739
-0.299555 0.37435701 1.3450201
-0.411865 0.366918 1.46842
-0.196505 0.414895 1.27255
-0.25696799 0.40261701 1.2985801
-0.41709599 0.42201701 1.3124599
0.0198898 0.59798002 1.2438
0.018942701 0.59227997 1.19519
0.062547497 0.31968799 1.32739
-0.45632201 0.26545301 1.9897799
0.0063851201 0.34900099 1.29836
0.073418498 0.40268701 1.27412
-0.212016 0.32100201 1.33267
-0.47720399 0.34322 1.89474
-0.230923 0.33194599 1.35096
-0.12951399 0.39315701 1.2665499
0.012142 0.46671399 1.24032
0.063707396 0.48567399 1.23419
-0.32856801 0.374226 1.38446
-0.34454799 0.38032299 1.40403
-0.413306 0.39228901 1.4323699
-0.322736 0.414024 1.35738
-0.320793 0.43489301 1.34154
-0.41184199 0.43198299 1.37482
-0.30773699 0.443795 1.2224
-0.38703001 0.442415 1.33346
-0.43544 0.477727 1.38545
-0.47850201 0.49214801 1.43416
-0.448829 0.516074 1.36002
-0.301624 0.20235801 1.49461
-0.21046899 0.28246099 1.38103
-0.21183801 0.30959901 1.32986
-0.36224201 0.312444 1.53556
-0.40643999 0.337571 1.48413
-0.34733599 0.36784801 1.42549
-0.44817799 0.40764499 1.63044
-0.38515699 0.391978 1.41634
-0.38725501 0.425419 1.37728
-0.30496299 0.356922 1.36724
-0.24245299 0.472877 1.28143
-0.33596101 0.46264699 1.29004
0.066494301 0.341234 1.29963
0.222683 0.401149 1.25884
-0.205229 0.30214101 1.33407
0.044583999 0.37729099 1.2338001
0.185252 0.431831 1.25447
-0.029719099 0.39928299 1.26955
-0.188178 0.36154601 1.30453
-0.33471501 0.372639 1.43013
-0.094866902 0.42996499 1.26676
-0.29989299 0.38575801 1.32875
-0.387164 0.393271 1.41615
-0.050006598 0.47597501 1.23821
-0.25112301 0.32431301 1.3513499
-0.21139 -0.169872 1.07151
-0.158537 -0.178951 1.2831399
-0.153391 -0.168983 1.26736
-0.163635 -0.16136999 1.2508
-0.183944 -0.14902601 1.3460799
-0.166843 -0.113847 1.26666
-0.16236299 -0.112359 1.29278
-0.171874 -0.097386897 1.30448
-0.16028 -0.087672003 1.32249
-0.197055 -0.102285 1.40422
-0.174777 -0.084215596 1.27626
-0.183366 -0.076443702 1.32544
-0.193424 -0.066890202 1.22816
-0.17737 -0.073739499 1.36279
-0.167523 -0.064823002 1.3161401
-0.205485 -0.065462299 1.20017
-0.197493 -0.075139202 1.35753
-0.243467 -0.085072897 1.3957601
-0.179434 -0.055123799 1.1868401
-0.22979601 -0.053692799 1.4029
-0.17767701 0.0032736899 1.38995
-0.175382 0.0041587101 1.37289
-0.200369 0.0137966 1.16336
-0.176024 0.014805 1.40598
-0.17696001 0.0210291 1.35794
-0.17313901 0.049556099 1.39239
-0.171672 0.079394497 1.37775
-0.182483 0.083660498 1.46307
-0.235781 0.076088302 1.46924
-0.17467099 0.102697 1.38276
-0.159128 0.123939 1.41254
-0.177854 0.12359 1.43313
-0.177431 0.147119 1.41397
-0.17328399 0.193773 1.42031
-0.21710201 0.20079 1.41119
-0.27000099 0.215775 1.6761301
-0.232334 0.228847 1.41662
-0.20897099 0.244363 1.2883199
-0.26556501 0.234805 1.4924901
-0.23957001 0.244459 1.4518501
-0.234998 0.24771801 1.3939
-0.25656599 0.25387201 1.57707
-0.28122199 0.250074 1.58665
-0.220668 0.26223201 1.31532
-0.301072 0.245046 1.60469
-0.30996001 0.26857099 1.56882
-0.235736 0.29292801 1.3638901
-0.35366601 0.27975401 1.58333
-0.34311599 0.31267801 1.50029
-0.17092399 0.37663099 1.28009
-0.39480501 0.30835301 1.54493
-0.33555201 0.32826099 1.4586101
-0.31619 0.34955001 1.38174
-0.290411 0.36422399 1.36149
-0.25543699 0.37762001 1.31372
-0.28480899 0.38034901 1.3287801
-0.43264699 0.332807 1.5265
-0.234871 0.40035999 1.2709301
-0.430493 0.373023 1.70715
-0.43848401 0.341977 1.53324
-0.29666501 0.39550799 1.34513
-0.48242301 0.376495 1.71241
-0.360237 0.39319 1.3975101
-0.61709303 0.324965 1.82393
-0.41057 0.37891501 1.45029
-0.26035801 0.434609 1.29304
-0.55108798 0.35613 1.74907
-0.34232 0.40712199 1.36637
-0.54449201 0.36669999 1.7184
-0.45974499 0.39175901 1.59515
-0.46178001 0.37751999 1.50071
-0.271501 0.44682601 1.27775
-0.380288 0.41168299 1.3778
-0.517057 0.38999 1.67954
-0.395612 0.419101 1.37911
-0.471679 0.401182 1.48461
-0.39838299 0.427744 1.36186
-0.40949401 0.42523599 1.36759
-0.398325 0.439468 1.34545
-0.40184 0.46270201 1.31408
-0.55898201 0.433815 1.55041
-0.398417 0.50655001 1.31683
-0.50181502 0.484263 1.4319
-0.487221 0.502186 1.43357
-0.43434101 0.52428699 1.34483
-0.408755 0.56279802 1.25343
-0.157718 -0.143067 1.28221
-0.16148201 -0.13300601 1.26217
-0.17936701 -0.115146 1.2591799
-0.167999 -0.095188901 1.29017
-0.180748 -0.0540049 1.2456501
-0.18330599 0.036109298 1.44566
-0.17739899 0.224236 1.4054
-0.27008501 0.28884801 1.43919
-0.31643701 0.29229099 1.48397
-0.39844999 0.30815801 1.86125
-0.371407 0.33458099 1.83977
-0.519081 0.31204101 1.84998
-0.24134 0.39494401 1.29027
-0.327802 0.37333199 1.38717
-0.31921601 0.412357 1.35377
-0.33263001 0.42161801 1.33683
-0.45370901 0.41055 1.47603
-0.627698 0.35720399 1.65552
-0.52442503 0.44212601 1.54617
-0.48549399 0.45615101 1.50537
-0.450773 0.47048399 1.42551
-0.42525601 0.48796901 1.35646
-0.40367401 0.49558899 1.33005
-0.58960998 0.43696401 1.55093
-0.182023 -0.15839399 1.35567
-0.187199 -0.032250501 1.25061
-0.200707 0.0049960399 1.41594
-0.18003801 0.14945801 1.43303
0.266588 0.37037 1.31585
-0.161239 0.40237001 1.26292
-0.33687299 0.35556 1.44209
-0.27485499 0.41773999 1.2970901
-0.35458201 0.41755199 1.35742
-0.368624 0.42082101 1.36624
-0.55073702 0.393893 1.6654
-0.454454 0.42904499 1.45748
-0.407276 0.470296 1.31736
-0.42927399 0.51635498 1.35596
-0.24044999 -0.065542199 1.5286601
0.198474 0.34041199 1.2935899
-0.22353899 0.220745 1.4174
-0.20349699 0.290016 1.36932
-0.33082101 0.30877799 1.5120699
-0.096522197 0.427735 1.26403
-0.34648901 0.34829399 1.45725
-0.42729399 0.349332 1.51457
-0.37896901 0.382438 1.43532
-0.49869099 0.38731501 1.70938
-0.423206 0.49083 1.35671
-0.104669 0.47640699 1.25352
-0.34394899 0.30327499 1.8421
0.070023701 0.48810101 1.22596
-0.211781 0.202176 1.46837
-0.251959 -0.34223399 1.34582
-0.26211101 -0.33547801 1.34899
-0.220314 -0.31719199 1.33516
-0.248108 -0.30284199 1.32125
-0.26346201 -0.298253 1.34519
-0.25726399 -0.29232201 1.32173
-0.26543501 -0.284565 1.3608
-0.26310501 -0.274721 1.3490601
-0.231787 -0.200388 1.3758399
-0.16296899 -0.123372 1.24901
-0.19333699 -0.115528 1.3746099
-0.177039 -0.100761 1.3434401
-0.202214 -0.072707199 1.18364
-0.18017 -0.041356198 1.21262
-0.164056 -0.051133901 1.32579
-0.174026 -0.051206 1.3508
-0.16870899 -0.041057002 1.34165
-0.165163 -0.0323206 1.3181601
-0.164325 -0.0254253 1.29663
-0.16538399 -0.0282465 1.3322901
-0.246498 -0.0606803 1.42238
-0.166085 -0.0097509604 1.35649
-0.16614 -0.0104308 1.3415999
-0.17595799 -0.0062711001 1.38519
-0.15233199 0.0100855 1.33371
-0.243444 -0.035809301 1.436
-0.15792499 0.018632401 1.35666
-0.170093 0.014197 1.37111
-0.16752499 0.023997599 1.34328
-0.15627 0.036545102 1.36093
-0.17609 0.0244208 1.4157799
-0.244418 0.0011611 1.45109
-0.175905 0.0370914 1.41941
-0.16603801 0.0433602 1.3847899
-0.249531 0.0126653 1.4578201
-0.197238 0.067881197 1.24034
-0.16627701 0.069287702 1.3738101
-0.173618 0.082783297 1.39711
-0.17334101 0.115371 1.41616
-0.212318 0.125111 1.26662
-0.175354 0.12942301 1.41002
-0.17928299 0.15888 1.3571399
-0.221146 0.13203301 1.45078
-0.176697 0.163214 1.43593
-0.169402 0.183419 1.39092
-0.17897999 0.176056 1.46606
-0.212989 0.18059801 1.5094
-0.212152 0.199596 1.30664
-0.2307 0.17234001 1.54679
-0.22669999 0.235963 1.2756
-0.248602 0.22149099 1.54212
-0.196733 0.273184 1.35254
-0.24309701 0.254172 1.4059
-0.29546201 0.22345901 1.55176
-0.28697401 0.244017 1.52979
-0.247263 0.27241701 1.41017
-0.275778 0.244645 1.58433
-0.30295399 0.232612 1.64671
-0.30828199 0.24535701 1.44926
-0.30111799 0.24652199 1.46981
-0.305884 0.25071901 1.58268
-0.226937 0.31444699 1.37722
-0.31731299 0.259058 1.60403
-0.32781801 0.25408599 1.8844
-0.30959299 0.286484 1.52188
-0.31410801 0.29690501 1.50274
-0.33090001 0.28959101 1.5393
-0.35232601 0.27666301 1.61352
-0.295068 0.341124 1.37836
-0.38575399 0.298612 1.5589401
-0.31416801 0.343061 1.3975
-0.33749801 0.34925601 1.41407
-0.31177199 0.365282 1.34029
-0.45142299 0.27813801 1.93625
-0.391408 0.32077199 1.47509
-0.25949201 0.40762201 1.29802
-0.421967 0.30287299 1.84624
-0.422575 0.316791 1.60551
-0.451352 0.32993001 1.55917
-0.39205801 0.37345201 1.46015
-0.33647901 0.411771 1.35271
-0.4542 0.35295701 1.53212
-0.3565 0.42194301 1.35373
-0.472554 0.365208 1.56055
-0.450699 0.38160199 1.47584
-0.442727 0.392483 1.4517
-0.46272701 0.38902301 1.51468
-0.461651 0.40027601 1.5526
-0.58045697 0.33326501 1.80626
-0.56865799 0.341185 1.78372
-0.594118 0.33992299 1.7809401
-0.438182 0.44074199 1.37659
-0.43074301 0.44497901 1.36173
-0.45751199 0.43465799 1.47568
-0.44995299 0.44342601 1.4320199
-0.44691101 0.45649999 1.4122601
-0.40377399 0.48543 1.33219
-0.51885498 0.42199799 1.5892
-0.502065 0.448825 1.54656
-0.54182303 0.425358 1.58556
-0.46559799 0.48148 1.44819
-0.50181901 0.50583899 1.43277
-0.43200201 0.55616403 1.28122
-0.19249 -0.098445497 1.38252
-0.219935 -0.040308502 1.3908499
-0.205061 0.23985501 1.34671
-0.231966 0.208499 1.67978
-0.26150501 0.206293 1.55804
-0.30115101 0.23102 1.6066
-0.301783 0.234926 1.64704
-0.38191301 0.29859099 1.91113
-0.39235201 0.30856001 1.8634501
-0.384985 0.32599699 1.83305
-0.43793401 0.32672799 1.5773799
-0.305121 0.42859399 1.3282
-0.380187 0.382366 1.43274
-0.31911501 0.445409 1.31402
-0.40239501 0.39221001 1.43637
-0.45519799 0.359263 1.5518301
-0.43257701 0.390057 1.44253
-0.46237299 0.44856799 1.4670399
-0.42100799 0.539837 1.31077
-0.415295 0.54883999 1.28689
-0.253492 -0.274158 1.33442
-0.17021701 -0.117381 1.28803
-0.19072901 -0.049406402 1.34803
-0.172023 -0.0188633 1.2410901
-0.172166 0.0188425 1.35914
-0.164701 0.12628999 1.37024
-0.22581001 0.19459701 1.51836
-0.213829 0.25738201 1.40162
-0.223496 0.27410999 1.38748
-0.32492799 0.27622601 1.5772001
-0.28797999 0.34990701 1.36222
-0.34191799 0.34474701 1.41207
-0.42066899 0.34395301 1.5312001
-0.343934 0.45614901 1.33717
-0.49135 0.382002 1.51657
-0.459023 0.41266599 1.4994
-0.49691999 0.40100899 1.64159
-0.479875 0.46917099 1.47515
-0.19656201 -0.19694901 1.34595
-0.187107 0.0104909 1.42452
-0.174255 0.0374978 1.36734
-0.17510401 0.0681234 1.43861
-0.17912599 0.165442 1.39926
-0.18015499 0.248693 1.36764
-0.31220701 0.332302 1.39856
-0.362028 0.30728301 1.5477901
-0.38383001 0.295183 1.90422
-0.351549 0.33846599 1.47605
-0.41077501 0.34883901 1.47707
-0.279239 0.436717 1.2965
-0.374311 0.49013999 1.28313
-0.328554 0.29896301 1.50165
-0.354752 0.323562 1.53441
-0.28781801 0.40134701 1.32524
-0.51799601 0.319902 1.82762
-0.34641799 0.364737 1.41592
-0.188945 0.29093 1.3366801
-0.268401 -0.32168299 1.34991
-0.262963 -0.271548 1.36037
-0.201399 -0.16348401 1.38626
-0.19813401 -0.066311099 1.17257
-0.16008499 -0.056666899 1.26271
-0.159701 -0.024124799 1.27753
-0.24885499 -0.081006199 1.43551
-0.159896 0.0234308 1.3022701
-0.178783 0.030144401 1.39722
-0.16705599 0.056051299 1.37142
-0.168773 0.0656683 1.34559
-0.16728 0.078115202 1.33389
-0.22816101 0.18665101 1.56082
-0.24656101 0.211046 1.64307
-0.225134 0.35120901 1.32868
-0.29387599 0.23379099 1.61683
-0.160174 0.260236 1.95643
-0.308128 0.30157 1.47068
-0.38003099 0.266478 1.63106
-0.37339401 0.29663199 1.58318
-0.29201999 0.30993801 1.87649
-0.386015 0.298581 1.62
-0.28161201 0.33905399 1.8528
-0.402542 0.382193 1.4376301
-0.43437901 0.33804399 1.51793
-0.38858899 0.40853199 1.41486
-0.464338 0.35400999 1.7580301
-0.484101 0.43678701 1.57967
-0.168853 -0.0768442 1.22949
-0.16774601 0.0032428801 1.34408
-0.249323 0.19 1.53649
-0.28738099 0.240859 1.61541
-0.324505 0.28180599 1.55559
-0.36303201 0.30482 1.5513099
-0.374167 0.41781199 1.3956
-0.422086 0.36613399 1.68432
-0.44490799 0.50688303 1.3844301
-0.161607 -0.16412801 1.2901599
-0.188241 -0.025107499 1.20876
-0.18497699 -0.0264134 1.23131
-0.17240199 0.15125901 1.41532
-0.179175 0.285658 1.35961
-0.29068899 0.241827 1.53034
-0.35892999 0.256659 1.62839
-0.43499801 0.356498 1.64451
-0.192139 0.218862 1.50675
-0.331415 0.272257 1.55248
-0.32455301 0.27592701 1.57715
-0.39592499 0.28024501 1.6289001
-0.331862 0.426716 1.33613
-0.433359 0.31698999 1.5557801
-0.33770299 0.46118501 1.2889301
-0.42069799 0.36105701 1.49071
-0.42042199 0.51794302 1.35809
-0.41568199 0.54670298 1.2854
-0.42174399 0.540851 1.30686
-0.42059201 0.53975201 1.3354
-0.45940599 0.49224699 1.41166
-0.247749 0.33755901 1.3366801
-0.25089201 0.32850999 1.34885
-0.166721 -0.162691 1.29598
-0.141772 -0.131227 1.24622
-0.164729 -0.099992998 1.20664
-0.18681701 -0.099372797 1.19726
-0.156903 -0.089341499 1.21507
-0.15499499 -0.0891321 1.23057
-0.171342 -0.076794602 1.2388901
-0.161948 -0.075495802 1.25052
-0.185348 -0.072707497 1.21789
-0.16565201 -0.090322003 1.30524
-0.158117 -0.056772601 1.2454
-0.178709 -0.050512198 1.21066
-0.16214 -0.076971203 1.2930599
-0.226786 -0.165604 1.43528
-0.159494 -0.041916098 1.30396
-0.188236 -0.010768 1.23189
-0.251647 -0.14957701 1.44063
-0.18273699 -0.0034388399 1.26352
-0.227329 -0.114793 1.46578
-0.16659001 0.0432861 1.22426
-0.23647401 -0.092573799 1.45986
-0.25840899 -0.086666003 1.45566
-0.25444299 -0.067197703 1.45435
-0.16011 0.082617797 1.2759399
-0.159761 0.126697 1.3199
-0.13467801 0.131836 1.3592401
-0.25471199 0.00107241 1.48759
-0.230459 0.0092497896 1.50958
0.109649 0.17007899 1.68487
-0.167522 0.15269101 1.39
-0.16779099 0.18090101 1.36924
-0.16711099 0.20254301 1.38085
-0.170545 0.222518 1.3900599
-0.225411 0.14502899 1.499
-0.1811 0.27021399 1.3724
-0.200743 0.231134 1.43612
-0.25778899 0.176677 1.5778
-0.25723001 0.207845 1.55409
-0.28142101 0.24145401 1.4889801
-0.156102 0.23341601 1.70759
-0.29237899 0.21984001 1.54103
-0.24472401 0.21398699 1.65961
-0.25886801 0.220963 1.62187
-0.31146401 0.25228199 1.4747
-0.30329701 0.25156301 1.50211
-0.28507599 0.20187099 1.62368
-0.30072501 0.234258 1.55448
-0.30390301 0.232141 1.5692
-0.33019799 0.25437799 1.49465
-0.271121 0.226816 1.65131
-0.323515 0.278339 1.49186
-0.28626901 0.23551799 1.63849
-0.068134002 0.32242501 1.8568799
-0.31740999 0.247532 1.63743
-0.317709 0.24017601 1.65166
-0.109071 0.31740901 1.88554
-0.336404 0.28748399 1.55292
-0.362324 0.44408801 1.33029
-0.351437 0.474253 1.30059
-0.33334801 0.26802599 1.72645
-0.37296799 0.25505701 1.68168
-0.39163101 0.32161599 1.52021
-0.37964699 0.33180201 1.5383199
-0.359218 0.48314801 1.2867301
-0.39377099 0.27250999 1.63885
-0.40430999 0.32220101 1.5243599
-0.35372001 0.48146099 1.3267601
-0.405406 0.29264 1.59308
-0.412559 0.328114 1.53021
-0.371656 0.28911799 1.69788
-0.41330099 0.29656699 1.60879
-0.404302 0.421321 1.37984
-0.43247399 0.335758 1.50093
-0.42934999 0.31547499 1.56135
-0.401499 0.39984301 1.43729
-0.431366 0.35877299 1.48774
-0.423796 0.29138899 1.6388
-0.389736 0.321477 1.6661299
-0.44091001 0.32399899 1.5857
-0.44553599 0.32284501 1.5964
-0.421013 0.32153201 1.65716
-0.414628 0.329211 1.68255
-0.45747799 0.37738499 1.50204
-0.423906 0.339387 1.65303
-0.43125099 0.34278801 1.63693
-0.419983 0.34630799 1.66959
-0.41099101 0.53757298 1.3309799
-0.43385401 0.35458401 1.6487
-0.445418 0.35706899 1.62164
-0.45811599 0.526191 1.30257
-0.44989899 0.46926099 1.42434
-0.445007 0.50803 1.38467
-0.43242201 0.53485501 1.36787
-0.46395701 0.40577501 1.57452
-0.51147503 0.48160899 1.38796
-0.186942 -0.16985001 1.34042
-0.148059 -0.087787099 1.19718
-0.17243899 -0.127327 1.30314
-0.1886 -0.065003201 1.1732
-0.214862 -0.022756301 1.4365
-0.18891101 0.142545 1.26533
-0.16979 0.152463 1.36005
0.155287 0.182008 1.73132
-0.17295 0.165021 1.3986
-0.25418001 0.170992 1.58989
-0.0303711 0.29466799 1.89678
-0.30163801 0.23251601 1.6505001
-0.28981999 0.22971 1.6760401
-0.112275 0.27247801 1.94179
-0.16147 0.31399399 1.86798
-0.35633901 0.25846499 1.62753
-0.375655 0.278716 1.59205
-0.39623299 0.312222 1.50207
-0.38144201 0.26567501 1.63328
-0.35959801 0.49382401 1.2823499
-0.431315 0.342731 1.51712
-0.401443 0.32445201 1.69122
-0.453798 0.50064999 1.41345
-0.225385 0.056436501 1.449
-0.23246901 0.22799399 1.41693
-0.30126601 0.233762 1.5192
-0.31558201 0.25073799 1.47041
-0.27359 0.22271401 1.60729
-0.38587901 0.333368 1.47114
-0.41877201 0.30682799 1.61606
-0.43246499 0.30901301 1.5986201
-0.452162 0.363089 1.5103
-0.46464899 0.34885901 1.5685101
-0.174979 -0.12516201 1.29996
0.13442799 0.134583 1.67364
-0.20838401 0.19624101 1.44181
-0.217197 0.216755 1.68283
-0.313436 0.27154899 1.50428
-0.324247 0.44286299 1.2175699
-0.32358 0.26055601 1.61075
-0.309636 0.262981 1.65844
-0.344484 0.243727 1.67821
-0.358082 0.27441901 1.59424
-0.36244199 0.469179 1.2685699
-0.40129399 0.35320899 1.44762
-0.39271101 0.31037 1.57831
-0.38445401 0.493218 1.25494
-0.39826101 0.27536601 1.66476
-0.394613 0.52465898 1.32201
0.138751 0.130363 1.6785001
-0.201534 0.20832901 1.48555
-0.23724701 0.191625 1.53456
-0.31214899 0.240302 1.56241
-0.32254499 0.278283 1.5485801
-0.35642499 0.262887 1.63249
-0.39724401 0.29911199 1.58105
-0.28003201 0.440101 1.29848
-0.29702899 0.47052699 1.26676
-0.36577201 0.26565799 1.59667
-0.22648899 0.44564399 1.24464
-0.29768699 0.317038 1.5056
0.106389 -0.230728 1.16136
0.121207 -0.30113599 1.3424
-0.209178 -0.30961499 1.36049
-0.20978101 -0.196623 1.14884
0.074175 -0.226776 1.44652
-0.256859 -0.31845501 1.40194
-0.125736 -0.144611 1.21918
0.101379 -0.176737 1.4813401
-0.16214401 -0.11784 1.1984299
-0.156615 -0.11441 1.2144901
0.062695302 -0.16618 1.4789701
-0.247329 -0.26910299 1.43358
0.054679599 -0.143516 1.48869
-0.142858 -0.050546899 1.1819201
0.0522081 -0.121725 1.5046999
-0.16287 -0.052507602 1.2303801
-0.179731 -0.0392651 1.23141
0.0596097 -0.082700603 1.50916
-0.17503101 -0.028918101 1.2393399
0.058592699 -0.0504882 1.51704
-0.167842 -0.00220713 1.25102
-0.158555 -0.0029098301 1.29356
-0.218825 -0.12438 1.45654
-0.25024599 -0.122708 1.44559
0.0624156 -0.0172495 1.5443799
0.112492 0.0238766 1.57549
-0.19423901 0.057778101 1.26006
-0.241377 -0.088085003 1.4526401
-0.167282 0.117454 1.22947
0.055107601 0.053260401 1.57244
0.049981602 0.0912214 1.58358
0.147043 0.140615 1.62266
0.0665185 0.120483 1.58534
-0.239585 -0.0086685 1.50544
-0.146642 0.220341 1.32344
0.120588 0.172491 1.68197
0.0109711 0.148064 1.61992
0.104436 0.18470199 1.68023
0.0169857 0.145713 1.6660399
0.18593 0.203906 1.7591701
-0.19847301 0.160027 1.45072
-0.18234 0.31463 1.27022
0.0064741699 0.181686 1.6709599
-0.0704192 0.20085099 1.6849999
-0.231032 0.191982 1.51697
-0.076078303 0.18316001 1.71127
-0.094654597 0.190317 1.70613
-0.204237 0.44185701 1.2621
-0.122476 0.191072 1.71553
-0.24956401 0.199728 1.56397
0.15172701 0.34323701 1.83637
-0.206641 0.19773901 1.6416399
-0.25724599 0.211422 1.58499
0.111425 0.335493 1.85588
-0.27271101 0.212807 1.57012
-0.31422701 0.44022799 1.2238801
-0.162379 0.208885 1.71803
-0.195619 0.206343 1.67697
-0.28217801 0.216443 1.56788
-0.185341 0.204053 1.7056201
-0.23990799 0.20769 1.63423
-0.29738301 0.22268 1.55326
-0.31848899 0.25172099 1.48743
-0.32111701 0.44277701 1.23893
-0.31174201 0.24304 1.51763
-0.198245 0.194924 1.73121
-0.34024301 0.447184 1.23637
-0.192305 0.21647 1.71492
0.0191691 0.329559 1.82819
0.033640299 0.29469499 1.89705
-0.27723801 0.247256 1.59389
-0.22989 0.194866 1.72
-0.234704 0.198301 1.70862
-0.29859999 0.24868301 1.56838
0.0081288004 0.31012201 1.87781
-0.31946301 0.29080501 1.50517
0.00415069 0.29301399 1.89689
-0.242524 0.207637 1.70891
-0.33727399 0.46819401 1.27415
-0.33184901 0.42249599 1.3393199
-0.039018001 0.32139799 1.84074
-0.057644099 0.326208 1.81558
-0.36062101 0.4698 1.2763799
-0.33636701 0.30908701 1.5157
-0.34325999 0.43887001 1.33811
-0.051064901 0.31025499 1.91019
-0.106547 0.31746 1.83529
-0.331893 0.248217 1.63976
-0.070033103 0.277693 1.93829
-0.37538099 0.443829 1.3528
-0.297315 0.22693101 1.72361
-0.33399299 0.227946 1.69242
-0.39888799 0.412321 1.37989
-0.37003499 0.26635399 1.60445
-0.35987899 0.241668 1.64864
-0.37668201 0.274883 1.5976501
-0.35728201 0.278539 1.6217099
-0.405509 0.31984699 1.50911
-0.38477799 0.28619301 1.59299
-0.38729599 0.292485 1.58491
-0.43137801 0.331682 1.4887
-0.43861401 0.35654801 1.47408
-0.41169599 0.32578501 1.54953
-0.42453501 0.337275 1.5315599
-0.43011901 0.35127801 1.50597
-0.34213999 0.31199899 1.68133
-0.204007 0.284188 1.92563
-0.231611 0.333875 1.8507299
-0.222571 0.310617 1.89596
-0.37762401 0.29261601 1.70834
-0.23090801 0.33276099 1.86524
-0.23940399 0.30482101 1.89893
-0.261437 0.30387199 1.86928
-0.248437 0.35367501 1.85181
-0.32341701 0.32751599 1.7811199
-0.34161699 0.338413 1.76246
-0.140062 -0.118891 1.21319
-0.19411001 0.0135221 1.2784801
0.15411299 0.123288 1.63387
0.034279998 0.137894 1.61209
0.0117839 0.166619 1.63887
0.18350001 0.234419 1.76851
-0.098373398 0.20081601 1.69085
-0.152043 0.205953 1.68626
0.090647496 0.292932 1.89461
0.056118399 0.30842799 1.8746099
0.0240785 0.32885599 1.81829
-0.28884101 0.467821 1.26806
0.0115204 0.319727 1.85019
-0.30089599 0.26073 1.5556999
-0.30967399 0.27102599 1.54475
-0.30852401 0.247292 1.58355
-0.26610199 0.212873 1.6826
-0.36021399 0.47251701 1.27112
-0.042119902 0.31581399 1.86961
-0.34883201 0.32620299 1.51068
-0.383387 0.47421899 1.30689
-0.407231 0.49422199 1.24915
-0.31625599 0.22510099 1.71281
-0.40597299 0.32280901 1.58083
-0.35237199 0.28330699 1.72098
-0.409558 0.28401601 1.64972
-0.31161499 0.32850999 1.7786
-0.47607201 0.50325501 1.36026
-0.282635 0.34052399 1.82388
-0.47880799 0.48103899 1.43993
-0.239456 -0.29201999 1.39621
-0.188786 0.204485 1.6122299
-0.280267 0.22834399 1.53528
-0.308274 0.35845101 1.3674901
-0.027967401 0.31149101 1.7997299
-0.33743 0.30661801 1.5361201
-0.37656999 0.42934099 1.35411
-0.188952 0.24957301 1.25349
0.19222701 0.201831 1.75639
-0.18776099 0.211432 1.41387
-0.23901901 0.175979 1.49446
-0.255465 0.204615 1.59375
-0.25589901 0.23930401 1.5739
-0.31032699 0.44662601 1.23939
0.062236998 0.31424901 1.87222
-0.30979401 0.24678101 1.55671
-0.26475301 0.218446 1.681
-0.0228744 0.30582801 1.89496
-0.046204899 0.31020299 1.86796
-0.069412202 0.29657999 1.9155
-0.41799 0.40141201 1.4279799
-0.34454301 0.24197 1.71336
-0.42498201 0.53268802 1.30759
0.079696603 -0.028191101 1.52926
-0.0656882 0.339403 1.8179899
-0.29339501 0.43128401 1.3037
-0.244148 0.181136 1.5412
-0.223489 0.18332601 1.54916
0.074936204 -0.211275 1.4334
-0.14743 -0.131657 1.1973799
0.079373099 -0.220439 1.46295
0.050400101 -0.162003 1.46136
-0.239546 -0.218613 1.43566
0.057084199 -0.041098598 1.48911
-0.23239 -0.155347 1.47874
-0.188704 0.0962293 1.18831
0.0147416 -0.0039673802 1.51056
0.061454602 0.159016 1.65722
0.0060917102 0.156707 1.64542
-0.061180599 0.20640799 1.66079
-0.27643499 0.187875 1.5388
-0.27932799 0.47037601 1.29127
-0.33412501 0.441688 1.3269
-0.258095 0.21323401 1.6489201
-0.29573601 0.25537601 1.60551
-0.418084 0.34198299 1.51714
-0.38192701 0.29336801 1.60093
-0.37682301 0.26662901 1.65166
-0.46400401 0.480634 1.44967
0.055890001 -0.107426 1.49436
0.0190145 0.161948 1.5947599
0.011086 0.155876 1.6664701
-0.11741 0.19138999 1.61199
-0.240481 0.45187199 1.26446
-0.25649399 0.182693 1.5437
-0.301936 0.44777 1.2376
-0.28358799 0.42539099 1.33634
-0.21056101 0.20794199 1.69353
-0.34907401 0.370004 1.4294
-0.361871 0.41299 1.38053
-0.313292 0.26301399 1.60466
-0.322492 0.228093 1.69121
-0.43933001 0.41527 1.40782
0.0537691 -0.159297 1.46202
0.00026806799 0.15691701 1.6371
-0.31649801 0.46518099 1.2986799
-0.282354 0.237002 1.58069
-0.230197 0.21185499 1.65615
-0.321695 0.28938401 1.50439
-0.313182 0.26426899 1.5855401
-0.411073 0.38806 1.43442
-0.41482401 0.330621 1.62721
0.0370817 0.15061601 1.60843
-0.26214001 0.46382999 1.26115
-0.27914101 0.42844599 1.33132
-0.295959 0.23859701 1.51895
-0.211395 0.20612501 1.6918499
-0.24093799 0.209121 1.68229
-0.299705 0.230224 1.64949
-0.29929 0.22670101 1.67626
-0.451796 0.46876001 1.4256999
-0.248247 0.215413 1.64276
-0.399517 0.346549 1.48172
0.082459897 0.144281 1.63799
-0.0322541 0.183359 1.59238
-0.20422 -0.229274 1.0820301
-0.172554 -0.25340101 1.1509
0.070539899 -0.36361799 1.44678
-0.21994001 -0.365747 1.40474
0.074749298 -0.26096401 1.4652801
0.072632402 -0.25683701 1.48039
0.043522101 -0.212634 1.41479
0.087561697 -0.235173 1.47356
0.084871098 -0.221687 1.46699
0.0588113 -0.206965 1.43086
0.044124499 -0.204411 1.41882
0.0490379 -0.199581 1.42758
0.068445303 -0.21236899 1.45961
0.026656801 -0.20145901 1.42715
-0.0185194 -0.203384 1.42259
-0.00630916 -0.194409 1.4134901
0.072416 -0.21689799 1.49632
-0.112091 -0.21903899 1.4248101
-0.036247399 -0.19118799 1.43162
0.080338404 -0.187888 1.51034
0.054241199 -0.158555 1.48915
0.078069702 -0.138457 1.4989001
0.0028731199 -0.120794 1.43634
0.058615699 -0.14468101 1.5016201
0.0032695101 -0.126986 1.45507
0.052390501 -0.105012 1.4743201
0.0351112 -0.103077 1.46826
-0.21759599 -0.200565 1.4685
0.054977201 -0.0919438 1.49255
-0.075246997 -0.097487703 1.45272
-0.0312215 -0.0771624 1.47553
0.070147201 -0.084319599 1.5466501
0.042249002 -0.059551701 1.50647
-0.035408001 -0.066539802 1.4814301
0.068449803 -0.071785301 1.55042
0.059310101 -0.0304842 1.5326
0.0145805 -0.0137551 1.50019
0.031762399 0.0051267198 1.51447
-0.058481399 -0.0140529 1.4911
0.082187802 -0.0077437698 1.57368
0.0867358 0.0076433602 1.58288
-0.0401146 0.0091867195 1.5062799
-0.062375899 0.0050251898 1.5046099
-0.049805801 0.0143475 1.50808
0.0589628 0.024741801 1.58303
0.0053163301 0.0484115 1.52623
-0.019159799 0.037558001 1.52492
-0.00190617 0.066088997 1.53241
-0.208186 -0.052693602 1.53316
-0.066348203 0.048880499 1.52166
0.040087 0.108593 1.56104
-0.0208476 0.087988101 1.5417
0.0554909 0.083453201 1.60734
-0.222408 0.0057373601 1.54081
0.00238722 0.131294 1.5582401
0.059717 0.105638 1.61859
0.040865399 0.133432 1.5813
-0.234612 0.0080643101 1.54561
0.067033596 0.13529 1.62073
0.060594901 0.14431199 1.63592
0.20514999 0.178102 1.6965801
0.034405898 0.14470699 1.63116
0.042491298 0.150106 1.63975
-0.0395457 0.18371999 1.57154
0.0072726202 0.140582 1.65338
-0.00177197 0.15185 1.63678
0.182125 0.19739 1.72131
-0.0220934 0.180126 1.62558
0.090556003 0.173076 1.71521
-0.34554899 0.43785501 1.21679
0.032237399 0.18122099 1.73853
0.00632483 0.201122 1.70533
-0.225115 0.148688 1.61668
-0.0180017 0.1837 1.73616
-0.18556 0.18415 1.63512
-0.15731999 0.20209 1.64612
-0.20598499 0.183111 1.6349699
-0.21715499 0.2146 1.61481
-0.039283 0.194465 1.75011
-0.086772703 0.184607 1.72879
-0.207202 0.196825 1.64166
0.0072180699 0.230799 1.76397
-0.078634702 0.216308 1.71755
-0.174426 0.206407 1.67041
-0.258448 0.21380199 1.6094
-0.21988299 0.20053799 1.64836
-0.34128401 0.31388301 1.48418
-0.29843101 0.26101699 1.56091
0.0225672 0.25387099 1.78263
-0.29401201 0.24281199 1.58442
-0.220963 0.210133 1.66794
-0.0381459 0.24017701 1.77107
-0.419155 0.418421 1.39843
-0.0182795 0.27262399 1.77074
-0.095489703 0.224703 1.75559
-0.17361601 0.193491 1.73967
-0.21118601 0.195077 1.71605
-0.36946499 0.294267 1.5570199
-0.50248897 0.54366601 1.29953
-0.29602 0.22335 1.67308
-0.231838 0.206874 1.7309999
-0.27085999 0.20423099 1.70512
-0.25285301 0.207041 1.7186
-0.25159001 0.201589 1.73239
-0.0733454 0.29277 1.79611
-0.274634 0.210862 1.71593
-0.124411 0.27666 1.77891
-0.31426099 0.19120499 1.7125
-0.185718 0.26459399 1.77232
-0.225614 0.240208 1.7647001
-0.34165999 0.248014 1.69841
-0.50394303 0.482559 1.43513
-0.223322 0.265663 1.77293
-0.15558299 0.30881199 1.79356
-0.30560601 0.247299 1.73382
-0.33501601 0.235862 1.72098
-0.48208699 0.46520701 1.47796
-0.31696099 0.243016 1.73602
-0.238877 0.30677399 1.78722
-0.227158 0.31435001 1.79242
-0.065500997 0.349747 1.89194
-0.36105701 0.302212 1.7242301
-0.32872599 0.302634 1.7483701
-0.386682 0.30684701 1.70733
-0.30719501 0.305666 1.7661
-0.51085401 0.45092401 1.54057
-0.36044601 0.332634 1.74096
-0.57626802 0.44294599 1.52064
-0.531762 0.43062001 1.56857
-0.477144 0.40393299 1.63384
-0.50121897 0.41453099 1.6112
-0.51845199 0.421294 1.59429
-0.39123899 0.34080401 1.73619
-0.55422902 0.42322701 1.57113
-0.46758601 0.393132 1.66954
-0.51190299 0.412772 1.63993
-0.53219402 0.40448901 1.63818
-0.50400901 0.39633101 1.6765701
-0.218216 -0.203679 1.0853601
0.065518498 -0.33446199 1.44875
0.066389799 -0.238729 1.3517801
0.061006799 -0.193593 1.48324
0.0119747 -0.18313099 1.44728
0.023935299 0.0179072 1.51133
-0.068409503 0.050280701 1.52307
-0.0074409102 0.189298 1.63124
-0.026973 0.209132 1.63108
-0.25665101 0.178693 1.5472
-0.255496 0.206295 1.59361
-0.11932 0.208396 1.6832
-0.42726699 0.441057 1.30361
-0.20671999 0.199074 1.64145
-0.243193 0.21748599 1.6601
-0.24156301 0.21046899 1.68349
-0.141325 0.210706 1.76361
0.056026801 0.328812 1.84135
-0.177064 0.30406001 1.79328
-0.16297901 0.31015101 1.80926
-0.27056199 0.276921 1.7634799
-0.204724 0.309311 1.79826
-0.307731 0.27249199 1.75769
-0.32411999 0.27766001 1.7492599
-0.239407 0.31779099 1.79814
-0.34408501 0.39910799 1.71382
-0.31226701 0.328857 1.77942
-0.434228 0.35652301 1.6786
-0.170532 -0.321403 1.44355
0.055829599 -0.201294 1.40364
0.0097864997 -0.172563 1.42233
-0.0440672 0.091467597 1.54153
-0.059236798 0.18397699 1.5678101
-0.222335 0.40975001 1.2792701
0.2145 0.237413 1.73237
-0.085693501 0.213835 1.64829
-0.33724201 0.40679201 1.3612
-0.28528401 0.214313 1.56882
-0.26512301 0.20058601 1.73112
0.071951203 0.34545299 1.89397
-0.340491 0.24132501 1.69886
-0.232169 0.28770599 1.7825201
-0.53173602 0.42377299 1.56982
-0.37765399 0.37169501 1.73071
-0.11795 -0.0514667 1.49464
-0.196652 0.239839 1.32227
-0.0059004501 0.16598301 1.56916
0.0081681795 0.159998 1.59544
0.053853199 0.152027 1.65811
-0.30618399 0.37738299 1.36572
-0.307311 0.479956 1.28844
-0.375963 0.44946501 1.27327
-0.33050799 0.38657099 1.3633699
-0.0492833 0.20186301 1.72308
-0.146787 0.19058999 1.71378
-0.42781001 0.45838901 1.36224
0.048541401 0.30799499 1.8176301
-0.20647401 0.244449 1.76724
-0.488343 0.46055201 1.4648499
-0.41961101 0.34059501 1.58979
-0.25389001 0.26467699 1.76127
-0.16317099 0.306205 1.8101799
-0.273516 0.27719 1.7629
-0.20011599 0.31727099 1.79488
-0.34898499 0.35543999 1.6868
-0.260564 0.30590701 1.78197
-0.238892 0.315566 1.79904
-0.49046499 0.43392199 1.55705
-0.4332 0.36234 1.67626
-0.0202999 0.18708999 1.6310101
-0.233804 0.20413101 1.68341
-0.25168401 0.21669801 1.64259
-0.221277 0.216114 1.68424
-0.353928 0.35427001 1.51509
-0.130522 -0.273278 1.10557
-0.156178 -0.276227 1.1262701
0.031255599 -0.23703 1.31558
-0.116524 -0.31038699 1.42264
-0.18086401 -0.33678299 1.44099
0.077202797 -0.27068499 1.44919
0.0227118 -0.229673 1.40826
0.087473102 -0.270266 1.48465
0.072566897 -0.247536 1.45218
0.035209998 -0.220285 1.4088
-0.0081938198 -0.210614 1.39324
0.026772199 -0.208474 1.4075201
0.0118779 -0.21275 1.4119999
0.079453997 -0.233539 1.45906
0.0202775 -0.20572101 1.41686
-0.042048998 -0.19609199 1.39735
-0.056975398 -0.200757 1.40635
0.043447599 -0.195702 1.4349101
-0.026844 -0.19600999 1.42523
-0.062949501 -0.19828101 1.41412
-0.0111327 -0.19187699 1.43882
-0.090884298 -0.189959 1.42844
-0.033757798 -0.181067 1.43976
-0.098388702 -0.17565601 1.43997
0.092621997 -0.166327 1.53066
-0.081292599 -0.140211 1.44871
-0.046976201 -0.116414 1.45559
0.071105704 -0.141782 1.53297
-0.0308636 -0.106778 1.45718
-0.0183773 -0.095231198 1.45567
-0.052749101 -0.109176 1.46479
0.062413301 -0.108459 1.52651
0.0115371 -0.072056703 1.47794
-0.00430984 -0.076519102 1.47939
-0.071033902 -0.071645901 1.46375
0.074745201 -0.084125601 1.56034
-0.074583799 -0.047297198 1.47833
0.030180199 -0.0230156 1.50727
0.0651443 -0.0372185 1.5406801
-0.17431 -0.0969529 1.50607
0.060310699 -0.052629601 1.5633301
-0.0083075101 -0.0140617 1.49765
-0.121116 -0.050058901 1.49553
-0.090688102 -0.0116823 1.48785
0.0300299 0.0295492 1.52493
-0.046874501 0.023285201 1.51486
0.0173329 0.048651699 1.52746
0.0328709 0.0599618 1.53496
0.074937299 0.040085401 1.6112
0.068219103 0.0555798 1.61096
-0.032450199 0.096859299 1.54979
-0.053178102 0.11864 1.54741
-0.063778996 0.123403 1.54462
-0.0466672 0.14055499 1.55843
-0.0330832 0.15640999 1.56183
-0.057568099 0.15708999 1.55908
0.052376099 0.143272 1.62779
-0.044192001 0.165691 1.5683
-0.067141101 0.163994 1.56188
0.14788 0.199799 1.64599
0.23540901 0.216849 1.67942
-0.0079057403 0.149253 1.62527
0.194126 0.18604 1.68971
-0.371573 0.44801101 1.23988
0.19378699 0.211394 1.68121
0.223306 0.234037 1.71726
0.0853144 0.168449 1.70433
-0.091450699 0.20877901 1.5975
-0.0223273 0.18596099 1.65666
-0.047198098 0.21143401 1.62841
-0.12627999 0.185929 1.61852
0.033891302 0.17298 1.71683
0.111403 0.207883 1.7372
-0.112013 0.207278 1.64688
-0.23596799 0.192527 1.61979
-0.24653 0.19860201 1.62195
-0.107057 0.200975 1.7045
-0.203564 0.20117401 1.66111
0.065478504 0.25532201 1.78098
-0.299225 0.247283 1.60357
-0.27149799 0.225445 1.63235
0.14361 0.356195 1.78374
-0.0695896 0.24160001 1.74945
-0.286764 0.22498199 1.6598901
-0.05291 0.241648 1.7724299
-0.106248 0.225786 1.75409
0.12299 0.328731 1.81636
-0.123557 0.222488 1.76466
-0.23971599 0.193253 1.72594
-0.31435099 0.23625401 1.6608
-0.069974899 0.27728099 1.78977
-0.26464799 0.204457 1.72825
-0.29447299 0.210657 1.71602
-0.26777101 0.20529 1.74199
-0.299597 0.22444201 1.72008
-0.24879999 0.240758 1.75684
-0.13104001 0.29202199 1.79166
-0.176448 0.28843099 1.77966
-0.33321601 0.250173 1.7309999
-0.146262 0.31247699 1.8028001
-0.342875 0.241042 1.74005
-0.24675401 0.29909301 1.77983
-0.29443601 0.32555401 1.77711
-0.38775399 0.32326299 1.72835
-0.47224799 0.39645299 1.68759
-0.186488 0.31579399 1.8804899
-0.18871 0.344843 1.8650399
-0.18130299 -0.29947901 1.36438
-0.0566906 -0.17099801 1.43748
0.0044241999 -0.043736 1.4857399
0.058450799 -0.029810499 1.53326
-0.091366 0.119794 1.5408
-0.00862958 0.162788 1.5705
0.059907202 0.154273 1.6481
0.238548 0.224481 1.70312
0.065871201 0.175082 1.70257
-0.160082 0.188592 1.62795
0.0105064 0.185008 1.71621
0.018668 0.16143399 1.73629
-0.18544 0.184569 1.63618
-0.134679 0.210025 1.64759
-0.162044 0.20267899 1.66502
-0.161037 0.19542301 1.68972
-0.14052901 0.191872 1.73199
-0.209675 0.211565 1.6903501
-0.23869701 0.211852 1.71315
-0.49009001 0.43872899 1.55363
0.035220601 -0.23090699 1.35539
0.0069812201 -0.214632 1.41245
0.0116188 -0.183502 1.44758
-0.022258 -0.170755 1.44673
-0.073714301 -0.037606299 1.47331
-0.048299901 -0.0092052398 1.50179
-0.0836666 0.0455807 1.51632
0.0306994 0.126748 1.57997
-0.064734399 0.120566 1.5448999
-0.079254799 0.160239 1.55682
-0.15673301 0.190815 1.74034
-0.182386 0.190613 1.74037
-0.172547 0.25433299 1.74066
-0.187925 0.22887 1.76113
-0.172208 0.25755 1.7723
-0.22291 0.26631799 1.7732199
-0.33488399 0.29538301 1.72785
-0.280891 0.31978199 1.7864799
-0.128681 -0.279704 1.08679
-0.140678 -0.27079099 1.10886
0.040516999 -0.18003599 1.45288
-0.055550098 -0.090962604 1.46366
-0.085515402 -0.082409203 1.46401
0.0031717799 -0.050410401 1.48944
0.0175064 0.181475 1.6286401
0.144962 0.24300499 1.7033401
-0.185462 0.182675 1.63871
-0.118148 0.209086 1.68059
-0.220553 0.20648199 1.67053
-0.112786 0.198176 1.7435499
-0.26630601 0.214081 1.68302
-0.52383602 0.45343399 1.50712
-0.289105 0.44561699 1.28692
-0.118834 0.19532099 1.74359
-0.082026802 -0.075387798 1.4631
0.18101799 -0.29453599 1.14145
0.15152299 -0.281735 1.1269701
-0.113817 -0.282336 1.11051
0.15613399 -0.286342 1.15593
0.14580201 -0.28444201 1.15193
-0.167338 -0.26681399 1.0941401
-0.109336 -0.25833601 1.09782
0.14543401 -0.278501 1.16466
0.105843 -0.379897 1.45464
0.10089 -0.373438 1.4608099
0.111001 -0.37251401 1.4701999
0.090936199 -0.36730301 1.47252
-0.18759701 -0.353809 1.4311399
-0.201682 -0.35281101 1.42567
0.118827 -0.360006 1.4845099
0.118553 -0.34705201 1.49217
0.085477099 -0.331494 1.48516
-0.178461 -0.31598601 1.44223
-0.19407301 -0.315943 1.4438
0.0841958 -0.31768301 1.48722
-0.186215 -0.31150699 1.44701
-0.197227 -0.30568501 1.44779
-0.027650701 -0.20122699 1.35742
0.0089526996 -0.216437 1.38984
-0.00069824501 -0.21452001 1.38692
0.0031552799 -0.210814 1.39582
0.096213602 -0.293161 1.50116
-0.021896699 -0.191568 1.37139
-0.0411763 -0.20734 1.3866
-0.018693199 -0.218742 1.42463
-0.069550402 -0.20473801 1.40267
-0.042475201 -0.198908 1.4115
0.094724096 -0.260382 1.4994299
0.0355363 -0.203265 1.42985
-0.0334442 -0.200059 1.41783
0.076457702 -0.23500501 1.47317
-0.0112371 -0.186031 1.41926
-0.0473225 -0.191191 1.41828
-0.057214901 -0.192332 1.4175
0.024693901 -0.19444799 1.44392
0.095668502 -0.24767201 1.51184
-0.021282 -0.18355601 1.4303499
-0.053661998 -0.18393099 1.42703
-0.0476695 -0.187263 1.43613
-0.141151 -0.194699 1.43064
0.10334 -0.239748 1.51781
0.091791503 -0.23615099 1.51218
-0.0473493 -0.172273 1.43814
-0.069476098 -0.17344999 1.4384
0.096667297 -0.228953 1.5211101
-0.093172297 -0.172171 1.43527
-0.16688199 -0.180998 1.43643
-0.043705199 -0.166621 1.4427
-0.055138901 -0.156394 1.44135
0.077860698 -0.2033 1.51419
0.085031196 -0.19769201 1.52227
-0.045055501 -0.129953 1.4379801
0.0157398 -0.13458399 1.45498
-0.044720098 -0.126544 1.44909
-0.033498298 -0.122842 1.45461
-0.053885799 -0.114442 1.44397
0.074373402 -0.16785 1.5226001
-0.060625799 -0.104469 1.45328
-0.00315179 -0.102463 1.46527
-0.041772101 -0.102007 1.4595
-0.0122281 -0.099398397 1.46699
-0.032387901 -0.097910501 1.46421
0.095310301 -0.16017801 1.5432
-0.0284782 -0.082317598 1.46296
-0.038792901 -0.089737199 1.46883
-0.059524301 -0.088569701 1.46503
-0.0134132 -0.0794404 1.47236
0.076393202 -0.136713 1.54379
-0.0142643 -0.067224696 1.47956
-0.15573201 -0.112768 1.49819
-0.180742 -0.126597 1.50799
0.076152503 -0.120366 1.54739
0.0170699 -0.048777699 1.48838
-0.055675302 -0.0473007 1.47991
0.083339103 -0.106855 1.5579
-0.0083413096 -0.0435591 1.49011
0.096087098 -0.107509 1.5638
-0.075859502 -0.0337498 1.48247
-0.067099303 -0.0307713 1.48794
-0.142829 -0.061484002 1.51098
-0.050014898 -0.0112507 1.49999
0.077685401 -0.086641103 1.58111
-0.0239037 -0.0074007101 1.50524
-0.0135507 0.00068529299 1.51135
0.075220004 -0.046800599 1.57511
-0.18879201 -0.0561601 1.53968
-0.055662502 0.0224656 1.5078501
-0.065008096 0.027863299 1.5114501
-0.185982 -0.036480501 1.5462101
-0.042237598 0.040903799 1.51847
0.082401402 -0.019628501 1.59032
-0.089274898 0.042732701 1.51364
-0.078283302 0.045751099 1.51853
0.0913627 -0.0176706 1.60121
0.00517892 0.055968199 1.53196
-0.053038798 0.059282798 1.5231
0.017317601 0.0608107 1.5357701
-0.083986901 0.060866199 1.5247999
0.021877 0.082023203 1.5354
-0.0089830998 0.082777299 1.5397
0.091878198 0.0177154 1.61122
-0.081689902 0.100785 1.52856
0.0122608 0.089841202 1.5614901
-0.054559 0.102386 1.5451601
0.058525499 0.06188 1.60516
-0.0217703 0.117022 1.55326
0.0190371 0.12815 1.5614001
-0.088953704 0.142538 1.54988
-0.076817103 0.158712 1.55765
-0.18216 0.107626 1.60075
-0.189403 0.132116 1.61494
0.078183301 0.151952 1.65494
0.041777 0.15020099 1.65516
-0.14463501 0.16559 1.61087
-0.18240701 0.14203601 1.62044
-0.068039402 0.219473 1.60391
-0.14421 0.185698 1.61247
