ply
format ascii 1.0
element vertex 1790
property float x
property float y
property float z
end_header
4.01623 -1.54146 6.13494
4.08477 -1.41596 5.52475
3.37785 -1.75833 6.99083
3.2293 -1.78023 7.13164
2.43289 -1.67839 6.8505
2.56193 -1.40935 5.71343
4.19682 -1.34348 5.75972
3.73541 -1.36365 5.87279
3.25243 -1.45649 6.31177
3.60458 -1.31473 6.02518
3.3711 -1.31867 6.04994
4.00969 -1.29075 5.99334
3.1011 -1.11517 5.46774
3.0251 -1.05521 5.5755
1.71595 -1.05617 5.41715
-0.239953 -0.279193 1.31911
0.086987 0.0116285 1.24008
-0.196766 -0.0102608 1.1465
-0.36408 0.252018 1.68719
-0.272991 0.268036 1.52921
0.0156797 0.313613 1.3101
0.0886117 0.370812 1.29566
-0.0661806 0.360092 1.28553
-0.314993 0.333841 1.39942
-0.209326 0.347726 1.30756
-0.0801038 0.378601 1.28013
0.0360014 0.414229 1.279
-0.573825 0.37473 1.71139
-0.397174 0.360672 1.45973
-0.348844 0.368955 1.42978
-0.313238 0.359487 1.36699
0.0189884 0.430378 1.26601
-0.384648 0.381937 1.43677
-0.378658 0.395352 1.41528
-0.109587 0.430213 1.2709
0.00811901 0.461547 1.23812
-0.283106 0.405579 1.30748
-0.403963 0.407958 1.41546
-0.112359 0.454081 1.245
-0.434469 0.424851 1.41153
-0.236883 0.463666 1.23408
-0.47758 0.493462 1.43472
-0.403116 0.44675 1.25137
-0.486991 0.515947 1.39035
-0.320624 0.512072 1.20681
-0.415322 0.525646 1.24511
-0.165315 0.600027 1.16868
4.04701 -2.00784 5.88881
4.03834 -1.94925 6.08579
3.99095 -1.83741 5.71281
3.24335 -1.38577 6.25486
-0.202023 -0.121715 1.38486
0.098217 0.0687605 1.25548
0.123887 0.27646 1.30962
0.0307005 0.284553 1.32031
-0.317511 0.321205 1.45453
-0.0890008 0.375957 1.31446
-0.205458 0.358575 1.2937
-0.410264 0.379963 1.45613
-0.0371789 0.416622 1.25977
-0.332476 0.387704 1.37185
0.0622468 0.477391 1.19794
-0.357122 0.431927 1.34013
-0.383186 0.448026 1.28109
4.14527 -2.20021 5.87347
4.17282 -2.00224 5.50881
3.89559 -2.16592 6.11972
4.09412 -1.99267 5.58851
3.3227 -2.3738 7.02227
3.58541 -2.35993 6.99291
4.09117 -2.04019 6.10919
3.50634 -2.30236 7.22448
3.79282 -2.25532 7.05081
3.90102 -2.03049 6.32723
3.98313 -1.94255 6.20377
3.85659 -1.76901 5.67715
3.59608 -2.0687 6.9759
4.14773 -1.69266 5.64125
3.87444 -1.68712 5.87103
4.02626 -1.64078 5.70703
3.8192 -1.7921 6.36184
3.36315 -1.71182 6.22783
3.25957 -1.77642 6.53075
3.51939 -1.9622 7.39968
3.73591 -1.63134 6.19518
3.5888 -1.62809 6.23481
2.55771 -1.3722 5.27565
3.16434 -1.7434 7.03124
4.52385 -1.41709 6.13271
3.82433 -1.38996 5.96126
3.27718 -1.45029 6.33041
3.6286 -1.33457 6.06612
3.23994 -1.29646 5.88724
4.589 -1.34664 6.39336
4.82314 -1.1905 6.13989
3.08868 -1.10445 5.43694
3.34799 -1.1122 5.52581
3.03069 -1.04073 5.60445
3.20583 -0.951449 5.26171
-0.171839 -0.284981 1.32485
-0.194302 -0.193651 1.35203
0.0942712 -0.111412 1.19954
-0.196442 -0.0854932 1.11592
-0.261009 0.0246729 1.54244
-0.344487 0.267719 1.74416
0.261698 0.356294 1.34446
-0.318956 0.275995 1.55052
-0.45844 0.32084 1.8143
-0.523268 0.317976 1.84343
-0.0124521 0.343564 1.28114
-0.270923 0.325353 1.3753
-0.404536 0.320332 1.47667
-0.0632976 0.360003 1.28698
0.121226 0.419932 1.27049
-0.48639 0.377618 1.67548
-0.347823 0.369523 1.4308
0.175724 0.457941 1.25677
0.130426 0.47597 1.26828
-0.0878437 0.434117 1.26486
0.0146969 0.469458 1.2453
-0.36235 0.41347 1.37964
-0.171646 0.431483 1.25751
-0.113445 0.454054 1.24428
-0.432444 0.418625 1.3995
-0.395866 0.423465 1.36283
0.0880532 0.555479 1.24933
-0.237079 0.461912 1.23097
-0.415642 0.449316 1.34353
-0.336401 0.451578 1.27027
-0.216622 0.47319 1.22491
-0.0777336 0.517791 1.22562
0.034317 0.561428 1.24266
-0.399551 0.449234 1.25253
-0.222074 0.503245 1.24213
-0.397745 0.484846 1.25724
3.40466 -2.26734 7.05561
3.85525 -2.0303 6.30378
3.74716 -2.10616 6.69845
4.12759 -1.67878 5.5932
3.32192 -1.44845 6.33609
2.80101 -1.01496 4.93594
3.36253 -0.942638 5.48506
-0.253137 -0.0192665 1.54467
0.0382903 0.128944 1.29685
0.113688 0.318894 1.31287
-0.242519 0.342743 1.3402
-0.261908 0.380374 1.31566
-0.223944 0.393651 1.29725
-0.165566 0.403797 1.27027
-0.326413 0.412992 1.36017
-0.168087 0.435435 1.25877
-0.456468 0.458581 1.48595
-0.130184 0.467813 1.22215
-0.202684 0.474086 1.24126
-0.0843002 0.522857 1.24063
-0.313688 0.446714 1.21835
-0.443292 0.475562 1.38006
-0.144458 0.509245 1.22026
3.57456 -2.01688 6.99759
4.0157 -1.58928 5.6878
3.1402 -1.59811 6.2748
-0.222746 0.115027 1.51431
0.115454 0.315075 1.31676
-0.304912 0.42936 1.3227
-0.264085 0.480995 1.22116
3.33788 -1.46697 6.3219
3.10235 -1.06514 5.33832
-0.254092 -0.0343087 1.55034
-0.231364 0.0170817 1.55439
-0.00318185 0.301097 1.31337
-0.368233 0.300447 1.52303
-0.245452 0.33819 1.33926
-0.253759 0.383113 1.31463
-0.322575 0.415152 1.35821
3.73364 -2.86277 5.22571
3.75836 -2.79786 5.35627
3.91491 -2.77907 5.32316
3.84654 -2.76623 5.34347
3.94142 -2.67603 5.49471
8.15342 -3.8861 8.22659
12.1221 -4.26289 9.3108
4.08469 -2.16365 5.80877
8.55495 -2.25967 6.8864
7.97441 -2.31634 7.10547
8.52877 -2.18522 6.6822
9.36151 -2.27259 7.02117
3.99636 -2.00508 5.99177
8.39713 -2.11862 6.74662
4.04846 -1.98388 6.33413
8.65208 -2.02441 6.85957
8.96826 -2.00209 6.89065
8.60987 -1.66411 6.46381
7.87846 -1.79153 7.41835
7.68914 -1.31044 6.32199
3.81954 -1.37778 6.01024
3.58278 -0.990301 5.30232
-0.184944 -0.300931 1.32452
0.120864 -0.223137 1.09519
-0.237559 -0.295463 1.30636
0.118692 -0.196437 1.1135
0.113708 -0.184645 1.11937
-0.207402 -0.207166 1.06208
-0.154992 -0.175832 1.25046
-0.210855 -0.186665 1.36026
-0.192035 -0.158776 1.06709
-0.223989 -0.180864 1.36417
-0.202407 -0.158823 1.07562
-0.213091 -0.172253 1.36809
-0.171905 -0.152369 1.3222
-0.227468 -0.135065 1.38781
-0.176476 -0.0985757 1.2869
-0.181064 -0.0993544 1.26443
-0.18396 -0.0751691 1.12287
-0.191801 -0.0757271 1.38506
-0.224058 -0.0677642 1.41241
-0.227369 -0.0572849 1.45361
-0.194679 -0.0239732 1.14125
-0.185603 -0.010583 1.19011
-0.1865 -0.000234884 1.41963
-0.205008 -0.00284258 1.16013
-0.20086 0.0230893 1.16402
-0.210423 0.0291671 1.21918
-0.205133 0.0305721 1.18043
-0.199794 0.0466488 1.19466
-0.197404 0.0698078 1.45925
-0.182589 0.0770732 1.41244
-0.179183 0.0985602 1.46216
-0.181409 0.129397 1.45293
-0.193898 0.107563 1.19265
-0.219071 0.131314 1.48422
-0.211581 0.144189 1.49662
-0.193043 0.137405 1.33898
-0.204414 0.121682 1.21024
-0.208235 0.13594 1.21667
-0.214695 0.141708 1.22963
-0.264303 0.195829 1.73956
-0.258124 0.179735 1.53873
-0.181924 0.193361 1.46128
-0.206078 0.164257 1.22911
-0.200414 0.185794 1.27824
-0.204416 0.193151 1.23915
-0.227179 0.215441 1.4222
0.0877341 0.303567 1.32749
-0.236875 0.217265 1.45099
0.271183 0.369607 1.32683
0.0397261 0.305414 1.3253
-0.239196 0.236074 1.43104
-0.215783 0.238617 1.40381
0.136376 0.341453 1.30636
-0.31781 0.245313 1.65162
-0.31356 0.262572 1.5856
-0.299929 0.261709 1.5511
-0.292428 0.266198 1.51873
-0.113475 0.296491 1.29843
-0.317399 0.284428 1.53582
-0.230331 0.287992 1.38027
-0.386854 0.282248 1.58123
-0.0273228 0.356207 1.29089
-0.202787 0.312388 1.31514
-0.225919 0.314617 1.37524
-0.383751 0.298233 1.55806
-0.0200927 0.373042 1.277
-0.335394 0.318236 1.48523
-0.395585 0.308051 1.54287
-0.238711 0.328711 1.35646
-0.202212 0.331454 1.30804
-0.407974 0.360602 1.73874
-0.399685 0.313832 1.50063
-0.316569 0.346051 1.46545
-0.208258 0.352134 1.30987
-0.38972 0.325894 1.49288
-0.327315 0.346214 1.40407
-0.404572 0.342474 1.50243
-0.273516 0.357017 1.33584
-0.446404 0.33822 1.49025
-0.159569 0.404265 1.26354
-0.435436 0.357638 1.47028
-0.356017 0.379382 1.40877
-0.289782 0.392295 1.33202
-0.345148 0.39169 1.39724
-0.326604 0.387495 1.36019
-0.27591 0.397558 1.30748
-0.54379 0.400194 1.67812
-0.249515 0.424505 1.2876
-0.35849 0.407044 1.37608
-0.425681 0.401654 1.43731
-0.368564 0.407556 1.3794
-0.46338 0.402183 1.46937
-0.399368 0.41155 1.4017
-0.437325 0.406165 1.42317
-0.464004 0.428482 1.48454
-0.392476 0.428581 1.35161
-0.455899 0.432921 1.43897
-0.361021 0.444528 1.3307
-0.526536 0.444553 1.54491
-0.409254 0.43885 1.36036
-0.45712 0.449372 1.44477
-0.414929 0.446281 1.34993
-0.403046 0.448083 1.34198
-0.401353 0.454888 1.29871
-0.40731 0.473836 1.3423
-0.441202 0.50612 1.43409
-0.437203 0.513083 1.35212
-0.377185 0.506439 1.25003
-0.424085 0.518272 1.3432
-0.586234 0.486882 1.42779
-0.447343 0.535978 1.31743
-0.451256 0.519874 1.27305
3.82982 -2.83774 5.24636
3.8194 -2.76001 5.46494
4.0175 -2.75307 5.54235
8.48947 -4.03881 8.27589
11.0551 -4.51728 9.73349
7.81427 -3.76624 8.19073
3.98118 -2.44952 5.73138
8.4589 -3.11419 7.39617
8.26059 -3.39394 8.18801
8.20717 -3.09829 7.66745
3.96858 -2.31342 5.87126
8.39447 -2.99211 7.70224
8.64121 -2.96602 7.61346
7.66115 -2.87729 7.62102
8.52672 -2.51814 6.89157
9.17566 -2.36786 6.89931
4.51145 -1.9707 5.82614
8.5461 -2.23519 7.05073
9.28271 -2.20109 7.13893
8.11145 -2.1816 7.07383
8.00345 -2.34801 8.2958
8.00373 -2.28363 8.06264
9.20111 -1.99907 7.37645
8.7893 -2.01161 7.62734
8.12925 -2.15167 8.4738
8.09872 -1.81336 7.32243
8.31883 -1.76502 7.15702
4.06885 -1.51807 5.80632
7.29771 -1.83765 7.6878
6.89649 -1.39756 6.16324
3.94513 -1.43621 5.92099
4.18538 -1.43037 6.02182
7.17954 -1.28175 6.16094
6.74316 -1.35675 6.62965
-0.163467 -0.161129 1.31296
-0.188164 -0.0952519 1.38881
-0.181516 0.00894425 1.43343
-0.183126 0.132886 1.49357
-0.205222 0.192282 1.4951
-0.261365 0.209808 1.55411
0.104576 0.362956 1.29039
-0.384096 0.284501 1.69496
-0.333512 0.305038 1.51092
-0.204577 0.311861 1.30031
-0.219707 0.320279 1.32546
-0.172355 0.329402 1.32006
-0.378061 0.315442 1.51058
-0.271612 0.326035 1.36663
0.21532 0.492642 1.23131
-0.528156 0.342051 1.65777
-0.00553975 0.466985 1.26115
-0.444233 0.36922 1.48506
-0.337362 0.411707 1.36431
-0.529944 0.417564 1.62056
-0.323709 0.432059 1.32791
-0.317499 0.426874 1.23272
-0.483473 0.428167 1.42569
-0.558478 0.43698 1.55002
-0.381454 0.432704 1.27967
-0.386785 0.453486 1.31814
-0.417772 0.453765 1.34274
-0.462908 0.487944 1.39596
-0.409509 0.502958 1.32928
-0.444767 0.521715 1.3649
-0.38514 0.503178 1.23666
4.05169 -2.24007 5.8822
6.27695 -1.51553 6.27724
-0.176625 0.104325 1.45982
-0.210736 0.124558 1.23087
0.0980127 0.242473 1.29712
-0.250621 0.194667 1.77672
-0.229475 0.186352 1.51585
-0.186341 0.179812 1.39256
-0.305219 0.213271 1.72872
0.21112 0.423772 1.25092
-0.0667977 0.345655 1.29346
-0.0444411 0.391338 1.2669
-0.181709 0.389521 1.27663
-0.350143 0.367828 1.42739
-0.299555 0.374357 1.34502
-0.411865 0.366918 1.46842
-0.196505 0.414895 1.27255
-0.256968 0.402617 1.29858
-0.417096 0.422017 1.31246
0.0198898 0.59798 1.2438
0.0189427 0.59228 1.19519
8.18089 -3.92739 7.99016
11.4709 -4.32415 8.72492
11.7722 -4.62972 9.48706
10.2665 -4.28627 8.82934
10.2056 -4.0961 9.37529
8.2519 -3.23416 7.49185
8.3856 -3.09622 7.35829
7.4893 -3.28025 8.00619
7.66003 -3.12255 7.58953
8.20406 -3.11153 7.68943
4.16008 -2.36659 5.82314
8.3285 -2.9783 7.62528
8.59216 -2.95033 7.55916
7.73473 -2.90847 7.67504
8.60052 -2.69821 7.03253
8.52446 -2.50522 6.92368
5.98516 -2.34038 6.66415
8.03274 -2.46347 7.31491
4.19919 -1.80371 5.36989
8.52752 -2.21403 7.04923
8.18525 -2.22787 7.11854
7.98003 -2.36441 8.28275
7.96351 -2.27114 8.00762
8.98071 -1.94505 7.22339
8.61019 -1.98501 7.50178
8.29823 -2.18485 8.55891
3.92734 -1.52975 5.78931
6.80406 -1.59687 6.72943
7.34749 -1.82444 7.72667
6.86937 -1.44285 6.31105
4.09312 -1.4049 5.96434
6.86663 -1.37443 6.77668
0.0625475 0.319688 1.32739
-0.456322 0.265453 1.98978
0.00638512 0.349001 1.29836
0.0734185 0.402687 1.27412
-0.212016 0.321002 1.33267
-0.477204 0.34322 1.89474
-0.230923 0.331946 1.35096
-0.129514 0.393157 1.26655
0.012142 0.466714 1.24032
0.0637074 0.485674 1.23419
-0.328568 0.374226 1.38446
-0.344548 0.380323 1.40403
-0.413306 0.392289 1.43237
-0.322736 0.414024 1.35738
-0.320793 0.434893 1.34154
-0.411842 0.431983 1.37482
-0.307737 0.443795 1.2224
-0.38703 0.442415 1.33346
-0.43544 0.477727 1.38545
-0.478502 0.492148 1.43416
-0.448829 0.516074 1.36002
8.15134 -2.80297 7.13303
8.29349 -2.33135 7.57466
7.8506 -2.328 8.49944
4.86389 -1.19142 6.17177
-0.301624 0.202358 1.49461
-0.210469 0.282461 1.38103
-0.211838 0.309599 1.32986
-0.362242 0.312444 1.53556
-0.40644 0.337571 1.48413
-0.347336 0.367848 1.42549
-0.448178 0.407645 1.63044
-0.385157 0.391978 1.41634
-0.387255 0.425419 1.37728
3.93087 -1.82143 5.22132
-0.304963 0.356922 1.36724
-0.242453 0.472877 1.28143
-0.335961 0.462647 1.29004
7.71605 -2.67118 7.38025
6.71303 -1.22289 6.77808
0.0664943 0.341234 1.29963
0.222683 0.401149 1.25884
-0.205229 0.302141 1.33407
0.044584 0.377291 1.2338
0.185252 0.431831 1.25447
-0.0297191 0.399283 1.26955
-0.188178 0.361546 1.30453
-0.334715 0.372639 1.43013
-0.0948669 0.429965 1.26676
-0.299893 0.385758 1.32875
-0.387164 0.393271 1.41615
-0.0500066 0.475975 1.23821
-0.251123 0.324313 1.35135
9.51834 -3.41929 5.27296
10.9856 -3.41312 5.04416
9.9186 -3.51429 5.57204
11.3775 -2.82905 6.43684
10.2434 -2.17953 5.33258
10.2147 -2.03156 5.38368
10.3156 -1.7858 5.32305
8.97352 -1.4739 5.52865
11.87 -1.51835 6.57635
8.90774 -0.995851 4.78742
9.27816 -1.17031 5.38425
8.40264 -1.57328 6.6347
11.9005 -1.60551 7.49395
10.6709 -1.47893 7.13663
8.8249 -0.795839 4.71558
12.2568 -1.00993 6.78633
7.5134 -0.587956 4.02251
-0.21139 -0.169872 1.07151
-0.158537 -0.178951 1.28314
-0.153391 -0.168983 1.26736
-0.163635 -0.16137 1.2508
-0.183944 -0.149026 1.34608
-0.166843 -0.113847 1.26666
-0.162363 -0.112359 1.29278
-0.171874 -0.0973869 1.30448
-0.16028 -0.087672 1.32249
-0.197055 -0.102285 1.40422
-0.174777 -0.0842156 1.27626
-0.183366 -0.0764437 1.32544
-0.193424 -0.0668902 1.22816
-0.17737 -0.0737395 1.36279
-0.167523 -0.064823 1.31614
-0.205485 -0.0654623 1.20017
-0.197493 -0.0751392 1.35753
-0.243467 -0.0850729 1.39576
-0.179434 -0.0551238 1.18684
-0.229796 -0.0536928 1.4029
-0.177677 0.00327369 1.38995
-0.175382 0.00415871 1.37289
-0.200369 0.0137966 1.16336
-0.176024 0.014805 1.40598
-0.17696 0.0210291 1.35794
-0.173139 0.0495561 1.39239
-0.171672 0.0793945 1.37775
-0.182483 0.0836605 1.46307
-0.235781 0.0760883 1.46924
-0.174671 0.102697 1.38276
-0.159128 0.123939 1.41254
-0.177854 0.12359 1.43313
-0.177431 0.147119 1.41397
-0.173284 0.193773 1.42031
-0.217102 0.20079 1.41119
-0.270001 0.215775 1.67613
-0.232334 0.228847 1.41662
-0.208971 0.244363 1.28832
-0.265565 0.234805 1.49249
-0.23957 0.244459 1.45185
-0.234998 0.247718 1.3939
-0.256566 0.253872 1.57707
-0.281222 0.250074 1.58665
-0.220668 0.262232 1.31532
-0.301072 0.245046 1.60469
-0.30996 0.268571 1.56882
-0.235736 0.292928 1.36389
-0.353666 0.279754 1.58333
-0.343116 0.312678 1.50029
-0.170924 0.376631 1.28009
-0.394805 0.308353 1.54493
-0.335552 0.328261 1.45861
-0.31619 0.34955 1.38174
-0.290411 0.364224 1.36149
-0.255437 0.37762 1.31372
-0.284809 0.380349 1.32878
-0.432647 0.332807 1.5265
-0.234871 0.40036 1.27093
-0.430493 0.373023 1.70715
-0.438484 0.341977 1.53324
-0.296665 0.395508 1.34513
-0.482423 0.376495 1.71241
-0.360237 0.39319 1.39751
-0.617093 0.324965 1.82393
-0.41057 0.378915 1.45029
-0.260358 0.434609 1.29304
-0.551088 0.35613 1.74907
-0.34232 0.407122 1.36637
-0.544492 0.3667 1.7184
-0.459745 0.391759 1.59515
-0.46178 0.37752 1.50071
-0.271501 0.446826 1.27775
-0.380288 0.411683 1.3778
-0.517057 0.38999 1.67954
-0.395612 0.419101 1.37911
-0.471679 0.401182 1.48461
-0.398383 0.427744 1.36186
-0.409494 0.425236 1.36759
-0.398325 0.439468 1.34545
-0.40184 0.462702 1.31408
-0.558982 0.433815 1.55041
-0.398417 0.50655 1.31683
-0.501815 0.484263 1.4319
-0.487221 0.502186 1.43357
-0.434341 0.524287 1.34483
-0.408755 0.562798 1.25343
13.1642 -4.56208 7.8401
10.4229 -3.80376 7.02255
13.9329 -4.4398 8.07967
10.9032 -3.74294 7.39114
14.1635 -3.63025 7.34257
11.7405 -2.79996 5.53277
12.3659 -3.7406 7.85797
12.499 -3.01823 6.06567
10.325 -2.71616 5.85301
10.7104 -2.4611 7.37612
9.88794 -1.80175 5.64433
9.51479 -1.53804 4.89588
9.21336 -1.5479 5.28957
9.1645 -1.28085 4.75623
11.0543 -1.97537 7.55573
8.83708 -1.45646 5.62487
9.67503 -1.41852 5.75254
8.30515 -1.56656 6.58128
9.09435 -1.32791 6.00093
8.48242 -0.838347 4.46816
9.56343 -0.903566 5.32713
10.635 -1.38497 7.5073
5.29338 -0.615757 3.64231
7.19344 -1.00351 6.41812
-0.157718 -0.143067 1.28221
-0.161482 -0.133006 1.26217
-0.179367 -0.115146 1.25918
-0.167999 -0.0951889 1.29017
-0.180748 -0.0540049 1.24565
-0.183306 0.0361093 1.44566
-0.177399 0.224236 1.4054
-0.270085 0.288848 1.43919
-0.316437 0.292291 1.48397
-0.39845 0.308158 1.86125
-0.371407 0.334581 1.83977
-0.519081 0.312041 1.84998
-0.24134 0.394944 1.29027
-0.327802 0.373332 1.38717
-0.319216 0.412357 1.35377
-0.33263 0.421618 1.33683
-0.453709 0.41055 1.47603
-0.627698 0.357204 1.65552
-0.524425 0.442126 1.54617
-0.485494 0.456151 1.50537
-0.450773 0.470484 1.42551
-0.425256 0.487969 1.35646
-0.403674 0.495589 1.33005
-0.58961 0.436964 1.55093
14.3118 -4.40602 7.40657
9.81234 -2.11332 5.03039
9.29351 -1.49853 6.20843
-0.182023 -0.158394 1.35567
-0.187199 -0.0322505 1.25061
-0.200707 0.00499604 1.41594
-0.180038 0.149458 1.43303
0.266588 0.37037 1.31585
-0.161239 0.40237 1.26292
-0.336873 0.35556 1.44209
-0.274855 0.41774 1.29709
-0.354582 0.417552 1.35742
-0.368624 0.420821 1.36624
-0.550737 0.393893 1.6654
-0.454454 0.429045 1.45748
-0.407276 0.470296 1.31736
-0.429274 0.516355 1.35596
12.1632 -2.78828 6.28021
10.3921 -2.65824 7.35693
10.8159 -2.49089 7.42696
9.92232 -1.81063 5.65672
10.8516 -1.81425 5.76792
10.3861 -1.74652 6.06112
9.84493 -1.61453 5.54973
8.14637 -1.54881 6.28597
8.0912 -1.54915 6.46097
8.95999 -1.31174 5.94268
9.12187 -1.43933 6.71327
9.13658 -1.39622 6.96403
9.57266 -0.891886 5.33062
-0.24045 -0.0655422 1.52866
0.198474 0.340412 1.29359
-0.223539 0.220745 1.4174
-0.203497 0.290016 1.36932
-0.330821 0.308778 1.51207
-0.0965222 0.427735 1.26403
-0.346489 0.348294 1.45725
-0.427294 0.349332 1.51457
-0.378969 0.382438 1.43532
-0.498691 0.387315 1.70938
-0.423206 0.49083 1.35671
11.6343 -2.27055 6.80994
10.9206 -1.91892 7.45261
-0.104669 0.476407 1.25352
-0.343949 0.303275 1.8421
0.0700237 0.488101 1.22596
-0.211781 0.202176 1.46837
10.1428 -2.72031 3.56114
10.1872 -2.41799 2.84657
10.2282 -2.61403 3.47381
13.4638 -2.4629 4.33468
13.2793 -2.33952 4.15554
13.213 -2.19608 4.18094
13.1634 -1.09192 5.35241
9.13968 -0.290865 2.96949
9.5108 -0.597283 4.10496
7.6947 -0.638387 3.83402
7.27583 -0.468231 3.41683
7.99234 -0.262571 3.62945
-0.251959 -0.342234 1.34582
-0.262111 -0.335478 1.34899
-0.220314 -0.317192 1.33516
-0.248108 -0.302842 1.32125
-0.263462 -0.298253 1.34519
-0.257264 -0.292322 1.32173
-0.265435 -0.284565 1.3608
-0.263105 -0.274721 1.34906
-0.231787 -0.200388 1.37584
-0.162969 -0.123372 1.24901
-0.193337 -0.115528 1.37461
-0.177039 -0.100761 1.34344
-0.202214 -0.0727072 1.18364
-0.18017 -0.0413562 1.21262
-0.164056 -0.0511339 1.32579
-0.174026 -0.051206 1.3508
-0.168709 -0.041057 1.34165
-0.165163 -0.0323206 1.31816
-0.164325 -0.0254253 1.29663
-0.165384 -0.0282465 1.33229
-0.246498 -0.0606803 1.42238
-0.166085 -0.00975096 1.35649
-0.16614 -0.0104308 1.3416
-0.175958 -0.0062711 1.38519
-0.152332 0.0100855 1.33371
-0.243444 -0.0358093 1.436
-0.157925 0.0186324 1.35666
-0.170093 0.014197 1.37111
-0.167525 0.0239976 1.34328
-0.15627 0.0365451 1.36093
-0.17609 0.0244208 1.41578
-0.244418 0.0011611 1.45109
-0.175905 0.0370914 1.41941
-0.166038 0.0433602 1.38479
-0.249531 0.0126653 1.45782
-0.197238 0.0678812 1.24034
-0.166277 0.0692877 1.37381
-0.173618 0.0827833 1.39711
-0.173341 0.115371 1.41616
-0.212318 0.125111 1.26662
-0.175354 0.129423 1.41002
-0.179283 0.15888 1.35714
-0.221146 0.132033 1.45078
-0.176697 0.163214 1.43593
-0.169402 0.183419 1.39092
-0.17898 0.176056 1.46606
-0.212989 0.180598 1.5094
-0.212152 0.199596 1.30664
-0.2307 0.17234 1.54679
-0.2267 0.235963 1.2756
-0.248602 0.221491 1.54212
-0.196733 0.273184 1.35254
-0.243097 0.254172 1.4059
-0.295462 0.223459 1.55176
-0.286974 0.244017 1.52979
-0.247263 0.272417 1.41017
-0.275778 0.244645 1.58433
-0.302954 0.232612 1.64671
-0.308282 0.245357 1.44926
-0.301118 0.246522 1.46981
-0.305884 0.250719 1.58268
-0.226937 0.314447 1.37722
-0.317313 0.259058 1.60403
-0.327818 0.254086 1.8844
-0.309593 0.286484 1.52188
-0.314108 0.296905 1.50274
-0.3309 0.289591 1.5393
-0.352326 0.276663 1.61352
-0.295068 0.341124 1.37836
-0.385754 0.298612 1.55894
-0.314168 0.343061 1.3975
-0.337498 0.349256 1.41407
-0.311772 0.365282 1.34029
-0.451423 0.278138 1.93625
-0.391408 0.320772 1.47509
-0.259492 0.407622 1.29802
-0.421967 0.302873 1.84624
-0.422575 0.316791 1.60551
-0.451352 0.32993 1.55917
-0.392058 0.373452 1.46015
-0.336479 0.411771 1.35271
-0.4542 0.352957 1.53212
-0.3565 0.421943 1.35373
-0.472554 0.365208 1.56055
-0.450699 0.381602 1.47584
-0.442727 0.392483 1.4517
-0.462727 0.389023 1.51468
-0.461651 0.400276 1.5526
-0.580457 0.333265 1.80626
-0.568658 0.341185 1.78372
-0.594118 0.339923 1.78094
-0.438182 0.440742 1.37659
-0.430743 0.444979 1.36173
-0.457512 0.434658 1.47568
-0.449953 0.443426 1.43202
-0.446911 0.4565 1.41226
-0.403774 0.48543 1.33219
-0.518855 0.421998 1.5892
-0.502065 0.448825 1.54656
-0.541823 0.425358 1.58556
-0.465598 0.48148 1.44819
-0.501819 0.505839 1.43277
-0.432002 0.556164 1.28122
9.52995 -2.35257 2.59457
9.73132 -2.54891 3.09327
9.87233 -2.47473 2.88461
9.45061 -2.19067 2.3691
9.98133 -2.51776 3.52212
10.3837 -2.48142 3.36282
11.2737 -2.40399 3.09908
11.7047 -1.87081 3.4493
9.64878 -1.3756 2.62897
13.1034 -1.89237 3.95134
11.8869 -1.14429 3.79072
12.099 -1.32846 4.38701
9.37376 -0.416853 3.09755
7.79897 -0.58136 3.95061
7.58043 -0.425083 4.08095
-0.19249 -0.0984455 1.38252
-0.219935 -0.0403085 1.39085
-0.205061 0.239855 1.34671
-0.231966 0.208499 1.67978
-0.261505 0.206293 1.55804
-0.301151 0.23102 1.6066
-0.301783 0.234926 1.64704
-0.381913 0.298591 1.91113
-0.392352 0.30856 1.86345
-0.384985 0.325997 1.83305
-0.437934 0.326728 1.57738
-0.305121 0.428594 1.3282
-0.380187 0.382366 1.43274
-0.319115 0.445409 1.31402
-0.402395 0.39221 1.43637
-0.455198 0.359263 1.55183
-0.432577 0.390057 1.44253
-0.462373 0.448568 1.46704
-0.421008 0.539837 1.31077
-0.415295 0.54884 1.28689
-0.253492 -0.274158 1.33442
-0.170217 -0.117381 1.28803
-0.190729 -0.0494064 1.34803
-0.172023 -0.0188633 1.24109
-0.172166 0.0188425 1.35914
-0.164701 0.12629 1.37024
-0.22581 0.194597 1.51836
-0.213829 0.257382 1.40162
-0.223496 0.27411 1.38748
-0.324928 0.276226 1.5772
-0.28798 0.349907 1.36222
-0.341918 0.344747 1.41207
-0.420669 0.343953 1.5312
-0.343934 0.456149 1.33717
-0.49135 0.382002 1.51657
-0.459023 0.412666 1.4994
-0.49692 0.401009 1.64159
-0.479875 0.469171 1.47515
11.4977 -2.42022 3.18284
11.9154 -1.7522 3.93819
12.0901 -1.17055 3.80902
9.1477 -0.223028 3.43399
-0.196562 -0.196949 1.34595
-0.187107 0.0104909 1.42452
-0.174255 0.0374978 1.36734
-0.175104 0.0681234 1.43861
-0.179126 0.165442 1.39926
-0.180155 0.248693 1.36764
-0.312207 0.332302 1.39856
-0.362028 0.307283 1.54779
-0.38383 0.295183 1.90422
-0.351549 0.338466 1.47605
-0.410775 0.348839 1.47707
-0.279239 0.436717 1.2965
-0.374311 0.49014 1.28313
12.6852 -1.75573 3.77254
-0.328554 0.298963 1.50165
-0.354752 0.323562 1.53441
-0.287818 0.401347 1.32524
-0.517996 0.319902 1.82762
-0.346418 0.364737 1.41592
-0.188945 0.29093 1.33668
-0.268401 -0.321683 1.34991
-0.262963 -0.271548 1.36037
-0.201399 -0.163484 1.38626
-0.198134 -0.0663111 1.17257
-0.160085 -0.0566669 1.26271
-0.159701 -0.0241248 1.27753
-0.248855 -0.0810062 1.43551
-0.159896 0.0234308 1.30227
-0.178783 0.0301444 1.39722
-0.167056 0.0560513 1.37142
-0.168773 0.0656683 1.34559
-0.16728 0.0781152 1.33389
-0.228161 0.186651 1.56082
-0.246561 0.211046 1.64307
-0.225134 0.351209 1.32868
-0.293876 0.233791 1.61683
-0.160174 0.260236 1.95643
-0.308128 0.30157 1.47068
-0.380031 0.266478 1.63106
-0.373394 0.296632 1.58318
-0.29202 0.309938 1.87649
-0.386015 0.298581 1.62
-0.281612 0.339054 1.8528
-0.402542 0.382193 1.43763
-0.434379 0.338044 1.51793
-0.388589 0.408532 1.41486
-0.464338 0.35401 1.75803
-0.484101 0.436787 1.57967
-0.168853 -0.0768442 1.22949
-0.167746 0.00324288 1.34408
-0.249323 0.19 1.53649
-0.287381 0.240859 1.61541
-0.324505 0.281806 1.55559
-0.363032 0.30482 1.55131
-0.374167 0.417812 1.3956
-0.422086 0.366134 1.68432
-0.444908 0.506883 1.38443
-0.161607 -0.164128 1.29016
-0.188241 -0.0251075 1.20876
-0.184977 -0.0264134 1.23131
-0.172402 0.151259 1.41532
-0.179175 0.285658 1.35961
-0.290689 0.241827 1.53034
-0.35893 0.256659 1.62839
-0.434998 0.356498 1.64451
-0.192139 0.218862 1.50675
-0.331415 0.272257 1.55248
-0.324553 0.275927 1.57715
-0.395925 0.280245 1.6289
-0.331862 0.426716 1.33613
-0.433359 0.31699 1.55578
-0.337703 0.461185 1.28893
-0.420698 0.361057 1.49071
-0.420422 0.517943 1.35809
-0.415682 0.546703 1.2854
-0.421744 0.540851 1.30686
-0.420592 0.539752 1.3354
-0.459406 0.492247 1.41166
-0.247749 0.337559 1.33668
-0.250892 0.32851 1.34885
-0.166721 -0.162691 1.29598
-0.141772 -0.131227 1.24622
-0.164729 -0.099993 1.20664
-0.186817 -0.0993728 1.19726
-0.156903 -0.0893415 1.21507
-0.154995 -0.0891321 1.23057
-0.171342 -0.0767946 1.23889
-0.161948 -0.0754958 1.25052
-0.185348 -0.0727075 1.21789
-0.165652 -0.090322 1.30524
-0.158117 -0.0567726 1.2454
-0.178709 -0.0505122 1.21066
-0.16214 -0.0769712 1.29306
-0.226786 -0.165604 1.43528
-0.159494 -0.0419161 1.30396
-0.188236 -0.010768 1.23189
-0.251647 -0.149577 1.44063
-0.182737 -0.00343884 1.26352
-0.227329 -0.114793 1.46578
-0.16659 0.0432861 1.22426
-0.236474 -0.0925738 1.45986
-0.258409 -0.086666 1.45566
-0.254443 -0.0671977 1.45435
-0.16011 0.0826178 1.27594
-0.159761 0.126697 1.3199
-0.134678 0.131836 1.35924
-0.254712 0.00107241 1.48759
-0.230459 0.00924979 1.50958
0.109649 0.170079 1.68487
-0.167522 0.152691 1.39
-0.167791 0.180901 1.36924
-0.167111 0.202543 1.38085
-0.170545 0.222518 1.39006
-0.225411 0.145029 1.499
-0.1811 0.270214 1.3724
-0.200743 0.231134 1.43612
-0.257789 0.176677 1.5778
-0.25723 0.207845 1.55409
-0.281421 0.241454 1.48898
-0.156102 0.233416 1.70759
-0.292379 0.21984 1.54103
-0.244724 0.213987 1.65961
-0.258868 0.220963 1.62187
-0.311464 0.252282 1.4747
-0.303297 0.251563 1.50211
-0.285076 0.201871 1.62368
-0.300725 0.234258 1.55448
-0.303903 0.232141 1.5692
-0.330198 0.254378 1.49465
-0.271121 0.226816 1.65131
-0.323515 0.278339 1.49186
-0.286269 0.235518 1.63849
-0.068134 0.322425 1.85688
-0.31741 0.247532 1.63743
-0.317709 0.240176 1.65166
-0.109071 0.317409 1.88554
-0.336404 0.287484 1.55292
-0.362324 0.444088 1.33029
-0.351437 0.474253 1.30059
-0.333348 0.268026 1.72645
-0.372968 0.255057 1.68168
-0.391631 0.321616 1.52021
-0.379647 0.331802 1.53832
-0.359218 0.483148 1.28673
-0.393771 0.27251 1.63885
-0.40431 0.322201 1.52436
-0.35372 0.481461 1.32676
-0.405406 0.29264 1.59308
-0.412559 0.328114 1.53021
-0.371656 0.289118 1.69788
-0.413301 0.296567 1.60879
-0.404302 0.421321 1.37984
-0.432474 0.335758 1.50093
-0.42935 0.315475 1.56135
-0.401499 0.399843 1.43729
-0.431366 0.358773 1.48774
-0.423796 0.291389 1.6388
-0.389736 0.321477 1.66613
-0.44091 0.323999 1.5857
-0.445536 0.322845 1.5964
-0.421013 0.321532 1.65716
-0.414628 0.329211 1.68255
-0.457478 0.377385 1.50204
-0.423906 0.339387 1.65303
-0.431251 0.342788 1.63693
-0.419983 0.346308 1.66959
-0.410991 0.537573 1.33098
-0.433854 0.354584 1.6487
-0.445418 0.357069 1.62164
-0.458116 0.526191 1.30257
-0.449899 0.469261 1.42434
-0.445007 0.50803 1.38467
-0.432422 0.534855 1.36787
-0.463957 0.405775 1.57452
-0.511475 0.481609 1.38796
-0.186942 -0.16985 1.34042
-0.148059 -0.0877871 1.19718
-0.172439 -0.127327 1.30314
-0.1886 -0.0650032 1.1732
-0.214862 -0.0227563 1.4365
-0.188911 0.142545 1.26533
-0.16979 0.152463 1.36005
0.155287 0.182008 1.73132
-0.17295 0.165021 1.3986
-0.25418 0.170992 1.58989
-0.0303711 0.294668 1.89678
-0.301638 0.232516 1.6505
-0.28982 0.22971 1.67604
-0.112275 0.272478 1.94179
-0.16147 0.313994 1.86798
-0.356339 0.258465 1.62753
-0.375655 0.278716 1.59205
-0.396233 0.312222 1.50207
-0.381442 0.265675 1.63328
-0.359598 0.493824 1.28235
-0.431315 0.342731 1.51712
-0.401443 0.324452 1.69122
-0.453798 0.50065 1.41345
12.8954 2.47138 -3.40389
-0.225385 0.0564365 1.449
-0.232469 0.227994 1.41693
-0.301266 0.233762 1.5192
-0.315582 0.250738 1.47041
-0.27359 0.222714 1.60729
-0.385879 0.333368 1.47114
-0.418772 0.306828 1.61606
-0.432465 0.309013 1.59862
-0.452162 0.363089 1.5103
-0.464649 0.348859 1.56851
10.4563 2.14655 -2.64034
-0.174979 -0.125162 1.29996
0.134428 0.134583 1.67364
-0.208384 0.196241 1.44181
-0.217197 0.216755 1.68283
-0.313436 0.271549 1.50428
-0.324247 0.442863 1.21757
-0.32358 0.260556 1.61075
-0.309636 0.262981 1.65844
-0.344484 0.243727 1.67821
-0.358082 0.274419 1.59424
-0.362442 0.469179 1.26857
-0.401294 0.353209 1.44762
-0.392711 0.31037 1.57831
-0.384454 0.493218 1.25494
-0.398261 0.275366 1.66476
-0.394613 0.524659 1.32201
0.138751 0.130363 1.6785
-0.201534 0.208329 1.48555
-0.237247 0.191625 1.53456
-0.312149 0.240302 1.56241
-0.322545 0.278283 1.54858
-0.356425 0.262887 1.63249
-0.397244 0.299112 1.58105
-0.280032 0.440101 1.29848
-0.297029 0.470527 1.26676
-0.365772 0.265658 1.59667
-0.226489 0.445644 1.24464
-0.297687 0.317038 1.5056
13.9125 3.34134 -9.46782
12.6177 3.41594 -8.69049
12.8689 3.64186 -8.07666
12.6554 3.7161 -8.23646
11.7359 3.79592 -8.01495
12.7335 3.52217 -6.49394
12.6606 4.15029 -6.15209
13.2592 5.28041 -8.07446
12.8279 5.69755 -7.44201
11.7119 5.56917 -7.39359
12.1735 5.89851 -7.58661
0.106389 -0.230728 1.16136
0.121207 -0.301136 1.3424
-0.209178 -0.309615 1.36049
-0.209781 -0.196623 1.14884
0.074175 -0.226776 1.44652
-0.256859 -0.318455 1.40194
-0.125736 -0.144611 1.21918
0.101379 -0.176737 1.48134
-0.162144 -0.11784 1.19843
-0.156615 -0.11441 1.21449
0.0626953 -0.16618 1.47897
-0.247329 -0.269103 1.43358
0.0546796 -0.143516 1.48869
-0.142858 -0.0505469 1.18192
0.0522081 -0.121725 1.5047
-0.16287 -0.0525076 1.23038
-0.179731 -0.0392651 1.23141
0.0596097 -0.0827006 1.50916
-0.175031 -0.0289181 1.23934
0.0585927 -0.0504882 1.51704
-0.167842 -0.00220713 1.25102
-0.158555 -0.00290983 1.29356
-0.218825 -0.12438 1.45654
-0.250246 -0.122708 1.44559
0.0624156 -0.0172495 1.54438
0.112492 0.0238766 1.57549
-0.194239 0.0577781 1.26006
-0.241377 -0.088085 1.45264
-0.167282 0.117454 1.22947
0.0551076 0.0532604 1.57244
0.0499816 0.0912214 1.58358
0.147043 0.140615 1.62266
0.0665185 0.120483 1.58534
-0.239585 -0.0086685 1.50544
-0.146642 0.220341 1.32344
0.120588 0.172491 1.68197
0.0109711 0.148064 1.61992
0.104436 0.184702 1.68023
0.0169857 0.145713 1.66604
0.18593 0.203906 1.75917
-0.198473 0.160027 1.45072
-0.18234 0.31463 1.27022
0.00647417 0.181686 1.67096
-0.0704192 0.200851 1.685
-0.231032 0.191982 1.51697
-0.0760783 0.18316 1.71127
-0.0946546 0.190317 1.70613
-0.204237 0.441857 1.2621
-0.122476 0.191072 1.71553
-0.249564 0.199728 1.56397
0.151727 0.343237 1.83637
-0.206641 0.197739 1.64164
-0.257246 0.211422 1.58499
0.111425 0.335493 1.85588
-0.272711 0.212807 1.57012
-0.314227 0.440228 1.22388
-0.162379 0.208885 1.71803
-0.195619 0.206343 1.67697
-0.282178 0.216443 1.56788
-0.185341 0.204053 1.70562
-0.239908 0.20769 1.63423
-0.297383 0.22268 1.55326
-0.318489 0.251721 1.48743
-0.321117 0.442777 1.23893
-0.311742 0.24304 1.51763
-0.198245 0.194924 1.73121
-0.340243 0.447184 1.23637
-0.192305 0.21647 1.71492
0.0191691 0.329559 1.82819
0.0336403 0.294695 1.89705
-0.277238 0.247256 1.59389
-0.22989 0.194866 1.72
-0.234704 0.198301 1.70862
-0.2986 0.248683 1.56838
0.0081288 0.310122 1.87781
-0.319463 0.290805 1.50517
0.00415069 0.293014 1.89689
-0.242524 0.207637 1.70891
-0.337274 0.468194 1.27415
-0.331849 0.422496 1.33932
-0.039018 0.321398 1.84074
-0.0576441 0.326208 1.81558
-0.360621 0.4698 1.27638
-0.336367 0.309087 1.5157
-0.34326 0.43887 1.33811
-0.0510649 0.310255 1.91019
-0.106547 0.31746 1.83529
-0.331893 0.248217 1.63976
-0.0700331 0.277693 1.93829
-0.375381 0.443829 1.3528
-0.297315 0.226931 1.72361
-0.333993 0.227946 1.69242
-0.398888 0.412321 1.37989
-0.370035 0.266354 1.60445
-0.359879 0.241668 1.64864
-0.376682 0.274883 1.59765
-0.357282 0.278539 1.62171
-0.405509 0.319847 1.50911
-0.384778 0.286193 1.59299
-0.387296 0.292485 1.58491
-0.431378 0.331682 1.4887
-0.438614 0.356548 1.47408
-0.411696 0.325785 1.54953
-0.424535 0.337275 1.53156
-0.430119 0.351278 1.50597
-0.34214 0.311999 1.68133
-0.204007 0.284188 1.92563
-0.231611 0.333875 1.85073
-0.222571 0.310617 1.89596
-0.377624 0.292616 1.70834
-0.230908 0.332761 1.86524
-0.239404 0.304821 1.89893
-0.261437 0.303872 1.86928
-0.248437 0.353675 1.85181
-0.323417 0.327516 1.78112
-0.341617 0.338413 1.76246
12.9665 3.32016 -8.87594
10.7553 2.63444 -6.67355
11.7608 3.23033 -7.9467
12.8817 3.33874 -7.25255
11.9542 3.63186 -8.0869
12.6263 3.94566 -8.32362
12.7419 4.07642 -8.18264
13.3717 4.46228 -8.45986
12.5095 4.17284 -7.57407
12.2947 4.59404 -8.13009
12.5376 4.40219 -5.9069
12.2843 4.7695 -5.6483
12.9637 6.4078 -7.64943
-0.140062 -0.118891 1.21319
-0.19411 0.0135221 1.27848
0.154113 0.123288 1.63387
0.03428 0.137894 1.61209
0.0117839 0.166619 1.63887
0.1835 0.234419 1.76851
-0.0983734 0.200816 1.69085
-0.152043 0.205953 1.68626
0.0906475 0.292932 1.89461
0.0561184 0.308428 1.87461
0.0240785 0.328856 1.81829
-0.288841 0.467821 1.26806
0.0115204 0.319727 1.85019
-0.300896 0.26073 1.5557
-0.309674 0.271026 1.54475
-0.308524 0.247292 1.58355
-0.266102 0.212873 1.6826
-0.360214 0.472517 1.27112
-0.0421199 0.315814 1.86961
-0.348832 0.326203 1.51068
-0.383387 0.474219 1.30689
-0.407231 0.494222 1.24915
-0.316256 0.225101 1.71281
-0.405973 0.322809 1.58083
-0.352372 0.283307 1.72098
-0.409558 0.284016 1.64972
-0.311615 0.32851 1.7786
-0.476072 0.503255 1.36026
-0.282635 0.340524 1.82388
-0.478808 0.481039 1.43993
12.8814 5.97726 -7.39866
-0.239456 -0.29202 1.39621
-0.188786 0.204485 1.61223
-0.280267 0.228344 1.53528
-0.308274 0.358451 1.36749
-0.0279674 0.311491 1.79973
-0.33743 0.306618 1.53612
-0.37657 0.429341 1.35411
12.0628 3.85255 -7.66152
13.0372 4.38656 -7.91022
12.8662 5.56577 -7.68424
12.2671 4.79564 -5.96728
12.7468 6.29581 -7.55049
-0.188952 0.249573 1.25349
0.192227 0.201831 1.75639
-0.187761 0.211432 1.41387
-0.239019 0.175979 1.49446
-0.255465 0.204615 1.59375
-0.255899 0.239304 1.5739
-0.310327 0.446626 1.23939
0.062237 0.314249 1.87222
-0.309794 0.246781 1.55671
-0.264753 0.218446 1.681
-0.0228744 0.305828 1.89496
-0.0462049 0.310203 1.86796
-0.0694122 0.29658 1.9155
-0.41799 0.401412 1.42798
-0.344543 0.24197 1.71336
-0.424982 0.532688 1.30759
0.0796966 -0.0281911 1.52926
-0.0656882 0.339403 1.81799
-0.293395 0.431284 1.3037
-0.244148 0.181136 1.5412
-0.223489 0.183326 1.54916
9.3327 3.33807 -8.16569
0.0749362 -0.211275 1.4334
-0.14743 -0.131657 1.19738
0.0793731 -0.220439 1.46295
0.0504001 -0.162003 1.46136
-0.239546 -0.218613 1.43566
0.0570842 -0.0410986 1.48911
-0.23239 -0.155347 1.47874
-0.188704 0.0962293 1.18831
0.0147416 -0.00396738 1.51056
0.0614546 0.159016 1.65722
0.00609171 0.156707 1.64542
-0.0611806 0.206408 1.66079
-0.276435 0.187875 1.5388
-0.279328 0.470376 1.29127
-0.334125 0.441688 1.3269
-0.258095 0.213234 1.64892
-0.295736 0.255376 1.60551
-0.418084 0.341983 1.51714
-0.381927 0.293368 1.60093
-0.376823 0.266629 1.65166
-0.464004 0.480634 1.44967
0.05589 -0.107426 1.49436
0.0190145 0.161948 1.59476
0.011086 0.155876 1.66647
-0.11741 0.19139 1.61199
-0.240481 0.451872 1.26446
-0.256494 0.182693 1.5437
-0.301936 0.44777 1.2376
-0.283588 0.425391 1.33634
-0.210561 0.207942 1.69353
-0.349074 0.370004 1.4294
-0.361871 0.41299 1.38053
-0.313292 0.263014 1.60466
-0.322492 0.228093 1.69121
-0.43933 0.41527 1.40782
0.0537691 -0.159297 1.46202
0.000268068 0.156917 1.6371
-0.316498 0.465181 1.29868
-0.282354 0.237002 1.58069
-0.230197 0.211855 1.65615
-0.321695 0.289384 1.50439
-0.313182 0.264269 1.58554
-0.411073 0.38806 1.43442
-0.414824 0.330621 1.62721
0.0370817 0.150616 1.60843
-0.26214 0.46383 1.26115
-0.279141 0.428446 1.33132
-0.295959 0.238597 1.51895
-0.211395 0.206125 1.69185
-0.240938 0.209121 1.68229
-0.299705 0.230224 1.64949
-0.29929 0.226701 1.67626
-0.451796 0.46876 1.4257
-0.248247 0.215413 1.64276
-0.399517 0.346549 1.48172
0.0824599 0.144281 1.63799
-0.0322541 0.183359 1.59238
-0.20422 -0.229274 1.08203
-0.172554 -0.253401 1.1509
0.0705399 -0.363618 1.44678
-0.21994 -0.365747 1.40474
0.0747493 -0.260964 1.46528
0.0726324 -0.256837 1.48039
0.0435221 -0.212634 1.41479
0.0875617 -0.235173 1.47356
0.0848711 -0.221687 1.46699
0.0588113 -0.206965 1.43086
0.0441245 -0.204411 1.41882
0.0490379 -0.199581 1.42758
0.0684453 -0.212369 1.45961
0.0266568 -0.201459 1.42715
-0.0185194 -0.203384 1.42259
-0.00630916 -0.194409 1.41349
0.072416 -0.216898 1.49632
-0.112091 -0.219039 1.42481
-0.0362474 -0.191188 1.43162
0.0803384 -0.187888 1.51034
0.0542412 -0.158555 1.48915
0.0780697 -0.138457 1.4989
0.00287312 -0.120794 1.43634
0.0586157 -0.144681 1.50162
0.00326951 -0.126986 1.45507
0.0523905 -0.105012 1.47432
0.0351112 -0.103077 1.46826
-0.217596 -0.200565 1.4685
0.0549772 -0.0919438 1.49255
-0.075247 -0.0974877 1.45272
-0.0312215 -0.0771624 1.47553
0.0701472 -0.0843196 1.54665
0.042249 -0.0595517 1.50647
-0.035408 -0.0665398 1.48143
0.0684498 -0.0717853 1.55042
0.0593101 -0.0304842 1.5326
0.0145805 -0.0137551 1.50019
0.0317624 0.00512672 1.51447
-0.0584814 -0.0140529 1.4911
0.0821878 -0.00774377 1.57368
0.0867358 0.00764336 1.58288
-0.0401146 0.00918672 1.50628
-0.0623759 0.00502519 1.50461
-0.0498058 0.0143475 1.50808
0.0589628 0.0247418 1.58303
0.00531633 0.0484115 1.52623
-0.0191598 0.037558 1.52492
-0.00190617 0.066089 1.53241
-0.208186 -0.0526936 1.53316
-0.0663482 0.0488805 1.52166
0.040087 0.108593 1.56104
-0.0208476 0.0879881 1.5417
0.0554909 0.0834532 1.60734
-0.222408 0.00573736 1.54081
0.00238722 0.131294 1.55824
0.059717 0.105638 1.61859
0.0408654 0.133432 1.5813
-0.234612 0.00806431 1.54561
0.0670336 0.13529 1.62073
0.0605949 0.144312 1.63592
0.20515 0.178102 1.69658
0.0344059 0.144707 1.63116
0.0424913 0.150106 1.63975
-0.0395457 0.18372 1.57154
0.00727262 0.140582 1.65338
-0.00177197 0.15185 1.63678
0.182125 0.19739 1.72131
-0.0220934 0.180126 1.62558
0.090556 0.173076 1.71521
-0.345549 0.437855 1.21679
0.0322374 0.181221 1.73853
0.00632483 0.201122 1.70533
-0.225115 0.148688 1.61668
-0.0180017 0.1837 1.73616
-0.18556 0.18415 1.63512
-0.15732 0.20209 1.64612
-0.205985 0.183111 1.63497
-0.217155 0.2146 1.61481
-0.039283 0.194465 1.75011
-0.0867727 0.184607 1.72879
-0.207202 0.196825 1.64166
0.00721807 0.230799 1.76397
-0.0786347 0.216308 1.71755
-0.174426 0.206407 1.67041
-0.258448 0.213802 1.6094
-0.219883 0.200538 1.64836
-0.341284 0.313883 1.48418
-0.298431 0.261017 1.56091
0.0225672 0.253871 1.78263
-0.294012 0.242812 1.58442
-0.220963 0.210133 1.66794
-0.0381459 0.240177 1.77107
-0.419155 0.418421 1.39843
-0.0182795 0.272624 1.77074
-0.0954897 0.224703 1.75559
-0.173616 0.193491 1.73967
-0.211186 0.195077 1.71605
-0.369465 0.294267 1.55702
-0.502489 0.543666 1.29953
-0.29602 0.22335 1.67308
-0.231838 0.206874 1.731
-0.27086 0.204231 1.70512
-0.252853 0.207041 1.7186
-0.25159 0.201589 1.73239
-0.0733454 0.29277 1.79611
-0.274634 0.210862 1.71593
-0.124411 0.27666 1.77891
-0.314261 0.191205 1.7125
-0.185718 0.264594 1.77232
-0.225614 0.240208 1.7647
-0.34166 0.248014 1.69841
-0.503943 0.482559 1.43513
-0.223322 0.265663 1.77293
-0.155583 0.308812 1.79356
-0.305606 0.247299 1.73382
-0.335016 0.235862 1.72098
-0.482087 0.465207 1.47796
-0.316961 0.243016 1.73602
-0.238877 0.306774 1.78722
-0.227158 0.31435 1.79242
-0.065501 0.349747 1.89194
-0.361057 0.302212 1.72423
-0.328726 0.302634 1.74837
-0.386682 0.306847 1.70733
-0.307195 0.305666 1.7661
-0.510854 0.450924 1.54057
-0.360446 0.332634 1.74096
-0.576268 0.442946 1.52064
-0.531762 0.43062 1.56857
-0.477144 0.403933 1.63384
-0.501219 0.414531 1.6112
-0.518452 0.421294 1.59429
-0.391239 0.340804 1.73619
-0.554229 0.423227 1.57113
-0.467586 0.393132 1.66954
-0.511903 0.412772 1.63993
-0.532194 0.404489 1.63818
-0.504009 0.396331 1.67657
-0.218216 -0.203679 1.08536
0.0655185 -0.334462 1.44875
0.0663898 -0.238729 1.35178
0.0610068 -0.193593 1.48324
0.0119747 -0.183131 1.44728
0.0239353 0.0179072 1.51133
-0.0684095 0.0502807 1.52307
-0.00744091 0.189298 1.63124
-0.026973 0.209132 1.63108
-0.256651 0.178693 1.5472
-0.255496 0.206295 1.59361
-0.11932 0.208396 1.6832
-0.427267 0.441057 1.30361
-0.20672 0.199074 1.64145
-0.243193 0.217486 1.6601
-0.241563 0.210469 1.68349
-0.141325 0.210706 1.76361
0.0560268 0.328812 1.84135
-0.177064 0.30406 1.79328
-0.162979 0.310151 1.80926
-0.270562 0.276921 1.76348
-0.204724 0.309311 1.79826
-0.307731 0.272492 1.75769
-0.32412 0.27766 1.74926
-0.239407 0.317791 1.79814
-0.344085 0.399108 1.71382
-0.312267 0.328857 1.77942
-0.434228 0.356523 1.6786
-0.170532 -0.321403 1.44355
0.0558296 -0.201294 1.40364
0.0097865 -0.172563 1.42233
-0.0440672 0.0914676 1.54153
-0.0592368 0.183977 1.56781
-0.222335 0.40975 1.27927
0.2145 0.237413 1.73237
-0.0856935 0.213835 1.64829
-0.337242 0.406792 1.3612
-0.285284 0.214313 1.56882
-0.265123 0.200586 1.73112
0.0719512 0.345453 1.89397
-0.340491 0.241325 1.69886
-0.232169 0.287706 1.78252
-0.531736 0.423773 1.56982
-0.377654 0.371695 1.73071
-0.11795 -0.0514667 1.49464
-0.196652 0.239839 1.32227
-0.00590045 0.165983 1.56916
0.00816818 0.159998 1.59544
0.0538532 0.152027 1.65811
-0.306184 0.377383 1.36572
-0.307311 0.479956 1.28844
-0.375963 0.449465 1.27327
-0.330508 0.386571 1.36337
-0.0492833 0.201863 1.72308
-0.146787 0.19059 1.71378
-0.42781 0.458389 1.36224
0.0485414 0.307995 1.81763
-0.206474 0.244449 1.76724
-0.488343 0.460552 1.46485
-0.419611 0.340595 1.58979
-0.25389 0.264677 1.76127
-0.163171 0.306205 1.81018
-0.273516 0.27719 1.7629
-0.200116 0.317271 1.79488
-0.348985 0.35544 1.6868
-0.260564 0.305907 1.78197
-0.238892 0.315566 1.79904
-0.490465 0.433922 1.55705
-0.4332 0.36234 1.67626
-0.0202999 0.18709 1.63101
-0.233804 0.204131 1.68341
-0.251684 0.216698 1.64259
-0.221277 0.216114 1.68424
-0.353928 0.35427 1.51509
-0.130522 -0.273278 1.10557
-0.156178 -0.276227 1.12627
0.0312556 -0.23703 1.31558
-0.116524 -0.310387 1.42264
-0.180864 -0.336783 1.44099
0.0772028 -0.270685 1.44919
0.0227118 -0.229673 1.40826
0.0874731 -0.270266 1.48465
0.0725669 -0.247536 1.45218
0.03521 -0.220285 1.4088
-0.00819382 -0.210614 1.39324
0.0267722 -0.208474 1.40752
0.0118779 -0.21275 1.412
0.079454 -0.233539 1.45906
0.0202775 -0.205721 1.41686
-0.042049 -0.196092 1.39735
-0.0569754 -0.200757 1.40635
0.0434476 -0.195702 1.43491
-0.026844 -0.19601 1.42523
-0.0629495 -0.198281 1.41412
-0.0111327 -0.191877 1.43882
-0.0908843 -0.189959 1.42844
-0.0337578 -0.181067 1.43976
-0.0983887 -0.175656 1.43997
0.092622 -0.166327 1.53066
-0.0812926 -0.140211 1.44871
-0.0469762 -0.116414 1.45559
0.0711057 -0.141782 1.53297
-0.0308636 -0.106778 1.45718
-0.0183773 -0.0952312 1.45567
-0.0527491 -0.109176 1.46479
0.0624133 -0.108459 1.52651
0.0115371 -0.0720567 1.47794
-0.00430984 -0.0765191 1.47939
-0.0710339 -0.0716459 1.46375
0.0747452 -0.0841256 1.56034
-0.0745838 -0.0472972 1.47833
0.0301802 -0.0230156 1.50727
0.0651443 -0.0372185 1.54068
-0.17431 -0.0969529 1.50607
0.0603107 -0.0526296 1.56333
-0.00830751 -0.0140617 1.49765
-0.121116 -0.0500589 1.49553
-0.0906881 -0.0116823 1.48785
0.0300299 0.0295492 1.52493
-0.0468745 0.0232852 1.51486
0.0173329 0.0486517 1.52746
0.0328709 0.0599618 1.53496
0.0749373 0.0400854 1.6112
0.0682191 0.0555798 1.61096
-0.0324502 0.0968593 1.54979
-0.0531781 0.11864 1.54741
-0.063779 0.123403 1.54462
-0.0466672 0.140555 1.55843
-0.0330832 0.15641 1.56183
-0.0575681 0.15709 1.55908
0.0523761 0.143272 1.62779
-0.044192 0.165691 1.5683
-0.0671411 0.163994 1.56188
0.14788 0.199799 1.64599
0.235409 0.216849 1.67942
-0.00790574 0.149253 1.62527
0.194126 0.18604 1.68971
-0.371573 0.448011 1.23988
0.193787 0.211394 1.68121
0.223306 0.234037 1.71726
0.0853144 0.168449 1.70433
-0.0914507 0.208779 1.5975
-0.0223273 0.185961 1.65666
-0.0471981 0.211434 1.62841
-0.12628 0.185929 1.61852
0.0338913 0.17298 1.71683
0.111403 0.207883 1.7372
-0.112013 0.207278 1.64688
-0.235968 0.192527 1.61979
-0.24653 0.198602 1.62195
-0.107057 0.200975 1.7045
-0.203564 0.201174 1.66111
0.0654785 0.255322 1.78098
-0.299225 0.247283 1.60357
-0.271498 0.225445 1.63235
0.14361 0.356195 1.78374
-0.0695896 0.2416 1.74945
-0.286764 0.224982 1.65989
-0.05291 0.241648 1.77243
-0.106248 0.225786 1.75409
0.12299 0.328731 1.81636
-0.123557 0.222488 1.76466
-0.239716 0.193253 1.72594
-0.314351 0.236254 1.6608
-0.0699749 0.277281 1.78977
-0.264648 0.204457 1.72825
-0.294473 0.210657 1.71602
-0.267771 0.20529 1.74199
-0.299597 0.224442 1.72008
-0.2488 0.240758 1.75684
-0.13104 0.292022 1.79166
-0.176448 0.288431 1.77966
-0.333216 0.250173 1.731
-0.146262 0.312477 1.8028
-0.342875 0.241042 1.74005
-0.246754 0.299093 1.77983
-0.294436 0.325554 1.77711
-0.387754 0.323263 1.72835
-0.472248 0.396453 1.68759
-0.186488 0.315794 1.88049
-0.18871 0.344843 1.86504
-0.181303 -0.299479 1.36438
-0.0566906 -0.170998 1.43748
0.0044242 -0.043736 1.48574
0.0584508 -0.0298105 1.53326
-0.091366 0.119794 1.5408
-0.00862958 0.162788 1.5705
0.0599072 0.154273 1.6481
0.238548 0.224481 1.70312
0.0658712 0.175082 1.70257
-0.160082 0.188592 1.62795
0.0105064 0.185008 1.71621
0.018668 0.161434 1.73629
-0.18544 0.184569 1.63618
-0.134679 0.210025 1.64759
-0.162044 0.202679 1.66502
-0.161037 0.195423 1.68972
-0.140529 0.191872 1.73199
-0.209675 0.211565 1.69035
-0.238697 0.211852 1.71315
-0.49009 0.438729 1.55363
0.0352206 -0.230907 1.35539
0.00698122 -0.214632 1.41245
0.0116188 -0.183502 1.44758
-0.022258 -0.170755 1.44673
-0.0737143 -0.0376063 1.47331
-0.0482999 -0.00920524 1.50179
-0.0836666 0.0455807 1.51632
0.0306994 0.126748 1.57997
-0.0647344 0.120566 1.5449
-0.0792548 0.160239 1.55682
-0.156733 0.190815 1.74034
-0.182386 0.190613 1.74037
-0.172547 0.254333 1.74066
-0.187925 0.22887 1.76113
-0.172208 0.25755 1.7723
-0.22291 0.266318 1.77322
-0.334884 0.295383 1.72785
-0.280891 0.319782 1.78648
-0.128681 -0.279704 1.08679
-0.140678 -0.270791 1.10886
0.040517 -0.180036 1.45288
-0.0555501 -0.0909626 1.46366
-0.0855154 -0.0824092 1.46401
0.00317178 -0.0504104 1.48944
0.0175064 0.181475 1.62864
0.144962 0.243005 1.70334
-0.185462 0.182675 1.63871
-0.118148 0.209086 1.68059
-0.220553 0.206482 1.67053
-0.112786 0.198176 1.74355
-0.266306 0.214081 1.68302
-0.523836 0.453434 1.50712
-0.289105 0.445617 1.28692
-0.118834 0.195321 1.74359
-0.0820268 -0.0753878 1.4631
0.181018 -0.294536 1.14145
0.151523 -0.281735 1.12697
-0.113817 -0.282336 1.11051
0.156134 -0.286342 1.15593
0.145802 -0.284442 1.15193
-0.167338 -0.266814 1.09414
-0.109336 -0.258336 1.09782
0.145434 -0.278501 1.16466
0.105843 -0.379897 1.45464
0.10089 -0.373438 1.46081
0.111001 -0.372514 1.4702
0.0909362 -0.367303 1.47252
-0.187597 -0.353809 1.43114
-0.201682 -0.352811 1.42567
0.118827 -0.360006 1.48451
0.118553 -0.347052 1.49217
0.0854771 -0.331494 1.48516
-0.178461 -0.315986 1.44223
-0.194073 -0.315943 1.4438
0.0841958 -0.317683 1.48722
-0.186215 -0.311507 1.44701
-0.197227 -0.305685 1.44779
-0.0276507 -0.201227 1.35742
0.0089527 -0.216437 1.38984
-0.000698245 -0.21452 1.38692
0.00315528 -0.210814 1.39582
0.0962136 -0.293161 1.50116
-0.0218967 -0.191568 1.37139
-0.0411763 -0.20734 1.3866
-0.0186932 -0.218742 1.42463
-0.0695504 -0.204738 1.40267
-0.0424752 -0.198908 1.4115
0.0947241 -0.260382 1.49943
0.0355363 -0.203265 1.42985
-0.0334442 -0.200059 1.41783
0.0764577 -0.235005 1.47317
-0.0112371 -0.186031 1.41926
-0.0473225 -0.191191 1.41828
-0.0572149 -0.192332 1.4175
0.0246939 -0.194448 1.44392
0.0956685 -0.247672 1.51184
-0.021282 -0.183556 1.43035
-0.053662 -0.183931 1.42703
-0.0476695 -0.187263 1.43613
-0.141151 -0.194699 1.43064
0.10334 -0.239748 1.51781
0.0917915 -0.236151 1.51218
-0.0473493 -0.172273 1.43814
-0.0694761 -0.17345 1.4384
0.0966673 -0.228953 1.52111
-0.0931723 -0.172171 1.43527
-0.166882 -0.180998 1.43643
-0.0437052 -0.166621 1.4427
-0.0551389 -0.156394 1.44135
0.0778607 -0.2033 1.51419
0.0850312 -0.197692 1.52227
-0.0450555 -0.129953 1.43798
0.0157398 -0.134584 1.45498
-0.0447201 -0.126544 1.44909
-0.0334983 -0.122842 1.45461
-0.0538858 -0.114442 1.44397
0.0743734 -0.16785 1.5226
-0.0606258 -0.104469 1.45328
-0.00315179 -0.102463 1.46527
-0.0417721 -0.102007 1.4595
-0.0122281 -0.0993984 1.46699
-0.0323879 -0.0979105 1.46421
