ply
format ascii 1.0
comment PCL generated
element vertex 1512
property float x
property float y
property float z
element camera 0
property float view_px
property float view_py
property float view_pz
property float x_axisx
property float x_axisy
property float x_axisz
property float y_axisx
property float y_axisy
property float y_axisz
property float z_axisx
property float z_axisy
property float z_axisz
property float focal
property float scalex
property float scaley
property float centerx
property float centery
property int viewportx
property int viewporty
property float k1
property float k2
end_header
-1.05168 0.006798625 0.937608
-1.05168 0.006798625 2.0929203
0.48670936 0.006798625 0.937608
0.48670936 0.006798625 2.0929203
-1.05168 0.012879193 0.937608
-1.05168 0.012879193 2.0929203
0.48670936 0.012879193 0.937608
0.48670936 0.012879193 2.0929203
-1.05168 0.018959761 0.937608
-1.05168 0.018959761 2.0929203
0.48670936 0.018959761 0.937608
0.48670936 0.018959761 2.0929203
-1.05168 0.025040388 0.937608
-1.05168 0.025040388 2.0929203
0.48670936 0.025040388 0.937608
0.48670936 0.025040388 2.0929203
-1.05168 0.031120956 0.937608
-1.05168 0.031120956 2.0929203
0.48670936 0.031120956 0.937608
0.48670936 0.031120956 2.0929203
-1.05168 0.037201524 0.937608
-1.05168 0.037201524 2.0929203
0.48670936 0.037201524 0.937608
0.48670936 0.037201524 2.0929203
-1.05168 0.043282151 0.937608
-1.05168 0.043282151 2.0929203
0.48670936 0.043282151 0.937608
0.48670936 0.043282151 2.0929203
-1.05168 0.049362719 0.937608
-1.05168 0.049362719 2.0929203
0.48670936 0.049362719 0.937608
0.48670936 0.049362719 2.0929203
-1.05168 0.055443287 0.937608
-1.05168 0.055443287 2.0929203
0.48670936 0.055443287 0.937608
0.48670936 0.055443287 2.0929203
-1.05168 0.061523914 0.937608
-1.05168 0.061523914 2.0929203
0.48670936 0.061523914 0.937608
0.48670936 0.061523914 2.0929203
-1.05168 0.067604482 0.937608
-1.05168 0.067604482 2.0929203
0.48670936 0.067604482 0.937608
0.48670936 0.067604482 2.0929203
-1.05168 0.07368511 0.937608
-1.05168 0.07368511 2.0929203
0.48670936 0.07368511 0.937608
0.48670936 0.07368511 2.0929203
-1.05168 0.079765677 0.937608
-1.05168 0.079765677 2.0929203
0.48670936 0.079765677 0.937608
0.48670936 0.079765677 2.0929203
-1.05168 0.085846245 0.937608
-1.05168 0.085846245 2.0929203
0.48670936 0.085846245 0.937608
0.48670936 0.085846245 2.0929203
-1.05168 0.091926873 0.937608
-1.05168 0.091926873 2.0929203
0.48670936 0.091926873 0.937608
0.48670936 0.091926873 2.0929203
-1.05168 0.098007441 0.937608
-1.05168 0.098007441 2.0929203
0.48670936 0.098007441 0.937608
0.48670936 0.098007441 2.0929203
-1.05168 0.10408807 0.937608
-1.05168 0.10408807 2.0929203
0.48670936 0.10408807 0.937608
0.48670936 0.10408807 2.0929203
-1.05168 0.11016864 0.937608
-1.05168 0.11016864 2.0929203
0.48670936 0.11016864 0.937608
0.48670936 0.11016864 2.0929203
-1.05168 0.1162492 0.937608
-1.05168 0.1162492 2.0929203
0.48670936 0.1162492 0.937608
0.48670936 0.1162492 2.0929203
-1.05168 0.12232983 0.937608
-1.05168 0.12232983 2.0929203
0.48670936 0.12232983 0.937608
0.48670936 0.12232983 2.0929203
-1.05168 0.1284104 0.937608
-1.05168 0.1284104 2.0929203
0.48670936 0.1284104 0.937608
0.48670936 0.1284104 2.0929203
-1.05168 0.13449097 0.937608
-1.05168 0.13449097 2.0929203
0.48670936 0.13449097 0.937608
0.48670936 0.13449097 2.0929203
-1.05168 0.14057159 0.937608
-1.05168 0.14057159 2.0929203
0.48670936 0.14057159 0.937608
0.48670936 0.14057159 2.0929203
-1.05168 0.14665216 0.937608
-1.05168 0.14665216 2.0929203
0.48670936 0.14665216 0.937608
0.48670936 0.14665216 2.0929203
-1.05168 0.15273273 0.937608
-1.05168 0.15273273 2.0929203
0.48670936 0.15273273 0.937608
0.48670936 0.15273273 2.0929203
-1.05168 0.15881336 0.937608
-1.05168 0.15881336 2.0929203
0.48670936 0.15881336 0.937608
0.48670936 0.15881336 2.0929203
-1.05168 0.16489393 0.937608
-1.05168 0.16489393 2.0929203
0.48670936 0.16489393 0.937608
0.48670936 0.16489393 2.0929203
-1.05168 0.17097455 0.937608
-1.05168 0.17097455 2.0929203
0.48670936 0.17097455 0.937608
0.48670936 0.17097455 2.0929203
-1.05168 0.17705512 0.937608
-1.05168 0.17705512 2.0929203
0.48670936 0.17705512 0.937608
0.48670936 0.17705512 2.0929203
-1.05168 0.18313569 0.937608
-1.05168 0.18313569 2.0929203
0.48670936 0.18313569 0.937608
0.48670936 0.18313569 2.0929203
-1.05168 0.18921632 0.937608
-1.05168 0.18921632 2.0929203
0.48670936 0.18921632 0.937608
0.48670936 0.18921632 2.0929203
-1.05168 0.19529688 0.937608
-1.05168 0.19529688 2.0929203
0.48670936 0.19529688 0.937608
0.48670936 0.19529688 2.0929203
-1.05168 0.20137751 0.937608
-1.05168 0.20137751 2.0929203
0.48670936 0.20137751 0.937608
0.48670936 0.20137751 2.0929203
-1.05168 0.20745808 0.937608
-1.05168 0.20745808 2.0929203
0.48670936 0.20745808 0.937608
0.48670936 0.20745808 2.0929203
-1.05168 0.21353865 0.937608
-1.05168 0.21353865 2.0929203
0.48670936 0.21353865 0.937608
0.48670936 0.21353865 2.0929203
-1.05168 0.21961927 0.937608
-1.05168 0.21961927 2.0929203
0.48670936 0.21961927 0.937608
0.48670936 0.21961927 2.0929203
-1.05168 0.22569984 0.937608
-1.05168 0.22569984 2.0929203
0.48670936 0.22569984 0.937608
0.48670936 0.22569984 2.0929203
-1.05168 0.23178041 0.937608
-1.05168 0.23178041 2.0929203
0.48670936 0.23178041 0.937608
0.48670936 0.23178041 2.0929203
-1.05168 0.23786104 0.937608
-1.05168 0.23786104 2.0929203
0.48670936 0.23786104 0.937608
0.48670936 0.23786104 2.0929203
-1.05168 0.24394161 0.937608
-1.05168 0.24394161 2.0929203
0.48670936 0.24394161 0.937608
0.48670936 0.24394161 2.0929203
-1.05168 0.25002217 0.937608
-1.05168 0.25002217 2.0929203
0.48670936 0.25002217 0.937608
0.48670936 0.25002217 2.0929203
-1.05168 0.2561028 0.937608
-1.05168 0.2561028 2.0929203
0.48670936 0.2561028 0.937608
0.48670936 0.2561028 2.0929203
-1.05168 0.26218337 0.937608
-1.05168 0.26218337 2.0929203
0.48670936 0.26218337 0.937608
0.48670936 0.26218337 2.0929203
-1.05168 0.268264 0.937608
-1.05168 0.268264 2.0929203
0.48670936 0.268264 0.937608
0.48670936 0.268264 2.0929203
-1.05168 0.27434456 0.937608
-1.05168 0.27434456 2.0929203
0.48670936 0.27434456 0.937608
0.48670936 0.27434456 2.0929203
-1.05168 0.28042513 0.937608
-1.05168 0.28042513 2.0929203
0.48670936 0.28042513 0.937608
0.48670936 0.28042513 2.0929203
-1.05168 0.28650576 0.937608
-1.05168 0.28650576 2.0929203
0.48670936 0.28650576 0.937608
0.48670936 0.28650576 2.0929203
-1.05168 0.29258633 0.937608
-1.05168 0.29258633 2.0929203
0.48670936 0.29258633 0.937608
0.48670936 0.29258633 2.0929203
-1.05168 0.29866695 0.937608
-1.05168 0.29866695 2.0929203
0.48670936 0.29866695 0.937608
0.48670936 0.29866695 2.0929203
-1.05168 0.30474752 0.937608
-1.05168 0.30474752 2.0929203
0.48670936 0.30474752 0.937608
0.48670936 0.30474752 2.0929203
-1.05168 0.31082809 0.937608
-1.05168 0.31082809 2.0929203
0.48670936 0.31082809 0.937608
0.48670936 0.31082809 2.0929203
-1.05168 0.31690872 0.937608
-1.05168 0.31690872 2.0929203
0.48670936 0.31690872 0.937608
0.48670936 0.31690872 2.0929203
-1.05168 0.32298928 0.937608
-1.05168 0.32298928 2.0929203
0.48670936 0.32298928 0.937608
0.48670936 0.32298928 2.0929203
-1.05168 0.32906985 0.937608
-1.05168 0.32906985 2.0929203
0.48670936 0.32906985 0.937608
0.48670936 0.32906985 2.0929203
-1.05168 0.33515048 0.937608
-1.05168 0.33515048 2.0929203
0.48670936 0.33515048 0.937608
0.48670936 0.33515048 2.0929203
-1.05168 0.34123105 0.937608
-1.05168 0.34123105 2.0929203
0.48670936 0.34123105 0.937608
0.48670936 0.34123105 2.0929203
-1.05168 0.34731162 0.937608
-1.05168 0.34731162 2.0929203
0.48670936 0.34731162 0.937608
0.48670936 0.34731162 2.0929203
-1.05168 0.35339224 0.937608
-1.05168 0.35339224 2.0929203
0.48670936 0.35339224 0.937608
0.48670936 0.35339224 2.0929203
-1.05168 0.35947281 0.937608
-1.05168 0.35947281 2.0929203
0.48670936 0.35947281 0.937608
0.48670936 0.35947281 2.0929203
-1.05168 0.36555344 0.937608
-1.05168 0.36555344 2.0929203
0.48670936 0.36555344 0.937608
0.48670936 0.36555344 2.0929203
-1.05168 0.37163401 0.937608
-1.05168 0.37163401 2.0929203
0.48670936 0.37163401 0.937608
0.48670936 0.37163401 2.0929203
-1.05168 0.37771457 0.937608
-1.05168 0.37771457 2.0929203
0.48670936 0.37771457 0.937608
0.48670936 0.37771457 2.0929203
-1.05168 0.3837952 0.937608
-1.05168 0.3837952 2.0929203
0.48670936 0.3837952 0.937608
0.48670936 0.3837952 2.0929203
-1.05168 0.38987577 0.937608
-1.05168 0.38987577 2.0929203
0.48670936 0.38987577 0.937608
0.48670936 0.38987577 2.0929203
-1.05168 0.3959564 0.937608
-1.05168 0.3959564 2.0929203
0.48670936 0.3959564 0.937608
0.48670936 0.3959564 2.0929203
-1.05168 0.40203696 0.937608
-1.05168 0.40203696 2.0929203
0.48670936 0.40203696 0.937608
0.48670936 0.40203696 2.0929203
-1.05168 0.40811753 0.937608
-1.05168 0.40811753 2.0929203
0.48670936 0.40811753 0.937608
0.48670936 0.40811753 2.0929203
-1.05168 0.41419816 0.937608
-1.05168 0.41419816 2.0929203
0.48670936 0.41419816 0.937608
0.48670936 0.41419816 2.0929203
-1.05168 0.42027873 0.937608
-1.05168 0.42027873 2.0929203
0.48670936 0.42027873 0.937608
0.48670936 0.42027873 2.0929203
-1.05168 0.4263593 0.937608
-1.05168 0.4263593 2.0929203
0.48670936 0.4263593 0.937608
0.48670936 0.4263593 2.0929203
-1.05168 0.43243992 0.937608
-1.05168 0.43243992 2.0929203
0.48670936 0.43243992 0.937608
0.48670936 0.43243992 2.0929203
-1.05168 0.43852049 0.937608
-1.05168 0.43852049 2.0929203
0.48670936 0.43852049 0.937608
0.48670936 0.43852049 2.0929203
-1.05168 0.44460106 0.937608
-1.05168 0.44460106 2.0929203
0.48670936 0.44460106 0.937608
0.48670936 0.44460106 2.0929203
-1.05168 0.45068169 0.937608
-1.05168 0.45068169 2.0929203
0.48670936 0.45068169 0.937608
0.48670936 0.45068169 2.0929203
-1.05168 0.45676225 0.937608
-1.05168 0.45676225 2.0929203
0.48670936 0.45676225 0.937608
0.48670936 0.45676225 2.0929203
-1.05168 0.46284288 0.937608
-1.05168 0.46284288 2.0929203
0.48670936 0.46284288 0.937608
0.48670936 0.46284288 2.0929203
-1.05168 0.46892345 0.937608
-1.05168 0.46892345 2.0929203
0.48670936 0.46892345 0.937608
0.48670936 0.46892345 2.0929203
-1.05168 0.47500402 0.937608
-1.05168 0.47500402 2.0929203
0.48670936 0.47500402 0.937608
0.48670936 0.47500402 2.0929203
-1.05168 0.48108464 0.937608
-1.05168 0.48108464 2.0929203
0.48670936 0.48108464 0.937608
0.48670936 0.48108464 2.0929203
-1.05168 0.48716521 0.937608
-1.05168 0.48716521 2.0929203
0.48670936 0.48716521 0.937608
0.48670936 0.48716521 2.0929203
-1.05168 0.49324584 0.937608
-1.05168 0.49324584 2.0929203
0.48670936 0.49324584 0.937608
0.48670936 0.49324584 2.0929203
-1.05168 0.49932635 0.937608
-1.05168 0.49932635 2.0929203
0.48670936 0.49932635 0.937608
0.48670936 0.49932635 2.0929203
-1.05168 0.50540698 0.937608
-1.05168 0.50540698 2.0929203
0.48670936 0.50540698 0.937608
0.48670936 0.50540698 2.0929203
-1.05168 0.5114876 0.937608
-1.05168 0.5114876 2.0929203
0.48670936 0.5114876 0.937608
0.48670936 0.5114876 2.0929203
-1.05168 0.51756823 0.937608
-1.05168 0.51756823 2.0929203
0.48670936 0.51756823 0.937608
0.48670936 0.51756823 2.0929203
-1.05168 0.52364874 0.937608
-1.05168 0.52364874 2.0929203
0.48670936 0.52364874 0.937608
0.48670936 0.52364874 2.0929203
-1.05168 0.52972937 0.937608
-1.05168 0.52972937 2.0929203
0.48670936 0.52972937 0.937608
0.48670936 0.52972937 2.0929203
-1.05168 0.53580999 0.937608
-1.05168 0.53580999 2.0929203
0.48670936 0.53580999 0.937608
0.48670936 0.53580999 2.0929203
-1.05168 0.5418905 0.937608
-1.05168 0.5418905 2.0929203
0.48670936 0.5418905 0.937608
0.48670936 0.5418905 2.0929203
-1.05168 0.54797113 0.937608
-1.05168 0.54797113 2.0929203
0.48670936 0.54797113 0.937608
0.48670936 0.54797113 2.0929203
-1.05168 0.55405176 0.937608
-1.05168 0.55405176 2.0929203
0.48670936 0.55405176 0.937608
0.48670936 0.55405176 2.0929203
-1.05168 0.56013227 0.937608
-1.05168 0.56013227 2.0929203
0.48670936 0.56013227 0.937608
0.48670936 0.56013227 2.0929203
-1.05168 0.56621289 0.937608
-1.05168 0.56621289 2.0929203
0.48670936 0.56621289 0.937608
0.48670936 0.56621289 2.0929203
-1.05168 0.57229352 0.937608
-1.05168 0.57229352 2.0929203
0.48670936 0.57229352 0.937608
0.48670936 0.57229352 2.0929203
-1.05168 0.57837403 0.937608
-1.05168 0.57837403 2.0929203
0.48670936 0.57837403 0.937608
0.48670936 0.57837403 2.0929203
-1.05168 0.58445466 0.937608
-1.05168 0.58445466 2.0929203
0.48670936 0.58445466 0.937608
0.48670936 0.58445466 2.0929203
-1.05168 0.59053528 0.937608
-1.05168 0.59053528 2.0929203
0.48670936 0.59053528 0.937608
0.48670936 0.59053528 2.0929203
-1.05168 0.59661579 0.937608
-1.05168 0.59661579 2.0929203
0.48670936 0.59661579 0.937608
0.48670936 0.59661579 2.0929203
-1.05168 0.60269642 0.937608
-1.05168 0.60269642 2.0929203
0.48670936 0.60269642 0.937608
0.48670936 0.60269642 2.0929203
-1.05168 0.60877705 0.937608
-1.05168 0.60877705 2.0929203
0.48670936 0.60877705 0.937608
0.48670936 0.60877705 2.0929203
-1.05168 0.61485755 0.937608
-1.05168 0.61485755 2.0929203
0.48670936 0.61485755 0.937608
0.48670936 0.61485755 2.0929203
-1.05168 0.62093818 0.937608
-1.05168 0.62093818 2.0929203
0.48670936 0.62093818 0.937608
0.48670936 0.62093818 2.0929203
-1.05168 0.62701881 0.937608
-1.05168 0.62701881 2.0929203
0.48670936 0.62701881 0.937608
0.48670936 0.62701881 2.0929203
-1.05168 0.63309944 0.937608
-1.05168 0.63309944 2.0929203
0.48670936 0.63309944 0.937608
0.48670936 0.63309944 2.0929203
-1.05168 0.63917994 0.937608
-1.05168 0.63917994 2.0929203
0.48670936 0.63917994 0.937608
0.48670936 0.63917994 2.0929203
-1.05168 0.64526057 0.937608
-1.05168 0.64526057 2.0929203
0.48670936 0.64526057 0.937608
0.48670936 0.64526057 2.0929203
-1.05168 0.6513412 0.937608
-1.05168 0.6513412 2.0929203
0.48670936 0.6513412 0.937608
0.48670936 0.6513412 2.0929203
-1.05168 0.65742171 0.937608
-1.05168 0.65742171 2.0929203
0.48670936 0.65742171 0.937608
0.48670936 0.65742171 2.0929203
-1.05168 0.66350234 0.937608
-1.05168 0.66350234 2.0929203
0.48670936 0.66350234 0.937608
0.48670936 0.66350234 2.0929203
-1.05168 0.66958296 0.937608
-1.05168 0.66958296 2.0929203
0.48670936 0.66958296 0.937608
0.48670936 0.66958296 2.0929203
-1.05168 0.67566347 0.937608
-1.05168 0.67566347 2.0929203
0.48670936 0.67566347 0.937608
0.48670936 0.67566347 2.0929203
-1.05168 0.6817441 0.937608
-1.05168 0.6817441 2.0929203
0.48670936 0.6817441 0.937608
0.48670936 0.6817441 2.0929203
-1.05168 0.68782473 0.937608
-1.05168 0.68782473 2.0929203
0.48670936 0.68782473 0.937608
0.48670936 0.68782473 2.0929203
-1.05168 0.69390523 0.937608
-1.05168 0.69390523 2.0929203
0.48670936 0.69390523 0.937608
0.48670936 0.69390523 2.0929203
-1.05168 0.69998586 0.937608
-1.05168 0.69998586 2.0929203
0.48670936 0.69998586 0.937608
0.48670936 0.69998586 2.0929203
-1.05168 0.70606649 0.937608
-1.05168 0.70606649 2.0929203
0.48670936 0.70606649 0.937608
0.48670936 0.70606649 2.0929203
-1.05168 0.71214712 0.937608
-1.05168 0.71214712 2.0929203
0.48670936 0.71214712 0.937608
0.48670936 0.71214712 2.0929203
-1.05168 0.71822762 0.937608
-1.05168 0.71822762 2.0929203
0.48670936 0.71822762 0.937608
0.48670936 0.71822762 2.0929203
-1.05168 0.72430825 0.937608
-1.05168 0.72430825 2.0929203
0.48670936 0.72430825 0.937608
0.48670936 0.72430825 2.0929203
-1.05168 0.73038888 0.937608
-1.05168 0.73038888 2.0929203
0.48670936 0.73038888 0.937608
0.48670936 0.73038888 2.0929203
-1.05168 0.73646939 0.937608
-1.05168 0.73646939 2.0929203
0.48670936 0.73646939 0.937608
0.48670936 0.73646939 2.0929203
-1.05168 0.74255002 0.937608
-1.05168 0.74255002 2.0929203
0.48670936 0.74255002 0.937608
0.48670936 0.74255002 2.0929203
-1.05168 0.74863064 0.937608
-1.05168 0.74863064 2.0929203
0.48670936 0.74863064 0.937608
0.48670936 0.74863064 2.0929203
-1.05168 0.75471115 0.937608
-1.05168 0.75471115 2.0929203
0.48670936 0.75471115 0.937608
0.48670936 0.75471115 2.0929203
-1.05168 -0.50397098 0.937608
-1.05168 0.75471115 0.937608
0.48670936 -0.50397098 0.937608
0.48670936 0.75471115 0.937608
-1.05168 -0.50397098 0.94368857
-1.05168 0.75471115 0.94368857
0.48670936 -0.50397098 0.94368857
0.48670936 0.75471115 0.94368857
-1.05168 -0.50397098 0.9497692
-1.05168 0.75471115 0.9497692
0.48670936 -0.50397098 0.9497692
0.48670936 0.75471115 0.9497692
-1.05168 -0.50397098 0.95584977
-1.05168 0.75471115 0.95584977
0.48670936 -0.50397098 0.95584977
0.48670936 0.75471115 0.95584977
-1.05168 -0.50397098 0.96193039
-1.05168 0.75471115 0.96193039
0.48670936 -0.50397098 0.96193039
0.48670936 0.75471115 0.96193039
-1.05168 -0.50397098 0.96801096
-1.05168 0.75471115 0.96801096
0.48670936 -0.50397098 0.96801096
0.48670936 0.75471115 0.96801096
-1.05168 -0.50397098 0.97409153
-1.05168 0.75471115 0.97409153
0.48670936 -0.50397098 0.97409153
0.48670936 0.75471115 0.97409153
-1.05168 -0.50397098 0.98017216
-1.05168 0.75471115 0.98017216
0.48670936 -0.50397098 0.98017216
0.48670936 0.75471115 0.98017216
-1.05168 -0.50397098 0.98625273
-1.05168 0.75471115 0.98625273
0.48670936 -0.50397098 0.98625273
0.48670936 0.75471115 0.98625273
-1.05168 -0.50397098 0.99233329
-1.05168 0.75471115 0.99233329
0.48670936 -0.50397098 0.99233329
0.48670936 0.75471115 0.99233329
-1.05168 -0.50397098 0.99841392
-1.05168 0.75471115 0.99841392
0.48670936 -0.50397098 0.99841392
0.48670936 0.75471115 0.99841392
-1.05168 -0.50397098 1.0044945
-1.05168 0.75471115 1.0044945
0.48670936 -0.50397098 1.0044945
0.48670936 0.75471115 1.0044945
-1.05168 -0.50397098 1.0105751
-1.05168 0.75471115 1.0105751
0.48670936 -0.50397098 1.0105751
0.48670936 0.75471115 1.0105751
-1.05168 -0.50397098 1.0166557
-1.05168 0.75471115 1.0166557
0.48670936 -0.50397098 1.0166557
0.48670936 0.75471115 1.0166557
-1.05168 -0.50397098 1.0227363
-1.05168 0.75471115 1.0227363
0.48670936 -0.50397098 1.0227363
0.48670936 0.75471115 1.0227363
-1.05168 -0.50397098 1.0288168
-1.05168 0.75471115 1.0288168
0.48670936 -0.50397098 1.0288168
0.48670936 0.75471115 1.0288168
-1.05168 -0.50397098 1.0348974
-1.05168 0.75471115 1.0348974
0.48670936 -0.50397098 1.0348974
0.48670936 0.75471115 1.0348974
-1.05168 -0.50397098 1.0409781
-1.05168 0.75471115 1.0409781
0.48670936 -0.50397098 1.0409781
0.48670936 0.75471115 1.0409781
-1.05168 -0.50397098 1.0470586
-1.05168 0.75471115 1.0470586
0.48670936 -0.50397098 1.0470586
0.48670936 0.75471115 1.0470586
-1.05168 -0.50397098 1.0531392
-1.05168 0.75471115 1.0531392
0.48670936 -0.50397098 1.0531392
0.48670936 0.75471115 1.0531392
-1.05168 -0.50397098 1.0592198
-1.05168 0.75471115 1.0592198
0.48670936 -0.50397098 1.0592198
0.48670936 0.75471115 1.0592198
-1.05168 -0.50397098 1.0653005
-1.05168 0.75471115 1.0653005
0.48670936 -0.50397098 1.0653005
0.48670936 0.75471115 1.0653005
-1.05168 -0.50397098 1.071381
-1.05168 0.75471115 1.071381
0.48670936 -0.50397098 1.071381
0.48670936 0.75471115 1.071381
-1.05168 -0.50397098 1.0774616
-1.05168 0.75471115 1.0774616
0.48670936 -0.50397098 1.0774616
0.48670936 0.75471115 1.0774616
-1.05168 -0.50397098 1.0835421
-1.05168 0.75471115 1.0835421
0.48670936 -0.50397098 1.0835421
0.48670936 0.75471115 1.0835421
-1.05168 -0.50397098 1.0896227
-1.05168 0.75471115 1.0896227
0.48670936 -0.50397098 1.0896227
0.48670936 0.75471115 1.0896227
-1.05168 -0.50397098 1.0957034
-1.05168 0.75471115 1.0957034
0.48670936 -0.50397098 1.0957034
0.48670936 0.75471115 1.0957034
-1.05168 -0.50397098 1.101784
-1.05168 0.75471115 1.101784
0.48670936 -0.50397098 1.101784
0.48670936 0.75471115 1.101784
-1.05168 -0.50397098 1.1078645
-1.05168 0.75471115 1.1078645
0.48670936 -0.50397098 1.1078645
0.48670936 0.75471115 1.1078645
-1.05168 -0.50397098 1.1139451
-1.05168 0.75471115 1.1139451
0.48670936 -0.50397098 1.1139451
0.48670936 0.75471115 1.1139451
-1.05168 -0.50397098 1.1200258
-1.05168 0.75471115 1.1200258
0.48670936 -0.50397098 1.1200258
0.48670936 0.75471115 1.1200258
-1.05168 -0.50397098 1.1261063
-1.05168 0.75471115 1.1261063
0.48670936 -0.50397098 1.1261063
0.48670936 0.75471115 1.1261063
-1.05168 -0.50397098 1.1321869
-1.05168 0.75471115 1.1321869
0.48670936 -0.50397098 1.1321869
0.48670936 0.75471115 1.1321869
-1.05168 -0.50397098 1.1382675
-1.05168 0.75471115 1.1382675
0.48670936 -0.50397098 1.1382675
0.48670936 0.75471115 1.1382675
-1.05168 -0.50397098 1.144348
-1.05168 0.75471115 1.144348
0.48670936 -0.50397098 1.144348
0.48670936 0.75471115 1.144348
-1.05168 -0.50397098 1.1504287
-1.05168 0.75471115 1.1504287
0.48670936 -0.50397098 1.1504287
0.48670936 0.75471115 1.1504287
-1.05168 -0.50397098 1.1565093
-1.05168 0.75471115 1.1565093
0.48670936 -0.50397098 1.1565093
0.48670936 0.75471115 1.1565093
-1.05168 -0.50397098 1.1625898
-1.05168 0.75471115 1.1625898
0.48670936 -0.50397098 1.1625898
0.48670936 0.75471115 1.1625898
-1.05168 -0.50397098 1.1686704
-1.05168 0.75471115 1.1686704
0.48670936 -0.50397098 1.1686704
0.48670936 0.75471115 1.1686704
-1.05168 -0.50397098 1.174751
-1.05168 0.75471115 1.174751
0.48670936 -0.50397098 1.174751
0.48670936 0.75471115 1.174751
-1.05168 -0.50397098 1.1808317
-1.05168 0.75471115 1.1808317
0.48670936 -0.50397098 1.1808317
0.48670936 0.75471115 1.1808317
-1.05168 -0.50397098 1.1869122
-1.05168 0.75471115 1.1869122
0.48670936 -0.50397098 1.1869122
0.48670936 0.75471115 1.1869122
-1.05168 -0.50397098 1.1929928
-1.05168 0.75471115 1.1929928
0.48670936 -0.50397098 1.1929928
0.48670936 0.75471115 1.1929928
-1.05168 -0.50397098 1.1990733
-1.05168 0.75471115 1.1990733
0.48670936 -0.50397098 1.1990733
0.48670936 0.75471115 1.1990733
-1.05168 -0.50397098 1.2051539
-1.05168 0.75471115 1.2051539
0.48670936 -0.50397098 1.2051539
0.48670936 0.75471115 1.2051539
-1.05168 -0.50397098 1.2112346
-1.05168 0.75471115 1.2112346
0.48670936 -0.50397098 1.2112346
0.48670936 0.75471115 1.2112346
-1.05168 -0.50397098 1.2173152
-1.05168 0.75471115 1.2173152
0.48670936 -0.50397098 1.2173152
0.48670936 0.75471115 1.2173152
-1.05168 -0.50397098 1.2233957
-1.05168 0.75471115 1.2233957
0.48670936 -0.50397098 1.2233957
0.48670936 0.75471115 1.2233957
-1.05168 -0.50397098 1.2294763
-1.05168 0.75471115 1.2294763
0.48670936 -0.50397098 1.2294763
0.48670936 0.75471115 1.2294763
-1.05168 -0.50397098 1.235557
-1.05168 0.75471115 1.235557
0.48670936 -0.50397098 1.235557
0.48670936 0.75471115 1.235557
-1.05168 -0.50397098 1.2416375
-1.05168 0.75471115 1.2416375
0.48670936 -0.50397098 1.2416375
0.48670936 0.75471115 1.2416375
-1.05168 -0.50397098 1.2477181
-1.05168 0.75471115 1.2477181
0.48670936 -0.50397098 1.2477181
0.48670936 0.75471115 1.2477181
-1.05168 -0.50397098 1.2537987
-1.05168 0.75471115 1.2537987
0.48670936 -0.50397098 1.2537987
0.48670936 0.75471115 1.2537987
-1.05168 -0.50397098 1.2598794
-1.05168 0.75471115 1.2598794
0.48670936 -0.50397098 1.2598794
0.48670936 0.75471115 1.2598794
-1.05168 -0.50397098 1.2659599
-1.05168 0.75471115 1.2659599
0.48670936 -0.50397098 1.2659599
0.48670936 0.75471115 1.2659599
-1.05168 -0.50397098 1.2720405
-1.05168 0.75471115 1.2720405
0.48670936 -0.50397098 1.2720405
0.48670936 0.75471115 1.2720405
-1.05168 -0.50397098 1.278121
-1.05168 0.75471115 1.278121
0.48670936 -0.50397098 1.278121
0.48670936 0.75471115 1.278121
-1.05168 -0.50397098 1.2842016
-1.05168 0.75471115 1.2842016
0.48670936 -0.50397098 1.2842016
0.48670936 0.75471115 1.2842016
-1.05168 -0.50397098 1.2902822
-1.05168 0.75471115 1.2902822
0.48670936 -0.50397098 1.2902822
0.48670936 0.75471115 1.2902822
-1.05168 -0.50397098 1.2963629
-1.05168 0.75471115 1.2963629
0.48670936 -0.50397098 1.2963629
0.48670936 0.75471115 1.2963629
-1.05168 -0.50397098 1.3024434
-1.05168 0.75471115 1.3024434
0.48670936 -0.50397098 1.3024434
0.48670936 0.75471115 1.3024434
-1.05168 -0.50397098 1.308524
-1.05168 0.75471115 1.308524
0.48670936 -0.50397098 1.308524
0.48670936 0.75471115 1.308524
-1.05168 -0.50397098 1.3146045
-1.05168 0.75471115 1.3146045
0.48670936 -0.50397098 1.3146045
0.48670936 0.75471115 1.3146045
-1.05168 -0.50397098 1.3206851
-1.05168 0.75471115 1.3206851
0.48670936 -0.50397098 1.3206851
0.48670936 0.75471115 1.3206851
-1.05168 -0.50397098 1.3267658
-1.05168 0.75471115 1.3267658
0.48670936 -0.50397098 1.3267658
0.48670936 0.75471115 1.3267658
-1.05168 -0.50397098 1.3328464
-1.05168 0.75471115 1.3328464
0.48670936 -0.50397098 1.3328464
0.48670936 0.75471115 1.3328464
-1.05168 -0.50397098 1.338927
-1.05168 0.75471115 1.338927
0.48670936 -0.50397098 1.338927
0.48670936 0.75471115 1.338927
-1.05168 -0.50397098 1.3450075
-1.05168 0.75471115 1.3450075
0.48670936 -0.50397098 1.3450075
0.48670936 0.75471115 1.3450075
-1.05168 -0.50397098 1.3510882
-1.05168 0.75471115 1.3510882
0.48670936 -0.50397098 1.3510882
0.48670936 0.75471115 1.3510882
-1.05168 -0.50397098 1.3571687
-1.05168 0.75471115 1.3571687
0.48670936 -0.50397098 1.3571687
0.48670936 0.75471115 1.3571687
-1.05168 -0.50397098 1.3632493
-1.05168 0.75471115 1.3632493
0.48670936 -0.50397098 1.3632493
0.48670936 0.75471115 1.3632493
-1.05168 -0.50397098 1.3693299
-1.05168 0.75471115 1.3693299
0.48670936 -0.50397098 1.3693299
0.48670936 0.75471115 1.3693299
-1.05168 -0.50397098 1.3754106
-1.05168 0.75471115 1.3754106
0.48670936 -0.50397098 1.3754106
0.48670936 0.75471115 1.3754106
-1.05168 -0.50397098 1.3814911
-1.05168 0.75471115 1.3814911
0.48670936 -0.50397098 1.3814911
0.48670936 0.75471115 1.3814911
-1.05168 -0.50397098 1.3875717
-1.05168 0.75471115 1.3875717
0.48670936 -0.50397098 1.3875717
0.48670936 0.75471115 1.3875717
-1.05168 -0.50397098 1.3936522
-1.05168 0.75471115 1.3936522
0.48670936 -0.50397098 1.3936522
0.48670936 0.75471115 1.3936522
-1.05168 -0.50397098 1.3997328
-1.05168 0.75471115 1.3997328
0.48670936 -0.50397098 1.3997328
0.48670936 0.75471115 1.3997328
-1.05168 -0.50397098 1.4058135
-1.05168 0.75471115 1.4058135
0.48670936 -0.50397098 1.4058135
0.48670936 0.75471115 1.4058135
-1.05168 -0.50397098 1.4118941
-1.05168 0.75471115 1.4118941
0.48670936 -0.50397098 1.4118941
0.48670936 0.75471115 1.4118941
-1.05168 -0.50397098 1.4179746
-1.05168 0.75471115 1.4179746
0.48670936 -0.50397098 1.4179746
0.48670936 0.75471115 1.4179746
-1.05168 -0.50397098 1.4240552
-1.05168 0.75471115 1.4240552
0.48670936 -0.50397098 1.4240552
0.48670936 0.75471115 1.4240552
-1.05168 -0.50397098 1.4301358
-1.05168 0.75471115 1.4301358
0.48670936 -0.50397098 1.4301358
0.48670936 0.75471115 1.4301358
-1.05168 -0.50397098 1.4362164
-1.05168 0.75471115 1.4362164
0.48670936 -0.50397098 1.4362164
0.48670936 0.75471115 1.4362164
-1.05168 -0.50397098 1.442297
-1.05168 0.75471115 1.442297
0.48670936 -0.50397098 1.442297
0.48670936 0.75471115 1.442297
-1.05168 -0.50397098 1.4483776
-1.05168 0.75471115 1.4483776
0.48670936 -0.50397098 1.4483776
0.48670936 0.75471115 1.4483776
-1.05168 -0.50397098 1.4544582
-1.05168 0.75471115 1.4544582
0.48670936 -0.50397098 1.4544582
0.48670936 0.75471115 1.4544582
-1.05168 -0.50397098 1.4605387
-1.05168 0.75471115 1.4605387
0.48670936 -0.50397098 1.4605387
0.48670936 0.75471115 1.4605387
-1.05168 -0.50397098 1.4666194
-1.05168 0.75471115 1.4666194
0.48670936 -0.50397098 1.4666194
0.48670936 0.75471115 1.4666194
-1.05168 -0.50397098 1.4726999
-1.05168 0.75471115 1.4726999
0.48670936 -0.50397098 1.4726999
0.48670936 0.75471115 1.4726999
-1.05168 -0.50397098 1.4787805
-1.05168 0.75471115 1.4787805
0.48670936 -0.50397098 1.4787805
0.48670936 0.75471115 1.4787805
-1.05168 -0.50397098 1.4848611
-1.05168 0.75471115 1.4848611
0.48670936 -0.50397098 1.4848611
0.48670936 0.75471115 1.4848611
-1.05168 -0.50397098 1.4909418
-1.05168 0.75471115 1.4909418
0.48670936 -0.50397098 1.4909418
0.48670936 0.75471115 1.4909418
-1.05168 -0.50397098 1.4970223
-1.05168 0.75471115 1.4970223
0.48670936 -0.50397098 1.4970223
0.48670936 0.75471115 1.4970223
-1.05168 -0.50397098 1.5031029
-1.05168 0.75471115 1.5031029
0.48670936 -0.50397098 1.5031029
0.48670936 0.75471115 1.5031029
-1.05168 -0.50397098 1.5091834
-1.05168 0.75471115 1.5091834
0.48670936 -0.50397098 1.5091834
0.48670936 0.75471115 1.5091834
-1.05168 -0.50397098 1.515264
-1.05168 0.75471115 1.515264
0.48670936 -0.50397098 1.515264
0.48670936 0.75471115 1.515264
-1.05168 -0.50397098 1.5213447
-1.05168 0.75471115 1.5213447
0.48670936 -0.50397098 1.5213447
0.48670936 0.75471115 1.5213447
-1.05168 -0.50397098 1.5274253
-1.05168 0.75471115 1.5274253
0.48670936 -0.50397098 1.5274253
0.48670936 0.75471115 1.5274253
-1.05168 -0.50397098 1.5335059
-1.05168 0.75471115 1.5335059
0.48670936 -0.50397098 1.5335059
0.48670936 0.75471115 1.5335059
-1.05168 -0.50397098 1.5395864
-1.05168 0.75471115 1.5395864
0.48670936 -0.50397098 1.5395864
0.48670936 0.75471115 1.5395864
-1.05168 -0.50397098 1.5456671
-1.05168 0.75471115 1.5456671
0.48670936 -0.50397098 1.5456671
0.48670936 0.75471115 1.5456671
-1.05168 -0.50397098 1.5517476
-1.05168 0.75471115 1.5517476
0.48670936 -0.50397098 1.5517476
0.48670936 0.75471115 1.5517476
-1.05168 -0.50397098 1.5578282
-1.05168 0.75471115 1.5578282
0.48670936 -0.50397098 1.5578282
0.48670936 0.75471115 1.5578282
-1.05168 -0.50397098 1.5639088
-1.05168 0.75471115 1.5639088
0.48670936 -0.50397098 1.5639088
0.48670936 0.75471115 1.5639088
-1.05168 -0.50397098 1.5699894
-1.05168 0.75471115 1.5699894
0.48670936 -0.50397098 1.5699894
0.48670936 0.75471115 1.5699894
-1.05168 -0.50397098 1.57607
-1.05168 0.75471115 1.57607
0.48670936 -0.50397098 1.57607
0.48670936 0.75471115 1.57607
-1.05168 -0.50397098 1.5821506
-1.05168 0.75471115 1.5821506
0.48670936 -0.50397098 1.5821506
0.48670936 0.75471115 1.5821506
-1.05168 -0.50397098 1.5882311
-1.05168 0.75471115 1.5882311
0.48670936 -0.50397098 1.5882311
0.48670936 0.75471115 1.5882311
-1.05168 -0.50397098 1.5943117
-1.05168 0.75471115 1.5943117
0.48670936 -0.50397098 1.5943117
0.48670936 0.75471115 1.5943117
-1.05168 -0.50397098 1.6003923
-1.05168 0.75471115 1.6003923
0.48670936 -0.50397098 1.6003923
0.48670936 0.75471115 1.6003923
-1.05168 -0.50397098 1.606473
-1.05168 0.75471115 1.606473
0.48670936 -0.50397098 1.606473
0.48670936 0.75471115 1.606473
-1.05168 -0.50397098 1.6125536
-1.05168 0.75471115 1.6125536
0.48670936 -0.50397098 1.6125536
0.48670936 0.75471115 1.6125536
-1.05168 -0.50397098 1.6186341
-1.05168 0.75471115 1.6186341
0.48670936 -0.50397098 1.6186341
0.48670936 0.75471115 1.6186341
-1.05168 -0.50397098 1.6247146
-1.05168 0.75471115 1.6247146
0.48670936 -0.50397098 1.6247146
0.48670936 0.75471115 1.6247146
-1.05168 -0.50397098 1.6307952
-1.05168 0.75471115 1.6307952
0.48670936 -0.50397098 1.6307952
0.48670936 0.75471115 1.6307952
-1.05168 -0.50397098 1.6368759
-1.05168 0.75471115 1.6368759
0.48670936 -0.50397098 1.6368759
0.48670936 0.75471115 1.6368759
-1.05168 -0.50397098 1.6429565
-1.05168 0.75471115 1.6429565
0.48670936 -0.50397098 1.6429565
0.48670936 0.75471115 1.6429565
-1.05168 -0.50397098 1.6490371
-1.05168 0.75471115 1.6490371
0.48670936 -0.50397098 1.6490371
0.48670936 0.75471115 1.6490371
-1.05168 -0.50397098 1.6551176
-1.05168 0.75471115 1.6551176
0.48670936 -0.50397098 1.6551176
0.48670936 0.75471115 1.6551176
-1.05168 -0.50397098 1.6611983
-1.05168 0.75471115 1.6611983
0.48670936 -0.50397098 1.6611983
0.48670936 0.75471115 1.6611983
-1.05168 -0.50397098 1.6672788
-1.05168 0.75471115 1.6672788
0.48670936 -0.50397098 1.6672788
0.48670936 0.75471115 1.6672788
-1.05168 -0.50397098 1.6733594
-1.05168 0.75471115 1.6733594
0.48670936 -0.50397098 1.6733594
0.48670936 0.75471115 1.6733594
-1.05168 -0.50397098 1.67944
-1.05168 0.75471115 1.67944
0.48670936 -0.50397098 1.67944
0.48670936 0.75471115 1.67944
-1.05168 -0.50397098 1.6855206
-1.05168 0.75471115 1.6855206
0.48670936 -0.50397098 1.6855206
0.48670936 0.75471115 1.6855206
-1.05168 -0.50397098 1.6916012
-1.05168 0.75471115 1.6916012
0.48670936 -0.50397098 1.6916012
0.48670936 0.75471115 1.6916012
-1.05168 -0.50397098 1.6976818
-1.05168 0.75471115 1.6976818
0.48670936 -0.50397098 1.6976818
0.48670936 0.75471115 1.6976818
-1.05168 -0.50397098 1.7037623
-1.05168 0.75471115 1.7037623
0.48670936 -0.50397098 1.7037623
0.48670936 0.75471115 1.7037623
-1.05168 -0.50397098 1.7098429
-1.05168 0.75471115 1.7098429
0.48670936 -0.50397098 1.7098429
0.48670936 0.75471115 1.7098429
-1.05168 -0.50397098 1.7159235
-1.05168 0.75471115 1.7159235
0.48670936 -0.50397098 1.7159235
0.48670936 0.75471115 1.7159235
-1.05168 -0.50397098 1.7220042
-1.05168 0.75471115 1.7220042
0.48670936 -0.50397098 1.7220042
0.48670936 0.75471115 1.7220042
-1.05168 -0.50397098 1.7280848
-1.05168 0.75471115 1.7280848
0.48670936 -0.50397098 1.7280848
0.48670936 0.75471115 1.7280848
-1.05168 -0.50397098 1.7341653
-1.05168 0.75471115 1.7341653
0.48670936 -0.50397098 1.7341653
0.48670936 0.75471115 1.7341653
-1.05168 -0.50397098 1.7402459
-1.05168 0.75471115 1.7402459
0.48670936 -0.50397098 1.7402459
0.48670936 0.75471115 1.7402459
-1.05168 -0.50397098 1.7463264
-1.05168 0.75471115 1.7463264
0.48670936 -0.50397098 1.7463264
0.48670936 0.75471115 1.7463264
-1.05168 -0.50397098 1.7524071
-1.05168 0.75471115 1.7524071
0.48670936 -0.50397098 1.7524071
0.48670936 0.75471115 1.7524071
-1.05168 -0.50397098 1.7584877
-1.05168 0.75471115 1.7584877
0.48670936 -0.50397098 1.7584877
0.48670936 0.75471115 1.7584877
-1.05168 -0.50397098 1.7645683
-1.05168 0.75471115 1.7645683
0.48670936 -0.50397098 1.7645683
0.48670936 0.75471115 1.7645683
-1.05168 -0.50397098 1.7706488
-1.05168 0.75471115 1.7706488
0.48670936 -0.50397098 1.7706488
0.48670936 0.75471115 1.7706488
-1.05168 -0.50397098 1.7767295
-1.05168 0.75471115 1.7767295
0.48670936 -0.50397098 1.7767295
0.48670936 0.75471115 1.7767295
-1.05168 -0.50397098 1.78281
-1.05168 0.75471115 1.78281
0.48670936 -0.50397098 1.78281
0.48670936 0.75471115 1.78281
-1.05168 -0.50397098 1.7888906
-1.05168 0.75471115 1.7888906
0.48670936 -0.50397098 1.7888906
0.48670936 0.75471115 1.7888906
-1.05168 -0.50397098 1.7949712
-1.05168 0.75471115 1.7949712
0.48670936 -0.50397098 1.7949712
0.48670936 0.75471115 1.7949712
-1.05168 -0.50397098 1.8010519
-1.05168 0.75471115 1.8010519
0.48670936 -0.50397098 1.8010519
0.48670936 0.75471115 1.8010519
-1.05168 -0.50397098 1.8071325
-1.05168 0.75471115 1.8071325
0.48670936 -0.50397098 1.8071325
0.48670936 0.75471115 1.8071325
-1.05168 -0.50397098 1.813213
-1.05168 0.75471115 1.813213
0.48670936 -0.50397098 1.813213
0.48670936 0.75471115 1.813213
-1.05168 -0.50397098 1.8192935
-1.05168 0.75471115 1.8192935
0.48670936 -0.50397098 1.8192935
0.48670936 0.75471115 1.8192935
-1.05168 -0.50397098 1.8253741
-1.05168 0.75471115 1.8253741
0.48670936 -0.50397098 1.8253741
0.48670936 0.75471115 1.8253741
-1.05168 -0.50397098 1.8314548
-1.05168 0.75471115 1.8314548
0.48670936 -0.50397098 1.8314548
0.48670936 0.75471115 1.8314548
-1.05168 -0.50397098 1.8375354
-1.05168 0.75471115 1.8375354
0.48670936 -0.50397098 1.8375354
0.48670936 0.75471115 1.8375354
-1.05168 -0.50397098 1.843616
-1.05168 0.75471115 1.843616
0.48670936 -0.50397098 1.843616
0.48670936 0.75471115 1.843616
-1.05168 -0.50397098 1.8496965
-1.05168 0.75471115 1.8496965
0.48670936 -0.50397098 1.8496965
0.48670936 0.75471115 1.8496965
-1.05168 -0.50397098 1.8557771
-1.05168 0.75471115 1.8557771
0.48670936 -0.50397098 1.8557771
0.48670936 0.75471115 1.8557771
-1.05168 -0.50397098 1.8618577
-1.05168 0.75471115 1.8618577
0.48670936 -0.50397098 1.8618577
0.48670936 0.75471115 1.8618577
-1.05168 -0.50397098 1.8679383
-1.05168 0.75471115 1.8679383
0.48670936 -0.50397098 1.8679383
0.48670936 0.75471115 1.8679383
-1.05168 -0.50397098 1.8740189
-1.05168 0.75471115 1.8740189
0.48670936 -0.50397098 1.8740189
0.48670936 0.75471115 1.8740189
-1.05168 -0.50397098 1.8800995
-1.05168 0.75471115 1.8800995
0.48670936 -0.50397098 1.8800995
0.48670936 0.75471115 1.8800995
-1.05168 -0.50397098 1.88618
-1.05168 0.75471115 1.88618
0.48670936 -0.50397098 1.88618
0.48670936 0.75471115 1.88618
-1.05168 -0.50397098 1.8922607
-1.05168 0.75471115 1.8922607
0.48670936 -0.50397098 1.8922607
0.48670936 0.75471115 1.8922607
-1.05168 -0.50397098 1.8983412
-1.05168 0.75471115 1.8983412
0.48670936 -0.50397098 1.8983412
0.48670936 0.75471115 1.8983412
-1.05168 -0.50397098 1.9044218
-1.05168 0.75471115 1.9044218
0.48670936 -0.50397098 1.9044218
0.48670936 0.75471115 1.9044218
-1.05168 -0.50397098 1.9105024
-1.05168 0.75471115 1.9105024
0.48670936 -0.50397098 1.9105024
0.48670936 0.75471115 1.9105024
-1.05168 -0.50397098 1.9165831
-1.05168 0.75471115 1.9165831
0.48670936 -0.50397098 1.9165831
0.48670936 0.75471115 1.9165831
-1.05168 -0.50397098 1.9226637
-1.05168 0.75471115 1.9226637
0.48670936 -0.50397098 1.9226637
0.48670936 0.75471115 1.9226637
-1.05168 -0.50397098 1.9287442
-1.05168 0.75471115 1.9287442
0.48670936 -0.50397098 1.9287442
0.48670936 0.75471115 1.9287442
-1.05168 -0.50397098 1.9348248
-1.05168 0.75471115 1.9348248
0.48670936 -0.50397098 1.9348248
0.48670936 0.75471115 1.9348248
-1.05168 -0.50397098 1.9409053
-1.05168 0.75471115 1.9409053
0.48670936 -0.50397098 1.9409053
0.48670936 0.75471115 1.9409053
-1.05168 -0.50397098 1.946986
-1.05168 0.75471115 1.946986
0.48670936 -0.50397098 1.946986
0.48670936 0.75471115 1.946986
-1.05168 -0.50397098 1.9530666
-1.05168 0.75471115 1.9530666
0.48670936 -0.50397098 1.9530666
0.48670936 0.75471115 1.9530666
-1.05168 -0.50397098 1.9591472
-1.05168 0.75471115 1.9591472
0.48670936 -0.50397098 1.9591472
0.48670936 0.75471115 1.9591472
-1.05168 -0.50397098 1.9652277
-1.05168 0.75471115 1.9652277
0.48670936 -0.50397098 1.9652277
0.48670936 0.75471115 1.9652277
-1.05168 -0.50397098 1.9713084
-1.05168 0.75471115 1.9713084
0.48670936 -0.50397098 1.9713084
0.48670936 0.75471115 1.9713084
-1.05168 -0.50397098 1.977389
-1.05168 0.75471115 1.977389
0.48670936 -0.50397098 1.977389
0.48670936 0.75471115 1.977389
-1.05168 -0.50397098 1.9834695
-1.05168 0.75471115 1.9834695
0.48670936 -0.50397098 1.9834695
0.48670936 0.75471115 1.9834695
-1.05168 -0.50397098 1.9895501
-1.05168 0.75471115 1.9895501
0.48670936 -0.50397098 1.9895501
0.48670936 0.75471115 1.9895501
-1.05168 -0.50397098 1.9956307
-1.05168 0.75471115 1.9956307
0.48670936 -0.50397098 1.9956307
0.48670936 0.75471115 1.9956307
-1.05168 -0.50397098 2.0017114
-1.05168 0.75471115 2.0017114
0.48670936 -0.50397098 2.0017114
0.48670936 0.75471115 2.0017114
-1.05168 -0.50397098 2.007792
-1.05168 0.75471115 2.007792
0.48670936 -0.50397098 2.007792
0.48670936 0.75471115 2.007792
-1.05168 -0.50397098 2.0138726
-1.05168 0.75471115 2.0138726
0.48670936 -0.50397098 2.0138726
0.48670936 0.75471115 2.0138726
-1.05168 -0.50397098 2.019953
-1.05168 0.75471115 2.019953
0.48670936 -0.50397098 2.019953
0.48670936 0.75471115 2.019953
-1.05168 -0.50397098 2.0260336
-1.05168 0.75471115 2.0260336
0.48670936 -0.50397098 2.0260336
0.48670936 0.75471115 2.0260336
-1.05168 -0.50397098 2.0321143
-1.05168 0.75471115 2.0321143
0.48670936 -0.50397098 2.0321143
0.48670936 0.75471115 2.0321143
-1.05168 -0.50397098 2.0381947
-1.05168 0.75471115 2.0381947
0.48670936 -0.50397098 2.0381947
0.48670936 0.75471115 2.0381947
-1.05168 -0.50397098 2.0442753
-1.05168 0.75471115 2.0442753
0.48670936 -0.50397098 2.0442753
0.48670936 0.75471115 2.0442753
-1.05168 -0.50397098 2.0503559
-1.05168 0.75471115 2.0503559
0.48670936 -0.50397098 2.0503559
0.48670936 0.75471115 2.0503559
-1.05168 -0.50397098 2.0564365
-1.05168 0.75471115 2.0564365
0.48670936 -0.50397098 2.0564365
0.48670936 0.75471115 2.0564365
-1.05168 -0.50397098 2.0625172
-1.05168 0.75471115 2.0625172
0.48670936 -0.50397098 2.0625172
0.48670936 0.75471115 2.0625172
-1.05168 -0.50397098 2.0685978
-1.05168 0.75471115 2.0685978
0.48670936 -0.50397098 2.0685978
0.48670936 0.75471115 2.0685978
-1.05168 -0.50397098 2.0746784
-1.05168 0.75471115 2.0746784
0.48670936 -0.50397098 2.0746784
0.48670936 0.75471115 2.0746784
-1.05168 -0.50397098 2.080759
-1.05168 0.75471115 2.080759
0.48670936 -0.50397098 2.080759
0.48670936 0.75471115 2.080759
-1.05168 -0.50397098 2.0868397
-1.05168 0.75471115 2.0868397
0.48670936 -0.50397098 2.0868397
0.48670936 0.75471115 2.0868397
-1.05168 -0.50397098 2.0929203
-1.05168 0.75471115 2.0929203
0.48670936 -0.50397098 2.0929203
0.48670936 0.75471115 2.0929203
-1.05168 -0.50397098 0.937608
-1.05168 0.75471115 0.937608
-1.05168 -0.50397098 2.0929203
-1.05168 0.75471115 2.0929203
-1.0455993 -0.50397098 0.937608
-1.0455993 0.75471115 0.937608
-1.0455993 -0.50397098 2.0929203
-1.0455993 0.75471115 2.0929203
-1.0395188 -0.50397098 0.937608
-1.0395188 0.75471115 0.937608
-1.0395188 -0.50397098 2.0929203
-1.0395188 0.75471115 2.0929203
-1.0334382 -0.50397098 0.937608
-1.0334382 0.75471115 0.937608
-1.0334382 -0.50397098 2.0929203
-1.0334382 0.75471115 2.0929203
-1.0273576 -0.50397098 0.937608
-1.0273576 0.75471115 0.937608
-1.0273576 -0.50397098 2.0929203
-1.0273576 0.75471115 2.0929203
-1.0212771 -0.50397098 0.937608
-1.0212771 0.75471115 0.937608
-1.0212771 -0.50397098 2.0929203
-1.0212771 0.75471115 2.0929203
-1.0151964 -0.50397098 0.937608
-1.0151964 0.75471115 0.937608
-1.0151964 -0.50397098 2.0929203
-1.0151964 0.75471115 2.0929203
-1.0091158 -0.50397098 0.937608
-1.0091158 0.75471115 0.937608
-1.0091158 -0.50397098 2.0929203
-1.0091158 0.75471115 2.0929203
-1.0030353 -0.50397098 0.937608
-1.0030353 0.75471115 0.937608
-1.0030353 -0.50397098 2.0929203
-1.0030353 0.75471115 2.0929203
-0.99695468 -0.50397098 0.937608
-0.99695468 0.75471115 0.937608
-0.99695468 -0.50397098 2.0929203
-0.99695468 0.75471115 2.0929203
-0.99087405 -0.50397098 0.937608
-0.99087405 0.75471115 0.937608
-0.99087405 -0.50397098 2.0929203
-0.99087405 0.75471115 2.0929203
-0.98479348 -0.50397098 0.937608
-0.98479348 0.75471115 0.937608
-0.98479348 -0.50397098 2.0929203
-0.98479348 0.75471115 2.0929203
-0.97871292 -0.50397098 0.937608
-0.97871292 0.75471115 0.937608
-0.97871292 -0.50397098 2.0929203
-0.97871292 0.75471115 2.0929203
-0.97263229 -0.50397098 0.937608
-0.97263229 0.75471115 0.937608
-0.97263229 -0.50397098 2.0929203
-0.97263229 0.75471115 2.0929203
-0.96655172 -0.50397098 0.937608
-0.96655172 0.75471115 0.937608
-0.96655172 -0.50397098 2.0929203
-0.96655172 0.75471115 2.0929203
-0.96047109 -0.50397098 0.937608
-0.96047109 0.75471115 0.937608
-0.96047109 -0.50397098 2.0929203
-0.96047109 0.75471115 2.0929203
-0.95439053 -0.50397098 0.937608
-0.95439053 0.75471115 0.937608
-0.95439053 -0.50397098 2.0929203
-0.95439053 0.75471115 2.0929203
-0.94830996 -0.50397098 0.937608
-0.94830996 0.75471115 0.937608
-0.94830996 -0.50397098 2.0929203
-0.94830996 0.75471115 2.0929203
-0.94222933 -0.50397098 0.937608
-0.94222933 0.75471115 0.937608
-0.94222933 -0.50397098 2.0929203
-0.94222933 0.75471115 2.0929203
-0.93614876 -0.50397098 0.937608
-0.93614876 0.75471115 0.937608
-0.93614876 -0.50397098 2.0929203
-0.93614876 0.75471115 2.0929203
-0.93006814 -0.50397098 0.937608
-0.93006814 0.75471115 0.937608
-0.93006814 -0.50397098 2.0929203
-0.93006814 0.75471115 2.0929203
-0.92398757 -0.50397098 0.937608
-0.92398757 0.75471115 0.937608
-0.92398757 -0.50397098 2.0929203
-0.92398757 0.75471115 2.0929203
-0.917907 -0.50397098 0.937608
-0.917907 0.75471115 0.937608
-0.917907 -0.50397098 2.0929203
-0.917907 0.75471115 2.0929203
-0.91182637 -0.50397098 0.937608
-0.91182637 0.75471115 0.937608
-0.91182637 -0.50397098 2.0929203
-0.91182637 0.75471115 2.0929203
-0.9057458 -0.50397098 0.937608
-0.9057458 0.75471115 0.937608
-0.9057458 -0.50397098 2.0929203
-0.9057458 0.75471115 2.0929203
-0.89966524 -0.50397098 0.937608
-0.89966524 0.75471115 0.937608
-0.89966524 -0.50397098 2.0929203
-0.89966524 0.75471115 2.0929203
-0.89358461 -0.50397098 0.937608
-0.89358461 0.75471115 0.937608
-0.89358461 -0.50397098 2.0929203
-0.89358461 0.75471115 2.0929203
-0.88750404 -0.50397098 0.937608
-0.88750404 0.75471115 0.937608
-0.88750404 -0.50397098 2.0929203
-0.88750404 0.75471115 2.0929203
-0.88142347 -0.50397098 0.937608
-0.88142347 0.75471115 0.937608
-0.88142347 -0.50397098 2.0929203
-0.88142347 0.75471115 2.0929203
-0.87534285 -0.50397098 0.937608
-0.87534285 0.75471115 0.937608
-0.87534285 -0.50397098 2.0929203
-0.87534285 0.75471115 2.0929203
-0.86926228 -0.50397098 0.937608
-0.86926228 0.75471115 0.937608
-0.86926228 -0.50397098 2.0929203
-0.86926228 0.75471115 2.0929203
-0.86318171 -0.50397098 0.937608
-0.86318171 0.75471115 0.937608
-0.86318171 -0.50397098 2.0929203
-0.86318171 0.75471115 2.0929203
-0.85710108 -0.50397098 0.937608
-0.85710108 0.75471115 0.937608
-0.85710108 -0.50397098 2.0929203
-0.85710108 0.75471115 2.0929203
-0.85102046 -0.50397098 0.937608
-0.85102046 0.75471115 0.937608
-0.85102046 -0.50397098 2.0929203
-0.85102046 0.75471115 2.0929203
-0.84493989 -0.50397098 0.937608
-0.84493989 0.75471115 0.937608
-0.84493989 -0.50397098 2.0929203
-0.84493989 0.75471115 2.0929203
-0.83885932 -0.50397098 0.937608
-0.83885932 0.75471115 0.937608
-0.83885932 -0.50397098 2.0929203
-0.83885932 0.75471115 2.0929203
-0.83277869 -0.50397098 0.937608
-0.83277869 0.75471115 0.937608
-0.83277869 -0.50397098 2.0929203
-0.83277869 0.75471115 2.0929203
-0.82669812 -0.50397098 0.937608
-0.82669812 0.75471115 0.937608
-0.82669812 -0.50397098 2.0929203
-0.82669812 0.75471115 2.0929203
-0.82061756 -0.50397098 0.937608
-0.82061756 0.75471115 0.937608
-0.82061756 -0.50397098 2.0929203
-0.82061756 0.75471115 2.0929203
-0.81453693 -0.50397098 0.937608
-0.81453693 0.75471115 0.937608
-0.81453693 -0.50397098 2.0929203
-0.81453693 0.75471115 2.0929203
-0.80845636 -0.50397098 0.937608
-0.80845636 0.75471115 0.937608
-0.80845636 -0.50397098 2.0929203
-0.80845636 0.75471115 2.0929203
-0.80237579 -0.50397098 0.937608
-0.80237579 0.75471115 0.937608
-0.80237579 -0.50397098 2.0929203
-0.80237579 0.75471115 2.0929203
-0.79629517 -0.50397098 0.937608
-0.79629517 0.75471115 0.937608
-0.79629517 -0.50397098 2.0929203
-0.79629517 0.75471115 2.0929203
-0.7902146 -0.50397098 0.937608
-0.7902146 0.75471115 0.937608
-0.7902146 -0.50397098 2.0929203
-0.7902146 0.75471115 2.0929203
-0.78413403 -0.50397098 0.937608
-0.78413403 0.75471115 0.937608
-0.78413403 -0.50397098 2.0929203
-0.78413403 0.75471115 2.0929203
-0.7780534 -0.50397098 0.937608
-0.7780534 0.75471115 0.937608
-0.7780534 -0.50397098 2.0929203
-0.7780534 0.75471115 2.0929203
-0.77197284 -0.50397098 0.937608
-0.77197284 0.75471115 0.937608
-0.77197284 -0.50397098 2.0929203
-0.77197284 0.75471115 2.0929203
-0.76589227 -0.50397098 0.937608
-0.76589227 0.75471115 0.937608
-0.76589227 -0.50397098 2.0929203
-0.76589227 0.75471115 2.0929203
-0.75981164 -0.50397098 0.937608
-0.75981164 0.75471115 0.937608
-0.75981164 -0.50397098 2.0929203
-0.75981164 0.75471115 2.0929203
-0.75373101 -0.50397098 0.937608
-0.75373101 0.75471115 0.937608
-0.75373101 -0.50397098 2.0929203
-0.75373101 0.75471115 2.0929203
-0.74765044 -0.50397098 0.937608
-0.74765044 0.75471115 0.937608
-0.74765044 -0.50397098 2.0929203
-0.74765044 0.75471115 2.0929203
-0.74156988 -0.50397098 0.937608
-0.74156988 0.75471115 0.937608
-0.74156988 -0.50397098 2.0929203
-0.74156988 0.75471115 2.0929203
-0.73548925 -0.50397098 0.937608
-0.73548925 0.75471115 0.937608
-0.73548925 -0.50397098 2.0929203
-0.73548925 0.75471115 2.0929203
-0.72940868 -0.50397098 0.937608
-0.72940868 0.75471115 0.937608
-0.72940868 -0.50397098 2.0929203
-0.72940868 0.75471115 2.0929203
-0.72332811 -0.50397098 0.937608
-0.72332811 0.75471115 0.937608
-0.72332811 -0.50397098 2.0929203
-0.72332811 0.75471115 2.0929203
-0.71724749 -0.50397098 0.937608
-0.71724749 0.75471115 0.937608
-0.71724749 -0.50397098 2.0929203
-0.71724749 0.75471115 2.0929203
-0.71116692 -0.50397098 0.937608
-0.71116692 0.75471115 0.937608
-0.71116692 -0.50397098 2.0929203
-0.71116692 0.75471115 2.0929203
-0.70508635 -0.50397098 0.937608
-0.70508635 0.75471115 0.937608
-0.70508635 -0.50397098 2.0929203
-0.70508635 0.75471115 2.0929203
-0.69900572 -0.50397098 0.937608
-0.69900572 0.75471115 0.937608
-0.69900572 -0.50397098 2.0929203
-0.69900572 0.75471115 2.0929203
-0.69292516 -0.50397098 0.937608
-0.69292516 0.75471115 0.937608
-0.69292516 -0.50397098 2.0929203
-0.69292516 0.75471115 2.0929203
-0.68684459 -0.50397098 0.937608
-0.68684459 0.75471115 0.937608
-0.68684459 -0.50397098 2.0929203
-0.68684459 0.75471115 2.0929203
-0.68076396 -0.50397098 0.937608
-0.68076396 0.75471115 0.937608
-0.68076396 -0.50397098 2.0929203
-0.68076396 0.75471115 2.0929203
-0.67468339 -0.50397098 0.937608
-0.67468339 0.75471115 0.937608
-0.67468339 -0.50397098 2.0929203
-0.67468339 0.75471115 2.0929203
