ply
format ascii 1.0
comment PCL generated
element vertex 1564
property float x
property float y
property float z
element camera 0
property float view_px
property float view_py
property float view_pz
property float x_axisx
property float x_axisy
property float x_axisz
property float y_axisx
property float y_axisy
property float y_axisz
property float z_axisx
property float z_axisy
property float z_axisz
property float focal
property float scalex
property float scaley
property float centerx
property float centery
property int viewportx
property int viewporty
property float k1
property float k2
end_header
-15.1864 -0.58214426 9.6699085
14.259717 -0.58214426 -16.0322
14.259717 -0.58214426 9.6699085
-15.1864 -0.48095465 -16.0322
-15.1864 -0.48095465 9.6699085
14.259717 -0.48095465 -16.0322
14.259717 -0.48095465 9.6699085
-15.1864 -0.37976503 -16.0322
-15.1864 -0.37976503 9.6699085
14.259717 -0.37976503 -16.0322
14.259717 -0.37976503 9.6699085
-15.1864 -0.2785759 -16.0322
-15.1864 -0.2785759 9.6699085
14.259717 -0.2785759 -16.0322
14.259717 -0.2785759 9.6699085
-15.1864 -0.17738628 -16.0322
-15.1864 -0.17738628 9.6699085
14.259717 -0.17738628 -16.0322
14.259717 -0.17738628 9.6699085
-15.1864 -0.076197147 -16.0322
-15.1864 -0.076197147 9.6699085
14.259717 -0.076197147 -16.0322
14.259717 -0.076197147 9.6699085
-15.1864 0.024992466 -16.0322
-15.1864 0.024992466 9.6699085
14.259717 0.024992466 -16.0322
14.259717 0.024992466 9.6699085
-15.1864 0.1261816 -16.0322
-15.1864 0.1261816 9.6699085
14.259717 0.1261816 -16.0322
14.259717 0.1261816 9.6699085
-15.1864 0.22737122 -16.0322
-15.1864 0.22737122 9.6699085
14.259717 0.22737122 -16.0322
14.259717 0.22737122 9.6699085
-15.1864 0.32856083 -16.0322
-15.1864 0.32856083 9.6699085
14.259717 0.32856083 -16.0322
14.259717 0.32856083 9.6699085
-15.1864 0.42974997 -16.0322
-15.1864 0.42974997 9.6699085
14.259717 0.42974997 -16.0322
14.259717 0.42974997 9.6699085
-15.1864 0.53093958 -16.0322
-15.1864 0.53093958 9.6699085
14.259717 0.53093958 -16.0322
14.259717 0.53093958 9.6699085
-15.1864 0.63212872 -16.0322
-15.1864 0.63212872 9.6699085
14.259717 0.63212872 -16.0322
14.259717 0.63212872 9.6699085
-15.1864 0.73331833 -16.0322
-15.1864 0.73331833 9.6699085
14.259717 0.73331833 -16.0322
14.259717 0.73331833 9.6699085
-15.1864 0.83450747 -16.0322
-15.1864 0.83450747 9.6699085
14.259717 0.83450747 -16.0322
14.259717 0.83450747 9.6699085
-15.1864 0.93569708 -16.0322
-15.1864 0.93569708 9.6699085
14.259717 0.93569708 -16.0322
14.259717 0.93569708 9.6699085
-15.1864 1.0368867 -16.0322
-15.1864 1.0368867 9.6699085
14.259717 1.0368867 -16.0322
14.259717 1.0368867 9.6699085
-15.1864 1.1380758 -16.0322
-15.1864 1.1380758 9.6699085
14.259717 1.1380758 -16.0322
14.259717 1.1380758 9.6699085
-15.1864 1.2392654 -16.0322
-15.1864 1.2392654 9.6699085
14.259717 1.2392654 -16.0322
14.259717 1.2392654 9.6699085
-15.1864 1.3404546 -16.0322
-15.1864 1.3404546 9.6699085
14.259717 1.3404546 -16.0322
14.259717 1.3404546 9.6699085
-15.1864 1.4416442 -16.0322
-15.1864 1.4416442 9.6699085
14.259717 1.4416442 -16.0322
14.259717 1.4416442 9.6699085
-15.1864 1.5428333 -16.0322
-15.1864 1.5428333 9.6699085
14.259717 1.5428333 -16.0322
14.259717 1.5428333 9.6699085
-15.1864 1.6440229 -16.0322
-15.1864 1.6440229 9.6699085
14.259717 1.6440229 -16.0322
14.259717 1.6440229 9.6699085
-15.1864 1.7452121 -16.0322
-15.1864 1.7452121 9.6699085
14.259717 1.7452121 -16.0322
14.259717 1.7452121 9.6699085
-15.1864 1.8464017 -16.0322
-15.1864 1.8464017 9.6699085
14.259717 1.8464017 -16.0322
14.259717 1.8464017 9.6699085
-15.1864 1.9475913 -16.0322
-15.1864 1.9475913 9.6699085
14.259717 1.9475913 -16.0322
14.259717 1.9475913 9.6699085
-15.1864 2.0487804 -16.0322
-15.1864 2.0487804 9.6699085
14.259717 2.0487804 -16.0322
14.259717 2.0487804 9.6699085
-15.1864 2.1499701 -16.0322
-15.1864 2.1499701 9.6699085
14.259717 2.1499701 -16.0322
14.259717 2.1499701 9.6699085
-15.1864 2.2511592 -16.0322
-15.1864 2.2511592 9.6699085
14.259717 2.2511592 -16.0322
14.259717 2.2511592 9.6699085
-15.1864 2.3523488 -16.0322
-15.1864 2.3523488 9.6699085
14.259717 2.3523488 -16.0322
14.259717 2.3523488 9.6699085
-15.1864 2.4535379 -16.0322
-15.1864 2.4535379 9.6699085
14.259717 2.4535379 -16.0322
14.259717 2.4535379 9.6699085
-15.1864 2.5547276 -16.0322
-15.1864 2.5547276 9.6699085
14.259717 2.5547276 -16.0322
14.259717 2.5547276 9.6699085
-15.1864 2.6559167 -16.0322
-15.1864 2.6559167 9.6699085
14.259717 2.6559167 -16.0322
14.259717 2.6559167 9.6699085
-15.1864 2.7571063 -16.0322
-15.1864 2.7571063 9.6699085
14.259717 2.7571063 -16.0322
14.259717 2.7571063 9.6699085
-15.1864 2.8582959 -16.0322
-15.1864 2.8582959 9.6699085
14.259717 2.8582959 -16.0322
14.259717 2.8582959 9.6699085
-15.1864 2.9594851 -16.0322
-15.1864 2.9594851 9.6699085
14.259717 2.9594851 -16.0322
14.259717 2.9594851 9.6699085
-15.1864 3.0606747 -16.0322
-15.1864 3.0606747 9.6699085
14.259717 3.0606747 -16.0322
14.259717 3.0606747 9.6699085
-15.1864 3.1618638 -16.0322
-15.1864 3.1618638 9.6699085
14.259717 3.1618638 -16.0322
14.259717 3.1618638 9.6699085
-15.1864 3.2630534 -16.0322
-15.1864 3.2630534 9.6699085
14.259717 3.2630534 -16.0322
14.259717 3.2630534 9.6699085
-15.1864 3.3642426 -16.0322
-15.1864 3.3642426 9.6699085
14.259717 3.3642426 -16.0322
14.259717 3.3642426 9.6699085
-15.1864 3.4654317 -16.0322
-15.1864 3.4654317 9.6699085
14.259717 3.4654317 -16.0322
14.259717 3.4654317 9.6699085
-15.1864 3.5666213 -16.0322
-15.1864 3.5666213 9.6699085
14.259717 3.5666213 -16.0322
14.259717 3.5666213 9.6699085
-15.1864 3.6678109 -16.0322
-15.1864 3.6678109 9.6699085
14.259717 3.6678109 -16.0322
14.259717 3.6678109 9.6699085
-15.1864 3.7690005 -16.0322
-15.1864 3.7690005 9.6699085
14.259717 3.7690005 -16.0322
14.259717 3.7690005 9.6699085
-15.1864 3.8701901 -16.0322
-15.1864 3.8701901 9.6699085
14.259717 3.8701901 -16.0322
14.259717 3.8701901 9.6699085
-15.1864 3.9713788 -16.0322
-15.1864 3.9713788 9.6699085
14.259717 3.9713788 -16.0322
14.259717 3.9713788 9.6699085
-15.1864 4.0725684 -16.0322
-15.1864 4.0725684 9.6699085
14.259717 4.0725684 -16.0322
14.259717 4.0725684 9.6699085
-15.1864 4.173758 -16.0322
-15.1864 4.173758 9.6699085
14.259717 4.173758 -16.0322
14.259717 4.173758 9.6699085
-15.1864 4.2749476 -16.0322
-15.1864 4.2749476 9.6699085
14.259717 4.2749476 -16.0322
14.259717 4.2749476 9.6699085
-15.1864 4.3761373 -16.0322
-15.1864 4.3761373 9.6699085
14.259717 4.3761373 -16.0322
14.259717 4.3761373 9.6699085
-15.1864 4.4773259 -16.0322
-15.1864 4.4773259 9.6699085
14.259717 4.4773259 -16.0322
14.259717 4.4773259 9.6699085
-15.1864 4.5785155 -16.0322
-15.1864 4.5785155 9.6699085
14.259717 4.5785155 -16.0322
14.259717 4.5785155 9.6699085
-15.1864 4.6797051 -16.0322
-15.1864 4.6797051 9.6699085
14.259717 4.6797051 -16.0322
14.259717 4.6797051 9.6699085
-15.1864 4.7808948 -16.0322
-15.1864 4.7808948 9.6699085
14.259717 4.7808948 -16.0322
14.259717 4.7808948 9.6699085
-15.1864 4.8820834 -16.0322
-15.1864 4.8820834 9.6699085
14.259717 4.8820834 -16.0322
14.259717 4.8820834 9.6699085
-15.1864 4.983273 -16.0322
-15.1864 4.983273 9.6699085
14.259717 4.983273 -16.0322
14.259717 4.983273 9.6699085
-15.1864 5.0844626 -16.0322
-15.1864 5.0844626 9.6699085
14.259717 5.0844626 -16.0322
14.259717 5.0844626 9.6699085
-15.1864 5.1856523 -16.0322
-15.1864 5.1856523 9.6699085
14.259717 5.1856523 -16.0322
14.259717 5.1856523 9.6699085
-15.1864 5.2868419 -16.0322
-15.1864 5.2868419 9.6699085
14.259717 5.2868419 -16.0322
14.259717 5.2868419 9.6699085
-15.1864 5.3880305 -16.0322
-15.1864 5.3880305 9.6699085
14.259717 5.3880305 -16.0322
14.259717 5.3880305 9.6699085
-15.1864 5.4892201 -16.0322
-15.1864 5.4892201 9.6699085
14.259717 5.4892201 -16.0322
14.259717 5.4892201 9.6699085
-15.1864 5.5904098 -16.0322
-15.1864 5.5904098 9.6699085
14.259717 5.5904098 -16.0322
14.259717 5.5904098 9.6699085
-15.1864 5.6915994 -16.0322
-15.1864 5.6915994 9.6699085
14.259717 5.6915994 -16.0322
14.259717 5.6915994 9.6699085
-15.1864 5.792788 -16.0322
-15.1864 5.792788 9.6699085
14.259717 5.792788 -16.0322
14.259717 5.792788 9.6699085
-15.1864 5.8939776 -16.0322
-15.1864 5.8939776 9.6699085
14.259717 5.8939776 -16.0322
14.259717 5.8939776 9.6699085
-15.1864 5.9951673 -16.0322
-15.1864 5.9951673 9.6699085
14.259717 5.9951673 -16.0322
14.259717 5.9951673 9.6699085
-15.1864 6.0963569 -16.0322
-15.1864 6.0963569 9.6699085
14.259717 6.0963569 -16.0322
14.259717 6.0963569 9.6699085
-15.1864 6.1975465 -16.0322
-15.1864 6.1975465 9.6699085
14.259717 6.1975465 -16.0322
14.259717 6.1975465 9.6699085
-15.1864 6.2987351 -16.0322
-15.1864 6.2987351 9.6699085
14.259717 6.2987351 -16.0322
14.259717 6.2987351 9.6699085
-15.1864 6.3999248 -16.0322
-15.1864 6.3999248 9.6699085
14.259717 6.3999248 -16.0322
14.259717 6.3999248 9.6699085
-15.1864 6.5011144 -16.0322
-15.1864 6.5011144 9.6699085
14.259717 6.5011144 -16.0322
14.259717 6.5011144 9.6699085
-15.1864 6.602304 -16.0322
-15.1864 6.602304 9.6699085
14.259717 6.602304 -16.0322
14.259717 6.602304 9.6699085
-15.1864 6.7034936 -16.0322
-15.1864 6.7034936 9.6699085
14.259717 6.7034936 -16.0322
14.259717 6.7034936 9.6699085
-15.1864 6.8046823 -16.0322
-15.1864 6.8046823 9.6699085
14.259717 6.8046823 -16.0322
14.259717 6.8046823 9.6699085
-15.1864 6.9058719 -16.0322
-15.1864 6.9058719 9.6699085
14.259717 6.9058719 -16.0322
14.259717 6.9058719 9.6699085
-15.1864 7.0070615 -16.0322
-15.1864 7.0070615 9.6699085
14.259717 7.0070615 -16.0322
14.259717 7.0070615 9.6699085
-15.1864 7.1082511 -16.0322
-15.1864 7.1082511 9.6699085
14.259717 7.1082511 -16.0322
14.259717 7.1082511 9.6699085
-15.1864 7.2094398 -16.0322
-15.1864 7.2094398 9.6699085
14.259717 7.2094398 -16.0322
14.259717 7.2094398 9.6699085
-15.1864 7.3106294 -16.0322
-15.1864 7.3106294 9.6699085
14.259717 7.3106294 -16.0322
14.259717 7.3106294 9.6699085
-15.1864 7.411819 -16.0322
-15.1864 7.411819 9.6699085
14.259717 7.411819 -16.0322
14.259717 7.411819 9.6699085
-15.1864 7.5130086 -16.0322
-15.1864 7.5130086 9.6699085
14.259717 7.5130086 -16.0322
14.259717 7.5130086 9.6699085
-15.1864 7.6141982 -16.0322
-15.1864 7.6141982 9.6699085
14.259717 7.6141982 -16.0322
14.259717 7.6141982 9.6699085
-15.1864 7.7153869 -16.0322
-15.1864 7.7153869 9.6699085
14.259717 7.7153869 -16.0322
14.259717 7.7153869 9.6699085
-15.1864 7.8165765 -16.0322
-15.1864 7.8165765 9.6699085
14.259717 7.8165765 -16.0322
14.259717 7.8165765 9.6699085
-15.1864 7.9177661 -16.0322
-15.1864 7.9177661 9.6699085
14.259717 7.9177661 -16.0322
14.259717 7.9177661 9.6699085
-15.1864 8.0189552 -16.0322
-15.1864 8.0189552 9.6699085
14.259717 8.0189552 -16.0322
14.259717 8.0189552 9.6699085
-15.1864 8.1201439 -16.0322
-15.1864 8.1201439 9.6699085
14.259717 8.1201439 -16.0322
14.259717 8.1201439 9.6699085
-15.1864 8.2213345 -16.0322
-15.1864 8.2213345 9.6699085
14.259717 8.2213345 -16.0322
14.259717 8.2213345 9.6699085
-15.1864 8.3225231 -16.0322
-15.1864 8.3225231 9.6699085
14.259717 8.3225231 -16.0322
14.259717 8.3225231 9.6699085
-15.1864 8.4237137 -16.0322
-15.1864 8.4237137 9.6699085
14.259717 8.4237137 -16.0322
14.259717 8.4237137 9.6699085
-15.1864 8.5249023 -16.0322
-15.1864 8.5249023 9.6699085
14.259717 8.5249023 -16.0322
14.259717 8.5249023 9.6699085
-15.1864 8.626091 -16.0322
-15.1864 8.626091 9.6699085
14.259717 8.626091 -16.0322
14.259717 8.626091 9.6699085
-15.1864 8.7272816 -16.0322
-15.1864 8.7272816 9.6699085
14.259717 8.7272816 -16.0322
14.259717 8.7272816 9.6699085
-15.1864 8.8284702 -16.0322
-15.1864 8.8284702 9.6699085
14.259717 8.8284702 -16.0322
14.259717 8.8284702 9.6699085
-15.1864 8.9296608 -16.0322
-15.1864 8.9296608 9.6699085
14.259717 8.9296608 -16.0322
14.259717 8.9296608 9.6699085
-15.1864 -4.6297202 -16.0322
-15.1864 8.9296608 -16.0322
14.259717 -4.6297202 -16.0322
14.259717 8.9296608 -16.0322
-15.1864 -4.6297202 -15.93101
-15.1864 8.9296608 -15.93101
14.259717 -4.6297202 -15.93101
14.259717 8.9296608 -15.93101
-15.1864 -4.6297202 -15.829821
-15.1864 8.9296608 -15.829821
14.259717 -4.6297202 -15.829821
14.259717 8.9296608 -15.829821
-15.1864 -4.6297202 -15.728632
-15.1864 8.9296608 -15.728632
14.259717 -4.6297202 -15.728632
14.259717 8.9296608 -15.728632
-15.1864 -4.6297202 -15.627442
-15.1864 8.9296608 -15.627442
14.259717 -4.6297202 -15.627442
14.259717 8.9296608 -15.627442
-15.1864 -4.6297202 -15.526253
-15.1864 8.9296608 -15.526253
14.259717 -4.6297202 -15.526253
14.259717 8.9296608 -15.526253
-15.1864 -4.6297202 -15.425063
-15.1864 8.9296608 -15.425063
14.259717 -4.6297202 -15.425063
14.259717 8.9296608 -15.425063
-15.1864 -4.6297202 -15.323874
-15.1864 8.9296608 -15.323874
14.259717 -4.6297202 -15.323874
14.259717 8.9296608 -15.323874
-15.1864 -4.6297202 -15.222685
-15.1864 8.9296608 -15.222685
14.259717 -4.6297202 -15.222685
14.259717 8.9296608 -15.222685
-15.1864 -4.6297202 -15.121495
-15.1864 8.9296608 -15.121495
14.259717 -4.6297202 -15.121495
14.259717 8.9296608 -15.121495
-15.1864 -4.6297202 -15.020306
-15.1864 8.9296608 -15.020306
14.259717 -4.6297202 -15.020306
14.259717 8.9296608 -15.020306
-15.1864 -4.6297202 -14.919116
-15.1864 8.9296608 -14.919116
14.259717 -4.6297202 -14.919116
14.259717 8.9296608 -14.919116
-15.1864 -4.6297202 -14.817927
-15.1864 8.9296608 -14.817927
14.259717 -4.6297202 -14.817927
14.259717 8.9296608 -14.817927
-15.1864 -4.6297202 -14.716738
-15.1864 8.9296608 -14.716738
14.259717 -4.6297202 -14.716738
14.259717 8.9296608 -14.716738
-15.1864 -4.6297202 -14.615548
-15.1864 8.9296608 -14.615548
14.259717 -4.6297202 -14.615548
14.259717 8.9296608 -14.615548
-15.1864 -4.6297202 -14.514359
-15.1864 8.9296608 -14.514359
14.259717 -4.6297202 -14.514359
14.259717 8.9296608 -14.514359
-15.1864 -4.6297202 -14.41317
-15.1864 8.9296608 -14.41317
14.259717 -4.6297202 -14.41317
14.259717 8.9296608 -14.41317
-15.1864 -4.6297202 -14.31198
-15.1864 8.9296608 -14.31198
14.259717 -4.6297202 -14.31198
14.259717 8.9296608 -14.31198
-15.1864 -4.6297202 -14.210791
-15.1864 8.9296608 -14.210791
14.259717 -4.6297202 -14.210791
14.259717 8.9296608 -14.210791
-15.1864 -4.6297202 -14.109601
-15.1864 8.9296608 -14.109601
14.259717 -4.6297202 -14.109601
14.259717 8.9296608 -14.109601
-15.1864 -4.6297202 -14.008411
-15.1864 8.9296608 -14.008411
14.259717 -4.6297202 -14.008411
14.259717 8.9296608 -14.008411
-15.1864 -4.6297202 -13.907223
-15.1864 8.9296608 -13.907223
14.259717 -4.6297202 -13.907223
14.259717 8.9296608 -13.907223
-15.1864 -4.6297202 -13.806033
-15.1864 8.9296608 -13.806033
14.259717 -4.6297202 -13.806033
14.259717 8.9296608 -13.806033
-15.1864 -4.6297202 -13.704844
-15.1864 8.9296608 -13.704844
14.259717 -4.6297202 -13.704844
14.259717 8.9296608 -13.704844
-15.1864 -4.6297202 -13.603654
-15.1864 8.9296608 -13.603654
14.259717 -4.6297202 -13.603654
14.259717 8.9296608 -13.603654
-15.1864 -4.6297202 -13.502464
-15.1864 8.9296608 -13.502464
14.259717 -4.6297202 -13.502464
14.259717 8.9296608 -13.502464
-15.1864 -4.6297202 -13.401276
-15.1864 8.9296608 -13.401276
14.259717 -4.6297202 -13.401276
14.259717 8.9296608 -13.401276
-15.1864 -4.6297202 -13.300086
-15.1864 8.9296608 -13.300086
14.259717 -4.6297202 -13.300086
14.259717 8.9296608 -13.300086
-15.1864 -4.6297202 -13.198896
-15.1864 8.9296608 -13.198896
14.259717 -4.6297202 -13.198896
14.259717 8.9296608 -13.198896
-15.1864 -4.6297202 -13.097707
-15.1864 8.9296608 -13.097707
14.259717 -4.6297202 -13.097707
14.259717 8.9296608 -13.097707
-15.1864 -4.6297202 -12.996517
-15.1864 8.9296608 -12.996517
14.259717 -4.6297202 -12.996517
14.259717 8.9296608 -12.996517
-15.1864 -4.6297202 -12.895329
-15.1864 8.9296608 -12.895329
14.259717 -4.6297202 -12.895329
14.259717 8.9296608 -12.895329
-15.1864 -4.6297202 -12.794139
-15.1864 8.9296608 -12.794139
14.259717 -4.6297202 -12.794139
14.259717 8.9296608 -12.794139
-15.1864 -4.6297202 -12.692949
-15.1864 8.9296608 -12.692949
14.259717 -4.6297202 -12.692949
14.259717 8.9296608 -12.692949
-15.1864 -4.6297202 -12.591761
-15.1864 8.9296608 -12.591761
14.259717 -4.6297202 -12.591761
14.259717 8.9296608 -12.591761
-15.1864 -4.6297202 -12.490571
-15.1864 8.9296608 -12.490571
14.259717 -4.6297202 -12.490571
14.259717 8.9296608 -12.490571
-15.1864 -4.6297202 -12.389381
-15.1864 8.9296608 -12.389381
14.259717 -4.6297202 -12.389381
14.259717 8.9296608 -12.389381
-15.1864 -4.6297202 -12.288192
-15.1864 8.9296608 -12.288192
14.259717 -4.6297202 -12.288192
14.259717 8.9296608 -12.288192
-15.1864 -4.6297202 -12.187002
-15.1864 8.9296608 -12.187002
14.259717 -4.6297202 -12.187002
14.259717 8.9296608 -12.187002
-15.1864 -4.6297202 -12.085814
-15.1864 8.9296608 -12.085814
14.259717 -4.6297202 -12.085814
14.259717 8.9296608 -12.085814
-15.1864 -4.6297202 -11.984624
-15.1864 8.9296608 -11.984624
14.259717 -4.6297202 -11.984624
14.259717 8.9296608 -11.984624
-15.1864 -4.6297202 -11.883434
-15.1864 8.9296608 -11.883434
14.259717 -4.6297202 -11.883434
14.259717 8.9296608 -11.883434
-15.1864 -4.6297202 -11.782245
-15.1864 8.9296608 -11.782245
14.259717 -4.6297202 -11.782245
14.259717 8.9296608 -11.782245
-15.1864 -4.6297202 -11.681055
-15.1864 8.9296608 -11.681055
14.259717 -4.6297202 -11.681055
14.259717 8.9296608 -11.681055
-15.1864 -4.6297202 -11.579866
-15.1864 8.9296608 -11.579866
14.259717 -4.6297202 -11.579866
14.259717 8.9296608 -11.579866
-15.1864 -4.6297202 -11.478677
-15.1864 8.9296608 -11.478677
14.259717 -4.6297202 -11.478677
14.259717 8.9296608 -11.478677
-15.1864 -4.6297202 -11.377487
-15.1864 8.9296608 -11.377487
14.259717 -4.6297202 -11.377487
14.259717 8.9296608 -11.377487
-15.1864 -4.6297202 -11.276299
-15.1864 8.9296608 -11.276299
14.259717 -4.6297202 -11.276299
14.259717 8.9296608 -11.276299
-15.1864 -4.6297202 -11.175108
-15.1864 8.9296608 -11.175108
14.259717 -4.6297202 -11.175108
14.259717 8.9296608 -11.175108
-15.1864 -4.6297202 -11.073919
-15.1864 8.9296608 -11.073919
14.259717 -4.6297202 -11.073919
14.259717 8.9296608 -11.073919
-15.1864 -4.6297202 -10.97273
-15.1864 8.9296608 -10.97273
14.259717 -4.6297202 -10.97273
14.259717 8.9296608 -10.97273
-15.1864 -4.6297202 -10.87154
-15.1864 8.9296608 -10.87154
14.259717 -4.6297202 -10.87154
14.259717 8.9296608 -10.87154
-15.1864 -4.6297202 -10.770351
-15.1864 8.9296608 -10.770351
14.259717 -4.6297202 -10.770351
14.259717 8.9296608 -10.770351
-15.1864 -4.6297202 -10.669161
-15.1864 8.9296608 -10.669161
14.259717 -4.6297202 -10.669161
14.259717 8.9296608 -10.669161
-15.1864 -4.6297202 -10.567972
-15.1864 8.9296608 -10.567972
14.259717 -4.6297202 -10.567972
14.259717 8.9296608 -10.567972
-15.1864 -4.6297202 -10.466783
-15.1864 8.9296608 -10.466783
14.259717 -4.6297202 -10.466783
14.259717 8.9296608 -10.466783
-15.1864 -4.6297202 -10.365593
-15.1864 8.9296608 -10.365593
14.259717 -4.6297202 -10.365593
14.259717 8.9296608 -10.365593
-15.1864 -4.6297202 -10.264404
-15.1864 8.9296608 -10.264404
14.259717 -4.6297202 -10.264404
14.259717 8.9296608 -10.264404
-15.1864 -4.6297202 -10.163214
-15.1864 8.9296608 -10.163214
14.259717 -4.6297202 -10.163214
14.259717 8.9296608 -10.163214
-15.1864 -4.6297202 -10.062025
-15.1864 8.9296608 -10.062025
14.259717 -4.6297202 -10.062025
14.259717 8.9296608 -10.062025
-15.1864 -4.6297202 -9.9608355
-15.1864 8.9296608 -9.9608355
14.259717 -4.6297202 -9.9608355
14.259717 8.9296608 -9.9608355
-15.1864 -4.6297202 -9.8596458
-15.1864 8.9296608 -9.8596458
14.259717 -4.6297202 -9.8596458
14.259717 8.9296608 -9.8596458
-15.1864 -4.6297202 -9.7584572
-15.1864 8.9296608 -9.7584572
14.259717 -4.6297202 -9.7584572
14.259717 8.9296608 -9.7584572
-15.1864 -4.6297202 -9.6572676
-15.1864 8.9296608 -9.6572676
14.259717 -4.6297202 -9.6572676
14.259717 8.9296608 -9.6572676
-15.1864 -4.6297202 -9.556078
-15.1864 8.9296608 -9.556078
14.259717 -4.6297202 -9.556078
14.259717 8.9296608 -9.556078
-15.1864 -4.6297202 -9.4548883
-15.1864 8.9296608 -9.4548883
14.259717 -4.6297202 -9.4548883
14.259717 8.9296608 -9.4548883
-15.1864 -4.6297202 -9.3536987
-15.1864 8.9296608 -9.3536987
14.259717 -4.6297202 -9.3536987
14.259717 8.9296608 -9.3536987
-15.1864 -4.6297202 -9.2525101
-15.1864 8.9296608 -9.2525101
14.259717 -4.6297202 -9.2525101
14.259717 8.9296608 -9.2525101
-15.1864 -4.6297202 -9.1513205
-15.1864 8.9296608 -9.1513205
14.259717 -4.6297202 -9.1513205
14.259717 8.9296608 -9.1513205
-15.1864 -4.6297202 -9.0501308
-15.1864 8.9296608 -9.0501308
14.259717 -4.6297202 -9.0501308
14.259717 8.9296608 -9.0501308
-15.1864 -4.6297202 -8.9489422
-15.1864 8.9296608 -8.9489422
14.259717 -4.6297202 -8.9489422
14.259717 8.9296608 -8.9489422
-15.1864 -4.6297202 -8.8477516
-15.1864 8.9296608 -8.8477516
14.259717 -4.6297202 -8.8477516
14.259717 8.9296608 -8.8477516
-15.1864 -4.6297202 -8.746563
-15.1864 8.9296608 -8.746563
14.259717 -4.6297202 -8.746563
14.259717 8.9296608 -8.746563
-15.1864 -4.6297202 -8.6453733
-15.1864 8.9296608 -8.6453733
14.259717 -4.6297202 -8.6453733
14.259717 8.9296608 -8.6453733
-15.1864 -4.6297202 -8.5441837
-15.1864 8.9296608 -8.5441837
14.259717 -4.6297202 -8.5441837
14.259717 8.9296608 -8.5441837
-15.1864 -4.6297202 -8.4429951
-15.1864 8.9296608 -8.4429951
14.259717 -4.6297202 -8.4429951
14.259717 8.9296608 -8.4429951
-15.1864 -4.6297202 -8.3418045
-15.1864 8.9296608 -8.3418045
14.259717 -4.6297202 -8.3418045
14.259717 8.9296608 -8.3418045
-15.1864 -4.6297202 -8.2406158
-15.1864 8.9296608 -8.2406158
14.259717 -4.6297202 -8.2406158
14.259717 8.9296608 -8.2406158
-15.1864 -4.6297202 -8.1394262
-15.1864 8.9296608 -8.1394262
14.259717 -4.6297202 -8.1394262
14.259717 8.9296608 -8.1394262
-15.1864 -4.6297202 -8.0382366
-15.1864 8.9296608 -8.0382366
14.259717 -4.6297202 -8.0382366
14.259717 8.9296608 -8.0382366
-15.1864 -4.6297202 -7.937048
-15.1864 8.9296608 -7.937048
14.259717 -4.6297202 -7.937048
14.259717 8.9296608 -7.937048
-15.1864 -4.6297202 -7.8358583
-15.1864 8.9296608 -7.8358583
14.259717 -4.6297202 -7.8358583
14.259717 8.9296608 -7.8358583
-15.1864 -4.6297202 -7.7346687
-15.1864 8.9296608 -7.7346687
14.259717 -4.6297202 -7.7346687
14.259717 8.9296608 -7.7346687
-15.1864 -4.6297202 -7.6334791
-15.1864 8.9296608 -7.6334791
14.259717 -4.6297202 -7.6334791
14.259717 8.9296608 -7.6334791
-15.1864 -4.6297202 -7.5322895
-15.1864 8.9296608 -7.5322895
14.259717 -4.6297202 -7.5322895
14.259717 8.9296608 -7.5322895
-15.1864 -4.6297202 -7.4311008
-15.1864 8.9296608 -7.4311008
14.259717 -4.6297202 -7.4311008
14.259717 8.9296608 -7.4311008
-15.1864 -4.6297202 -7.3299112
-15.1864 8.9296608 -7.3299112
14.259717 -4.6297202 -7.3299112
14.259717 8.9296608 -7.3299112
-15.1864 -4.6297202 -7.2287216
-15.1864 8.9296608 -7.2287216
14.259717 -4.6297202 -7.2287216
14.259717 8.9296608 -7.2287216
-15.1864 -4.6297202 -7.127532
-15.1864 8.9296608 -7.127532
14.259717 -4.6297202 -7.127532
14.259717 8.9296608 -7.127532
-15.1864 -4.6297202 -7.0263424
-15.1864 8.9296608 -7.0263424
14.259717 -4.6297202 -7.0263424
14.259717 8.9296608 -7.0263424
-15.1864 -4.6297202 -6.9251537
-15.1864 8.9296608 -6.9251537
14.259717 -4.6297202 -6.9251537
14.259717 8.9296608 -6.9251537
-15.1864 -4.6297202 -6.8239641
-15.1864 8.9296608 -6.8239641
14.259717 -4.6297202 -6.8239641
14.259717 8.9296608 -6.8239641
-15.1864 -4.6297202 -6.7227745
-15.1864 8.9296608 -6.7227745
14.259717 -4.6297202 -6.7227745
14.259717 8.9296608 -6.7227745
-15.1864 -4.6297202 -6.6215849
-15.1864 8.9296608 -6.6215849
14.259717 -4.6297202 -6.6215849
14.259717 8.9296608 -6.6215849
-15.1864 -4.6297202 -6.5203962
-15.1864 8.9296608 -6.5203962
14.259717 -4.6297202 -6.5203962
14.259717 8.9296608 -6.5203962
-15.1864 -4.6297202 -6.4192066
-15.1864 8.9296608 -6.4192066
14.259717 -4.6297202 -6.4192066
14.259717 8.9296608 -6.4192066
-15.1864 -4.6297202 -6.318017
-15.1864 8.9296608 -6.318017
14.259717 -4.6297202 -6.318017
14.259717 8.9296608 -6.318017
-15.1864 -4.6297202 -6.2168274
-15.1864 8.9296608 -6.2168274
14.259717 -4.6297202 -6.2168274
14.259717 8.9296608 -6.2168274
-15.1864 -4.6297202 -6.1156378
-15.1864 8.9296608 -6.1156378
14.259717 -4.6297202 -6.1156378
14.259717 8.9296608 -6.1156378
-15.1864 -4.6297202 -6.0144491
-15.1864 8.9296608 -6.0144491
14.259717 -4.6297202 -6.0144491
14.259717 8.9296608 -6.0144491
-15.1864 -4.6297202 -5.9132595
-15.1864 8.9296608 -5.9132595
14.259717 -4.6297202 -5.9132595
14.259717 8.9296608 -5.9132595
-15.1864 -4.6297202 -5.8120699
-15.1864 8.9296608 -5.8120699
14.259717 -4.6297202 -5.8120699
14.259717 8.9296608 -5.8120699
-15.1864 -4.6297202 -5.7108803
-15.1864 8.9296608 -5.7108803
14.259717 -4.6297202 -5.7108803
14.259717 8.9296608 -5.7108803
-15.1864 -4.6297202 -5.6096916
-15.1864 8.9296608 -5.6096916
14.259717 -4.6297202 -5.6096916
14.259717 8.9296608 -5.6096916
-15.1864 -4.6297202 -5.508502
-15.1864 8.9296608 -5.508502
14.259717 -4.6297202 -5.508502
14.259717 8.9296608 -5.508502
-15.1864 -4.6297202 -5.4073124
-15.1864 8.9296608 -5.4073124
14.259717 -4.6297202 -5.4073124
14.259717 8.9296608 -5.4073124
-15.1864 -4.6297202 -5.3061228
-15.1864 8.9296608 -5.3061228
14.259717 -4.6297202 -5.3061228
14.259717 8.9296608 -5.3061228
-15.1864 -4.6297202 -5.2049332
-15.1864 8.9296608 -5.2049332
14.259717 -4.6297202 -5.2049332
14.259717 8.9296608 -5.2049332
-15.1864 -4.6297202 -5.1037445
-15.1864 8.9296608 -5.1037445
14.259717 -4.6297202 -5.1037445
14.259717 8.9296608 -5.1037445
-15.1864 -4.6297202 -5.0025549
-15.1864 8.9296608 -5.0025549
14.259717 -4.6297202 -5.0025549
14.259717 8.9296608 -5.0025549
-15.1864 -4.6297202 -4.9013653
-15.1864 8.9296608 -4.9013653
14.259717 -4.6297202 -4.9013653
14.259717 8.9296608 -4.9013653
-15.1864 -4.6297202 -4.8001757
-15.1864 8.9296608 -4.8001757
14.259717 -4.6297202 -4.8001757
14.259717 8.9296608 -4.8001757
-15.1864 -4.6297202 -4.6989861
-15.1864 8.9296608 -4.6989861
14.259717 -4.6297202 -4.6989861
14.259717 8.9296608 -4.6989861
-15.1864 -4.6297202 -4.5977974
-15.1864 8.9296608 -4.5977974
14.259717 -4.6297202 -4.5977974
14.259717 8.9296608 -4.5977974
-15.1864 -4.6297202 -4.4966078
-15.1864 8.9296608 -4.4966078
14.259717 -4.6297202 -4.4966078
14.259717 8.9296608 -4.4966078
-15.1864 -4.6297202 -4.3954182
-15.1864 8.9296608 -4.3954182
14.259717 -4.6297202 -4.3954182
14.259717 8.9296608 -4.3954182
-15.1864 -4.6297202 -4.2942286
-15.1864 8.9296608 -4.2942286
14.259717 -4.6297202 -4.2942286
14.259717 8.9296608 -4.2942286
-15.1864 -4.6297202 -4.1930399
-15.1864 8.9296608 -4.1930399
14.259717 -4.6297202 -4.1930399
14.259717 8.9296608 -4.1930399
-15.1864 -4.6297202 -4.0918503
-15.1864 8.9296608 -4.0918503
14.259717 -4.6297202 -4.0918503
14.259717 8.9296608 -4.0918503
-15.1864 -4.6297202 -3.9906607
-15.1864 8.9296608 -3.9906607
14.259717 -4.6297202 -3.9906607
14.259717 8.9296608 -3.9906607
-15.1864 -4.6297202 -3.8894711
-15.1864 8.9296608 -3.8894711
14.259717 -4.6297202 -3.8894711
14.259717 8.9296608 -3.8894711
-15.1864 -4.6297202 -3.7882814
-15.1864 8.9296608 -3.7882814
14.259717 -4.6297202 -3.7882814
14.259717 8.9296608 -3.7882814
-15.1864 -4.6297202 -3.6870928
-15.1864 8.9296608 -3.6870928
14.259717 -4.6297202 -3.6870928
14.259717 8.9296608 -3.6870928
-15.1864 -4.6297202 -3.5859032
-15.1864 8.9296608 -3.5859032
14.259717 -4.6297202 -3.5859032
14.259717 8.9296608 -3.5859032
-15.1864 -4.6297202 -3.4847136
-15.1864 8.9296608 -3.4847136
14.259717 -4.6297202 -3.4847136
14.259717 8.9296608 -3.4847136
-15.1864 -4.6297202 -3.3835239
-15.1864 8.9296608 -3.3835239
14.259717 -4.6297202 -3.3835239
14.259717 8.9296608 -3.3835239
-15.1864 -4.6297202 -3.2823353
-15.1864 8.9296608 -3.2823353
14.259717 -4.6297202 -3.2823353
14.259717 8.9296608 -3.2823353
-15.1864 -4.6297202 -3.1811457
-15.1864 8.9296608 -3.1811457
14.259717 -4.6297202 -3.1811457
14.259717 8.9296608 -3.1811457
-15.1864 -4.6297202 -3.0799561
-15.1864 8.9296608 -3.0799561
14.259717 -4.6297202 -3.0799561
14.259717 8.9296608 -3.0799561
-15.1864 -4.6297202 -2.9787664
-15.1864 8.9296608 -2.9787664
14.259717 -4.6297202 -2.9787664
14.259717 8.9296608 -2.9787664
-15.1864 -4.6297202 -2.8775768
-15.1864 8.9296608 -2.8775768
14.259717 -4.6297202 -2.8775768
14.259717 8.9296608 -2.8775768
-15.1864 -4.6297202 -2.7763882
-15.1864 8.9296608 -2.7763882
14.259717 -4.6297202 -2.7763882
14.259717 8.9296608 -2.7763882
-15.1864 -4.6297202 -2.6751986
-15.1864 8.9296608 -2.6751986
14.259717 -4.6297202 -2.6751986
14.259717 8.9296608 -2.6751986
-15.1864 -4.6297202 -2.5740089
-15.1864 8.9296608 -2.5740089
14.259717 -4.6297202 -2.5740089
14.259717 8.9296608 -2.5740089
-15.1864 -4.6297202 -2.4728193
-15.1864 8.9296608 -2.4728193
14.259717 -4.6297202 -2.4728193
14.259717 8.9296608 -2.4728193
-15.1864 -4.6297202 -2.3716307
-15.1864 8.9296608 -2.3716307
14.259717 -4.6297202 -2.3716307
14.259717 8.9296608 -2.3716307
-15.1864 -4.6297202 -2.2704411
-15.1864 8.9296608 -2.2704411
14.259717 -4.6297202 -2.2704411
14.259717 8.9296608 -2.2704411
-15.1864 -4.6297202 -2.1692514
-15.1864 8.9296608 -2.1692514
14.259717 -4.6297202 -2.1692514
14.259717 8.9296608 -2.1692514
-15.1864 -4.6297202 -2.0680618
-15.1864 8.9296608 -2.0680618
14.259717 -4.6297202 -2.0680618
14.259717 8.9296608 -2.0680618
-15.1864 -4.6297202 -1.9668722
-15.1864 8.9296608 -1.9668722
14.259717 -4.6297202 -1.9668722
14.259717 8.9296608 -1.9668722
-15.1864 -4.6297202 -1.8656836
-15.1864 8.9296608 -1.8656836
14.259717 -4.6297202 -1.8656836
14.259717 8.9296608 -1.8656836
-15.1864 -4.6297202 -1.7644939
-15.1864 8.9296608 -1.7644939
14.259717 -4.6297202 -1.7644939
14.259717 8.9296608 -1.7644939
-15.1864 -4.6297202 -1.6633043
-15.1864 8.9296608 -1.6633043
14.259717 -4.6297202 -1.6633043
14.259717 8.9296608 -1.6633043
-15.1864 -4.6297202 -1.5621147
-15.1864 8.9296608 -1.5621147
14.259717 -4.6297202 -1.5621147
14.259717 8.9296608 -1.5621147
-15.1864 -4.6297202 -1.4609261
-15.1864 8.9296608 -1.4609261
14.259717 -4.6297202 -1.4609261
14.259717 8.9296608 -1.4609261
-15.1864 -4.6297202 -1.3597364
-15.1864 8.9296608 -1.3597364
14.259717 -4.6297202 -1.3597364
14.259717 8.9296608 -1.3597364
-15.1864 -4.6297202 -1.2585468
-15.1864 8.9296608 -1.2585468
14.259717 -4.6297202 -1.2585468
14.259717 8.9296608 -1.2585468
-15.1864 -4.6297202 -1.1573572
-15.1864 8.9296608 -1.1573572
14.259717 -4.6297202 -1.1573572
14.259717 8.9296608 -1.1573572
-15.1864 -4.6297202 -1.0561676
-15.1864 8.9296608 -1.0561676
14.259717 -4.6297202 -1.0561676
14.259717 8.9296608 -1.0561676
-15.1864 -4.6297202 -0.95497894
-15.1864 8.9296608 -0.95497894
14.259717 -4.6297202 -0.95497894
14.259717 8.9296608 -0.95497894
-15.1864 -4.6297202 -0.85378933
-15.1864 8.9296608 -0.85378933
14.259717 -4.6297202 -0.85378933
14.259717 8.9296608 -0.85378933
-15.1864 -4.6297202 -0.75259972
-15.1864 8.9296608 -0.75259972
14.259717 -4.6297202 -0.75259972
14.259717 8.9296608 -0.75259972
-15.1864 -4.6297202 -0.6514101
-15.1864 8.9296608 -0.6514101
14.259717 -4.6297202 -0.6514101
14.259717 8.9296608 -0.6514101
-15.1864 -4.6297202 -0.55022049
-15.1864 8.9296608 -0.55022049
14.259717 -4.6297202 -0.55022049
14.259717 8.9296608 -0.55022049
-15.1864 -4.6297202 -0.44903183
-15.1864 8.9296608 -0.44903183
14.259717 -4.6297202 -0.44903183
14.259717 8.9296608 -0.44903183
-15.1864 -4.6297202 -0.34784222
-15.1864 8.9296608 -0.34784222
14.259717 -4.6297202 -0.34784222
14.259717 8.9296608 -0.34784222
-15.1864 -4.6297202 -0.2466526
-15.1864 8.9296608 -0.2466526
14.259717 -4.6297202 -0.2466526
14.259717 8.9296608 -0.2466526
-15.1864 -4.6297202 -0.14546299
-15.1864 8.9296608 -0.14546299
14.259717 -4.6297202 -0.14546299
14.259717 8.9296608 -0.14546299
-15.1864 -4.6297202 -0.04427433
-15.1864 8.9296608 -0.04427433
14.259717 -4.6297202 -0.04427433
14.259717 8.9296608 -0.04427433
-15.1864 -4.6297202 0.056915283
-15.1864 8.9296608 0.056915283
14.259717 -4.6297202 0.056915283
14.259717 8.9296608 0.056915283
-15.1864 -4.6297202 0.15810394
-15.1864 8.9296608 0.15810394
14.259717 -4.6297202 0.15810394
14.259717 8.9296608 0.15810394
-15.1864 -4.6297202 0.25929451
-15.1864 8.9296608 0.25929451
14.259717 -4.6297202 0.25929451
14.259717 8.9296608 0.25929451
-15.1864 -4.6297202 0.36048317
-15.1864 8.9296608 0.36048317
14.259717 -4.6297202 0.36048317
14.259717 8.9296608 0.36048317
-15.1864 -4.6297202 0.46167374
-15.1864 8.9296608 0.46167374
14.259717 -4.6297202 0.46167374
14.259717 8.9296608 0.46167374
-15.1864 -4.6297202 0.5628624
-15.1864 8.9296608 0.5628624
14.259717 -4.6297202 0.5628624
14.259717 8.9296608 0.5628624
-15.1864 -4.6297202 0.66405106
-15.1864 8.9296608 0.66405106
14.259717 -4.6297202 0.66405106
14.259717 8.9296608 0.66405106
-15.1864 -4.6297202 0.76524162
-15.1864 8.9296608 0.76524162
14.259717 -4.6297202 0.76524162
14.259717 8.9296608 0.76524162
-15.1864 -4.6297202 0.86643028
-15.1864 8.9296608 0.86643028
14.259717 -4.6297202 0.86643028
14.259717 8.9296608 0.86643028
-15.1864 -4.6297202 0.96762085
-15.1864 8.9296608 0.96762085
14.259717 -4.6297202 0.96762085
14.259717 8.9296608 0.96762085
-15.1864 -4.6297202 1.0688095
-15.1864 8.9296608 1.0688095
14.259717 -4.6297202 1.0688095
14.259717 8.9296608 1.0688095
-15.1864 -4.6297202 1.1699982
-15.1864 8.9296608 1.1699982
14.259717 -4.6297202 1.1699982
14.259717 8.9296608 1.1699982
-15.1864 -4.6297202 1.2711887
-15.1864 8.9296608 1.2711887
14.259717 -4.6297202 1.2711887
14.259717 8.9296608 1.2711887
-15.1864 -4.6297202 1.3723774
-15.1864 8.9296608 1.3723774
14.259717 -4.6297202 1.3723774
14.259717 8.9296608 1.3723774
-15.1864 -4.6297202 1.473568
-15.1864 8.9296608 1.473568
14.259717 -4.6297202 1.473568
14.259717 8.9296608 1.473568
-15.1864 -4.6297202 1.5747566
-15.1864 8.9296608 1.5747566
14.259717 -4.6297202 1.5747566
14.259717 8.9296608 1.5747566
-15.1864 -4.6297202 1.6759453
-15.1864 8.9296608 1.6759453
14.259717 -4.6297202 1.6759453
14.259717 8.9296608 1.6759453
-15.1864 -4.6297202 1.7771358
-15.1864 8.9296608 1.7771358
14.259717 -4.6297202 1.7771358
14.259717 8.9296608 1.7771358
-15.1864 -4.6297202 1.8783245
-15.1864 8.9296608 1.8783245
14.259717 -4.6297202 1.8783245
14.259717 8.9296608 1.8783245
-15.1864 -4.6297202 1.9795151
-15.1864 8.9296608 1.9795151
14.259717 -4.6297202 1.9795151
14.259717 8.9296608 1.9795151
-15.1864 -4.6297202 2.0807037
-15.1864 8.9296608 2.0807037
14.259717 -4.6297202 2.0807037
14.259717 8.9296608 2.0807037
-15.1864 -4.6297202 2.1818924
-15.1864 8.9296608 2.1818924
14.259717 -4.6297202 2.1818924
14.259717 8.9296608 2.1818924
-15.1864 -4.6297202 2.283083
-15.1864 8.9296608 2.283083
14.259717 -4.6297202 2.283083
14.259717 8.9296608 2.283083
-15.1864 -4.6297202 2.3842716
-15.1864 8.9296608 2.3842716
14.259717 -4.6297202 2.3842716
14.259717 8.9296608 2.3842716
-15.1864 -4.6297202 2.4854603
-15.1864 8.9296608 2.4854603
14.259717 -4.6297202 2.4854603
14.259717 8.9296608 2.4854603
-15.1864 -4.6297202 2.5866508
-15.1864 8.9296608 2.5866508
14.259717 -4.6297202 2.5866508
14.259717 8.9296608 2.5866508
-15.1864 -4.6297202 2.6878395
-15.1864 8.9296608 2.6878395
14.259717 -4.6297202 2.6878395
14.259717 8.9296608 2.6878395
-15.1864 -4.6297202 2.7890301
-15.1864 8.9296608 2.7890301
14.259717 -4.6297202 2.7890301
14.259717 8.9296608 2.7890301
-15.1864 -4.6297202 2.8902187
-15.1864 8.9296608 2.8902187
14.259717 -4.6297202 2.8902187
14.259717 8.9296608 2.8902187
-15.1864 -4.6297202 2.9914074
-15.1864 8.9296608 2.9914074
14.259717 -4.6297202 2.9914074
14.259717 8.9296608 2.9914074
-15.1864 -4.6297202 3.092598
-15.1864 8.9296608 3.092598
14.259717 -4.6297202 3.092598
14.259717 8.9296608 3.092598
-15.1864 -4.6297202 3.1937866
-15.1864 8.9296608 3.1937866
14.259717 -4.6297202 3.1937866
14.259717 8.9296608 3.1937866
-15.1864 -4.6297202 3.2949772
-15.1864 8.9296608 3.2949772
14.259717 -4.6297202 3.2949772
14.259717 8.9296608 3.2949772
-15.1864 -4.6297202 3.3961658
-15.1864 8.9296608 3.3961658
14.259717 -4.6297202 3.3961658
14.259717 8.9296608 3.3961658
-15.1864 -4.6297202 3.4973545
-15.1864 8.9296608 3.4973545
14.259717 -4.6297202 3.4973545
14.259717 8.9296608 3.4973545
-15.1864 -4.6297202 3.5985451
-15.1864 8.9296608 3.5985451
14.259717 -4.6297202 3.5985451
14.259717 8.9296608 3.5985451
-15.1864 -4.6297202 3.6997337
-15.1864 8.9296608 3.6997337
14.259717 -4.6297202 3.6997337
14.259717 8.9296608 3.6997337
-15.1864 -4.6297202 3.8009243
-15.1864 8.9296608 3.8009243
14.259717 -4.6297202 3.8009243
14.259717 8.9296608 3.8009243
-15.1864 -4.6297202 3.902113
-15.1864 8.9296608 3.902113
14.259717 -4.6297202 3.902113
14.259717 8.9296608 3.902113
-15.1864 -4.6297202 4.0033016
-15.1864 8.9296608 4.0033016
14.259717 -4.6297202 4.0033016
14.259717 8.9296608 4.0033016
-15.1864 -4.6297202 4.1044922
-15.1864 8.9296608 4.1044922
14.259717 -4.6297202 4.1044922
14.259717 8.9296608 4.1044922
-15.1864 -4.6297202 4.2056808
-15.1864 8.9296608 4.2056808
14.259717 -4.6297202 4.2056808
14.259717 8.9296608 4.2056808
-15.1864 -4.6297202 4.3068714
-15.1864 8.9296608 4.3068714
14.259717 -4.6297202 4.3068714
14.259717 8.9296608 4.3068714
-15.1864 -4.6297202 4.4080601
-15.1864 8.9296608 4.4080601
14.259717 -4.6297202 4.4080601
14.259717 8.9296608 4.4080601
-15.1864 -4.6297202 4.5092487
-15.1864 8.9296608 4.5092487
14.259717 -4.6297202 4.5092487
14.259717 8.9296608 4.5092487
-15.1864 -4.6297202 4.6104393
-15.1864 8.9296608 4.6104393
14.259717 -4.6297202 4.6104393
14.259717 8.9296608 4.6104393
-15.1864 -4.6297202 4.711628
-15.1864 8.9296608 4.711628
14.259717 -4.6297202 4.711628
14.259717 8.9296608 4.711628
-15.1864 -4.6297202 4.8128166
-15.1864 8.9296608 4.8128166
14.259717 -4.6297202 4.8128166
14.259717 8.9296608 4.8128166
-15.1864 -4.6297202 4.9140072
-15.1864 8.9296608 4.9140072
14.259717 -4.6297202 4.9140072
14.259717 8.9296608 4.9140072
-15.1864 -4.6297202 5.0151958
-15.1864 8.9296608 5.0151958
14.259717 -4.6297202 5.0151958
14.259717 8.9296608 5.0151958
-15.1864 -4.6297202 5.1163864
-15.1864 8.9296608 5.1163864
14.259717 -4.6297202 5.1163864
14.259717 8.9296608 5.1163864
-15.1864 -4.6297202 5.2175751
-15.1864 8.9296608 5.2175751
14.259717 -4.6297202 5.2175751
14.259717 8.9296608 5.2175751
-15.1864 -4.6297202 5.3187637
-15.1864 8.9296608 5.3187637
14.259717 -4.6297202 5.3187637
14.259717 8.9296608 5.3187637
-15.1864 -4.6297202 5.4199543
-15.1864 8.9296608 5.4199543
14.259717 -4.6297202 5.4199543
14.259717 8.9296608 5.4199543
-15.1864 -4.6297202 5.521143
-15.1864 8.9296608 5.521143
14.259717 -4.6297202 5.521143
14.259717 8.9296608 5.521143
-15.1864 -4.6297202 5.6223335
-15.1864 8.9296608 5.6223335
14.259717 -4.6297202 5.6223335
14.259717 8.9296608 5.6223335
-15.1864 -4.6297202 5.7235222
-15.1864 8.9296608 5.7235222
14.259717 -4.6297202 5.7235222
14.259717 8.9296608 5.7235222
-15.1864 -4.6297202 5.8247108
-15.1864 8.9296608 5.8247108
14.259717 -4.6297202 5.8247108
14.259717 8.9296608 5.8247108
-15.1864 -4.6297202 5.9259014
-15.1864 8.9296608 5.9259014
14.259717 -4.6297202 5.9259014
14.259717 8.9296608 5.9259014
-15.1864 -4.6297202 6.0270901
-15.1864 8.9296608 6.0270901
14.259717 -4.6297202 6.0270901
14.259717 8.9296608 6.0270901
-15.1864 -4.6297202 6.1282806
-15.1864 8.9296608 6.1282806
14.259717 -4.6297202 6.1282806
14.259717 8.9296608 6.1282806
-15.1864 -4.6297202 6.2294693
-15.1864 8.9296608 6.2294693
14.259717 -4.6297202 6.2294693
14.259717 8.9296608 6.2294693
-15.1864 -4.6297202 6.330658
-15.1864 8.9296608 6.330658
14.259717 -4.6297202 6.330658
14.259717 8.9296608 6.330658
-15.1864 -4.6297202 6.4318485
-15.1864 8.9296608 6.4318485
14.259717 -4.6297202 6.4318485
14.259717 8.9296608 6.4318485
-15.1864 -4.6297202 6.5330372
-15.1864 8.9296608 6.5330372
14.259717 -4.6297202 6.5330372
14.259717 8.9296608 6.5330372
-15.1864 -4.6297202 6.6342278
-15.1864 8.9296608 6.6342278
14.259717 -4.6297202 6.6342278
14.259717 8.9296608 6.6342278
-15.1864 -4.6297202 6.7354164
-15.1864 8.9296608 6.7354164
14.259717 -4.6297202 6.7354164
14.259717 8.9296608 6.7354164
-15.1864 -4.6297202 6.8366051
-15.1864 8.9296608 6.8366051
14.259717 -4.6297202 6.8366051
14.259717 8.9296608 6.8366051
-15.1864 -4.6297202 6.9377956
-15.1864 8.9296608 6.9377956
14.259717 -4.6297202 6.9377956
14.259717 8.9296608 6.9377956
-15.1864 -4.6297202 7.0389843
-15.1864 8.9296608 7.0389843
14.259717 -4.6297202 7.0389843
14.259717 8.9296608 7.0389843
-15.1864 -4.6297202 7.140173
-15.1864 8.9296608 7.140173
14.259717 -4.6297202 7.140173
14.259717 8.9296608 7.140173
-15.1864 -4.6297202 7.2413635
-15.1864 8.9296608 7.2413635
14.259717 -4.6297202 7.2413635
14.259717 8.9296608 7.2413635
-15.1864 -4.6297202 7.3425522
-15.1864 8.9296608 7.3425522
14.259717 -4.6297202 7.3425522
14.259717 8.9296608 7.3425522
-15.1864 -4.6297202 7.4437428
-15.1864 8.9296608 7.4437428
14.259717 -4.6297202 7.4437428
14.259717 8.9296608 7.4437428
-15.1864 -4.6297202 7.5449314
-15.1864 8.9296608 7.5449314
14.259717 -4.6297202 7.5449314
14.259717 8.9296608 7.5449314
-15.1864 -4.6297202 7.6461201
-15.1864 8.9296608 7.6461201
14.259717 -4.6297202 7.6461201
14.259717 8.9296608 7.6461201
-15.1864 -4.6297202 7.7473106
-15.1864 8.9296608 7.7473106
14.259717 -4.6297202 7.7473106
14.259717 8.9296608 7.7473106
-15.1864 -4.6297202 7.8484993
-15.1864 8.9296608 7.8484993
14.259717 -4.6297202 7.8484993
14.259717 8.9296608 7.8484993
-15.1864 -4.6297202 7.9496899
-15.1864 8.9296608 7.9496899
14.259717 -4.6297202 7.9496899
14.259717 8.9296608 7.9496899
-15.1864 -4.6297202 8.0508785
-15.1864 8.9296608 8.0508785
14.259717 -4.6297202 8.0508785
14.259717 8.9296608 8.0508785
-15.1864 -4.6297202 8.1520672
-15.1864 8.9296608 8.1520672
14.259717 -4.6297202 8.1520672
14.259717 8.9296608 8.1520672
-15.1864 -4.6297202 8.2532578
-15.1864 8.9296608 8.2532578
14.259717 -4.6297202 8.2532578
14.259717 8.9296608 8.2532578
-15.1864 -4.6297202 8.3544464
-15.1864 8.9296608 8.3544464
14.259717 -4.6297202 8.3544464
14.259717 8.9296608 8.3544464
-15.1864 -4.6297202 8.455637
-15.1864 8.9296608 8.455637
14.259717 -4.6297202 8.455637
14.259717 8.9296608 8.455637
-15.1864 -4.6297202 8.5568256
-15.1864 8.9296608 8.5568256
14.259717 -4.6297202 8.5568256
14.259717 8.9296608 8.5568256
-15.1864 -4.6297202 8.6580143
-15.1864 8.9296608 8.6580143
14.259717 -4.6297202 8.6580143
14.259717 8.9296608 8.6580143
-15.1864 -4.6297202 8.7592049
-15.1864 8.9296608 8.7592049
14.259717 -4.6297202 8.7592049
14.259717 8.9296608 8.7592049
-15.1864 -4.6297202 8.8603935
-15.1864 8.9296608 8.8603935
14.259717 -4.6297202 8.8603935
14.259717 8.9296608 8.8603935
-15.1864 -4.6297202 8.9615822
-15.1864 8.9296608 8.9615822
14.259717 -4.6297202 8.9615822
14.259717 8.9296608 8.9615822
-15.1864 -4.6297202 9.0627728
-15.1864 8.9296608 9.0627728
14.259717 -4.6297202 9.0627728
14.259717 8.9296608 9.0627728
-15.1864 -4.6297202 9.1639614
-15.1864 8.9296608 9.1639614
14.259717 -4.6297202 9.1639614
14.259717 8.9296608 9.1639614
-15.1864 -4.6297202 9.265152
-15.1864 8.9296608 9.265152
14.259717 -4.6297202 9.265152
14.259717 8.9296608 9.265152
-15.1864 -4.6297202 9.3663406
-15.1864 8.9296608 9.3663406
14.259717 -4.6297202 9.3663406
14.259717 8.9296608 9.3663406
-15.1864 -4.6297202 9.4675293
-15.1864 8.9296608 9.4675293
14.259717 -4.6297202 9.4675293
14.259717 8.9296608 9.4675293
-15.1864 -4.6297202 9.5687199
-15.1864 8.9296608 9.5687199
14.259717 -4.6297202 9.5687199
14.259717 8.9296608 9.5687199
-15.1864 -4.6297202 9.6699085
-15.1864 8.9296608 9.6699085
14.259717 -4.6297202 9.6699085
14.259717 8.9296608 9.6699085
-15.1864 -4.6297202 -16.0322
-15.1864 8.9296608 -16.0322
-15.1864 -4.6297202 9.6699085
-15.1864 8.9296608 9.6699085
-15.085211 -4.6297202 -16.0322
-15.085211 8.9296608 -16.0322
-15.085211 -4.6297202 9.6699085
-15.085211 8.9296608 9.6699085
-14.984021 -4.6297202 -16.0322
-14.984021 8.9296608 -16.0322
-14.984021 -4.6297202 9.6699085
-14.984021 8.9296608 9.6699085
-14.882833 -4.6297202 -16.0322
-14.882833 8.9296608 -16.0322
-14.882833 -4.6297202 9.6699085
-14.882833 8.9296608 9.6699085
-14.781643 -4.6297202 -16.0322
-14.781643 8.9296608 -16.0322
-14.781643 -4.6297202 9.6699085
-14.781643 8.9296608 9.6699085
-14.680453 -4.6297202 -16.0322
-14.680453 8.9296608 -16.0322
-14.680453 -4.6297202 9.6699085
-14.680453 8.9296608 9.6699085
-14.579264 -4.6297202 -16.0322
-14.579264 8.9296608 -16.0322
-14.579264 -4.6297202 9.6699085
-14.579264 8.9296608 9.6699085
-14.478075 -4.6297202 -16.0322
-14.478075 8.9296608 -16.0322
-14.478075 -4.6297202 9.6699085
-14.478075 8.9296608 9.6699085
-14.376885 -4.6297202 -16.0322
-14.376885 8.9296608 -16.0322
-14.376885 -4.6297202 9.6699085
-14.376885 8.9296608 9.6699085
-14.275696 -4.6297202 -16.0322
-14.275696 8.9296608 -16.0322
-14.275696 -4.6297202 9.6699085
-14.275696 8.9296608 9.6699085
-14.174506 -4.6297202 -16.0322
-14.174506 8.9296608 -16.0322
-14.174506 -4.6297202 9.6699085
-14.174506 8.9296608 9.6699085
-14.073317 -4.6297202 -16.0322
-14.073317 8.9296608 -16.0322
-14.073317 -4.6297202 9.6699085
-14.073317 8.9296608 9.6699085
-13.972128 -4.6297202 -16.0322
-13.972128 8.9296608 -16.0322
-13.972128 -4.6297202 9.6699085
-13.972128 8.9296608 9.6699085
-13.870938 -4.6297202 -16.0322
-13.870938 8.9296608 -16.0322
-13.870938 -4.6297202 9.6699085
-13.870938 8.9296608 9.6699085
-13.769749 -4.6297202 -16.0322
-13.769749 8.9296608 -16.0322
-13.769749 -4.6297202 9.6699085
-13.769749 8.9296608 9.6699085
-13.668559 -4.6297202 -16.0322
-13.668559 8.9296608 -16.0322
-13.668559 -4.6297202 9.6699085
-13.668559 8.9296608 9.6699085
-13.567369 -4.6297202 -16.0322
-13.567369 8.9296608 -16.0322
-13.567369 -4.6297202 9.6699085
-13.567369 8.9296608 9.6699085
-13.466181 -4.6297202 -16.0322
-13.466181 8.9296608 -16.0322
-13.466181 -4.6297202 9.6699085
-13.466181 8.9296608 9.6699085
-13.364991 -4.6297202 -16.0322
-13.364991 8.9296608 -16.0322
-13.364991 -4.6297202 9.6699085
-13.364991 8.9296608 9.6699085
-13.263802 -4.6297202 -16.0322
-13.263802 8.9296608 -16.0322
-13.263802 -4.6297202 9.6699085
-13.263802 8.9296608 9.6699085
-13.162613 -4.6297202 -16.0322
-13.162613 8.9296608 -16.0322
-13.162613 -4.6297202 9.6699085
-13.162613 8.9296608 9.6699085
-13.061422 -4.6297202 -16.0322
-13.061422 8.9296608 -16.0322
-13.061422 -4.6297202 9.6699085
-13.061422 8.9296608 9.6699085
-12.960234 -4.6297202 -16.0322
-12.960234 8.9296608 -16.0322
-12.960234 -4.6297202 9.6699085
-12.960234 8.9296608 9.6699085
-12.859044 -4.6297202 -16.0322
-12.859044 8.9296608 -16.0322
-12.859044 -4.6297202 9.6699085
-12.859044 8.9296608 9.6699085
-12.757854 -4.6297202 -16.0322
-12.757854 8.9296608 -16.0322
-12.757854 -4.6297202 9.6699085
-12.757854 8.9296608 9.6699085
-12.656666 -4.6297202 -16.0322
-12.656666 8.9296608 -16.0322
-12.656666 -4.6297202 9.6699085
-12.656666 8.9296608 9.6699085
-12.555476 -4.6297202 -16.0322
-12.555476 8.9296608 -16.0322
-12.555476 -4.6297202 9.6699085
-12.555476 8.9296608 9.6699085
-12.454287 -4.6297202 -16.0322
-12.454287 8.9296608 -16.0322
-12.454287 -4.6297202 9.6699085
-12.454287 8.9296608 9.6699085
-12.353097 -4.6297202 -16.0322
-12.353097 8.9296608 -16.0322
-12.353097 -4.6297202 9.6699085
-12.353097 8.9296608 9.6699085
-12.251907 -4.6297202 -16.0322
-12.251907 8.9296608 -16.0322
-12.251907 -4.6297202 9.6699085
-12.251907 8.9296608 9.6699085
-12.150719 -4.6297202 -16.0322
-12.150719 8.9296608 -16.0322
-12.150719 -4.6297202 9.6699085
-12.150719 8.9296608 9.6699085
-12.049529 -4.6297202 -16.0322
-12.049529 8.9296608 -16.0322
-12.049529 -4.6297202 9.6699085
-12.049529 8.9296608 9.6699085
-11.948339 -4.6297202 -16.0322
-11.948339 8.9296608 -16.0322
-11.948339 -4.6297202 9.6699085
-11.948339 8.9296608 9.6699085
-11.84715 -4.6297202 -16.0322
-11.84715 8.9296608 -16.0322
-11.84715 -4.6297202 9.6699085
-11.84715 8.9296608 9.6699085
-11.74596 -4.6297202 -16.0322
-11.74596 8.9296608 -16.0322
-11.74596 -4.6297202 9.6699085
-11.74596 8.9296608 9.6699085
-11.644772 -4.6297202 -16.0322
-11.644772 8.9296608 -16.0322
-11.644772 -4.6297202 9.6699085
-11.644772 8.9296608 9.6699085
-11.543582 -4.6297202 -16.0322
-11.543582 8.9296608 -16.0322
-11.543582 -4.6297202 9.6699085
-11.543582 8.9296608 9.6699085
-11.442392 -4.6297202 -16.0322
-11.442392 8.9296608 -16.0322
-11.442392 -4.6297202 9.6699085
-11.442392 8.9296608 9.6699085
-11.341203 -4.6297202 -16.0322
-11.341203 8.9296608 -16.0322
-11.341203 -4.6297202 9.6699085
-11.341203 8.9296608 9.6699085
-11.240013 -4.6297202 -16.0322
-11.240013 8.9296608 -16.0322
-11.240013 -4.6297202 9.6699085
-11.240013 8.9296608 9.6699085
-11.138824 -4.6297202 -16.0322
-11.138824 8.9296608 -16.0322
-11.138824 -4.6297202 9.6699085
-11.138824 8.9296608 9.6699085
-11.037635 -4.6297202 -16.0322
