ply
format ascii 1.0
comment PCL generated
element vertex 1598
property float x
property float y
property float z
element camera 0
property float view_px
property float view_py
property float view_pz
property float x_axisx
property float x_axisy
property float x_axisz
property float y_axisx
property float y_axisy
property float y_axisz
property float z_axisx
property float z_axisy
property float z_axisz
property float focal
property float scalex
property float scaley
property float centerx
property float centery
property int viewportx
property int viewporty
property float k1
property float k2
end_header
0.570081 0.0609737 1.21534
-0.130448 0.0570754 1.1095001
-0.074088 0.059188299 1.1404099
0.205057 0.054301798 1.04634
0.52894002 0.068898998 1.29311
-0.27314499 0.065718003 1.19181
0.0097680399 0.057715699 1.07647
0.048291899 0.060001701 1.1064301
0.187415 0.059064299 1.09605
-0.28931001 0.068153404 1.16471
0.57393301 0.068845503 1.21552
-0.100207 0.0766178 1.13193
0.00073008903 0.0658921 1.10912
-0.0533318 0.070487 1.13852
0.0576966 0.0678638 1.09551
-0.069698699 0.073049203 1.14175
0.040242799 0.0713019 1.1078399
0.056296799 0.071219303 1.0987999
0.187205 0.068089597 1.07634
0.56269503 0.0800234 1.23149
0.56839103 0.081880704 1.2237
-0.25836799 0.084722601 1.20338
-0.075271897 0.0812921 1.14746
0.0322599 0.076979898 1.10695
0.182859 0.075004101 1.08029
-0.083790503 0.082410298 1.14792
0.33149499 0.092215396 1.28574
-0.122496 0.084615797 1.12681
0.24450301 0.088891402 1.16856
-0.038778599 0.086589798 1.138
0.203905 0.081586704 1.07467
0.57368201 0.092754297 1.2307
0.044773899 0.085474297 1.1067801
0.0551573 0.085795499 1.10557
-0.109287 0.090239502 1.11751
-0.14354099 0.090431198 1.12237
0.090636902 0.090185396 1.09979
0.56796902 0.101947 1.23312
-0.173821 0.092056297 1.10606
0.550982 0.102956 1.22679
0.115904 0.0945329 1.10395
0.033408999 0.095073201 1.1068701
0.13067 0.099625699 1.11554
0.27526799 0.085850701 1.22588
0.54909998 0.112128 1.24665
0.55423999 0.11094 1.2227
0.097011298 0.102879 1.10921
0.59516901 0.113681 1.24005
0.0221678 0.106628 1.11576
0.194005 0.1062 1.0998
-0.151673 0.112014 1.14447
0.56106102 0.120105 1.23815
0.173792 0.111908 1.11979
0.547328 0.124705 1.2608
0.115088 0.114368 1.1188101
0.12817401 0.113481 1.11953
0.58226401 0.128065 1.23841
0.40304899 0.146991 1.35412
0.471977 0.147397 1.3539
0.54103398 0.137144 1.2628599
0.166352 0.1301 1.15255
0.00151204 0.13490701 1.13911
0.139791 0.136476 1.14367
0.099043198 0.138487 1.17302
0.48565 0.16258501 1.3674099
0.55855697 0.149029 1.25772
0.48658901 0.16396099 1.35886
0.112841 0.143811 1.1581399
0.494497 0.168201 1.34214
0.51741397 0.164252 1.3085001
0.52245897 0.16666301 1.29647
0.53318799 0.16801199 1.29476
0.55829 0.165608 1.2782201
0.61172003 0.166706 1.25117
0.48123199 0.182834 1.36816
0.458352 0.186957 1.3886
0.56336701 0.164814 1.24371
0.510095 0.184453 1.33208
0.593243 0.17596699 1.26974
0.54657698 0.18336999 1.28701
0.53368598 0.188509 1.30767
0.58735901 0.183952 1.27314
0.52197599 0.191548 1.31836
0.60286897 0.184273 1.26109
0.577214 0.18774 1.28197
0.55362701 0.190065 1.28221
0.45255399 0.20750199 1.40245
0.535133 0.199404 1.31434
0.40164199 0.222689 1.45254
0.51760799 0.203632 1.33126
0.388365 0.222976 1.45707
0.59048402 0.19786701 1.27281
0.51222998 0.210426 1.34895
0.56732702 0.20501199 1.29763
0.40855899 0.226915 1.4392999
0.49588001 0.215023 1.3586299
0.603091 0.20338599 1.26516
0.519364 0.223996 1.37045
0.59537101 0.20693301 1.27318
0.54424 0.21697301 1.3174599
0.48885101 0.22479101 1.36727
0.45466399 0.234993 1.40651
0.49511001 0.225705 1.35427
0.53190702 0.223867 1.32877
0.52026403 0.23142201 1.34926
0.53820997 0.22452401 1.31768
0.42054501 0.25640401 1.48936
0.43690401 0.24510901 1.42869
0.47876599 0.239115 1.39063
0.57596898 0.22482 1.29106
0.42209399 0.24942 1.43742
0.54027498 0.234901 1.32013
0.56963599 0.23267201 1.3018301
0.48407099 0.24924301 1.38296
0.51888001 0.241604 1.3439
0.44178599 0.26322901 1.44113
0.59379798 0.233853 1.27258
0.416796 0.26229101 1.4367501
0.60642803 0.241714 1.27878
0.50763702 0.26299801 1.3633
0.522448 0.265237 1.36874
0.56397802 0.25603601 1.3150899
0.60828698 0.250249 1.26989
0.44387901 0.278265 1.42663
0.58513999 0.25527301 1.29316
0.53629202 0.26312 1.32886
0.527224 0.27300701 1.34512
0.41666299 0.29652101 1.46585
0.43698299 0.29375699 1.45772
0.485562 0.28703001 1.39777
0.549914 0.27405599 1.32874
0.58746099 0.26825899 1.29892
0.50207603 0.286764 1.3819799
0.47255701 0.29432201 1.4157701
0.59400302 0.271532 1.29158
0.415618 0.309196 1.47789
0.429169 0.30615601 1.46913
0.58759099 0.28496501 1.3314
0.43575799 0.313039 1.4624701
0.512977 0.29787099 1.3719701
0.48781601 0.30570799 1.40652
0.56140399 0.290113 1.32836
0.52173299 0.30436701 1.36694
0.59334701 0.29264 1.30296
0.49599099 0.31693399 1.41001
0.54710299 0.306198 1.34106
0.434854 0.33286601 1.4656301
0.49375901 0.32706299 1.40816
0.59093201 0.30344701 1.2958601
0.44588399 0.33845901 1.4553
0.57824302 0.31341499 1.31429
0.52930403 0.324687 1.37246
0.585109 0.31477001 1.31148
0.491337 0.33996999 1.42252
0.56314999 0.324577 1.33602
0.45180199 0.351372 1.4594001
0.53513199 0.33225599 1.36842
0.56961298 0.32134801 1.32286
0.61232698 0.31924701 1.29735
0.51974899 0.34584901 1.39256
0.55010903 0.33818999 1.34814
0.45813 0.36590201 1.45442
0.52951598 0.346223 1.37616
0.495307 0.35601899 1.41047
0.58812201 0.33708301 1.31279
0.55258697 0.349572 1.3500299
0.46592101 0.373243 1.43962
0.46013901 0.38234299 1.45741
0.56929302 0.35396999 1.33753
0.52637702 0.36513901 1.3765301
0.561387 0.361433 1.34082
0.54653901 0.37264901 1.35346
0.445169 0.40006599 1.4582
0.589064 0.365235 1.31997
0.52188301 0.38091999 1.37466
0.48485401 0.39329901 1.41225
0.496169 0.390576 1.39949
0.58060098 0.36916801 1.32082
0.45413601 0.411603 1.44684
0.56975102 0.384045 1.3399301
0.466555 0.40862 1.42691
0.51552802 0.40244299 1.38009
0.52245402 0.40470001 1.37284
0.50903702 0.40835899 1.37762
0.59890997 0.39405701 1.30319
0.46559101 0.42667001 1.41965
0.54427701 0.406616 1.34101
0.50421798 0.421794 1.38761
0.52131301 0.420546 1.3621
0.540663 0.424371 1.3440599
0.51824898 -0.37724799 1.28456
0.49292901 -0.31266901 1.32739
0.45857599 -0.318652 1.37468
0.447061 -0.29204801 1.46439
0.53296697 -0.26364899 1.33989
0.40138701 -0.27392501 1.44839
0.43819001 -0.25578901 1.38901
0.46712101 -0.23422401 1.35333
0.503658 -0.21778201 1.29398
0.51468903 -0.207224 1.28634
0.52686697 -0.20048299 1.2806
0.45383999 -0.20310999 1.36093
0.368821 -0.20573901 1.41441
0.49227601 -0.176681 1.2959
0.57344699 -0.17386 1.2647099
-0.044987202 -0.14881399 1.1648
0.560633 -0.15706301 1.2540801
-0.13468599 -0.139245 1.12589
0.051389199 -0.141141 1.1621
0.52242303 -0.153791 1.30451
-0.048930701 -0.11545 1.15209
-0.25067401 -0.108194 1.19243
0.50124401 -0.124625 1.30108
0.52187198 -0.122013 1.29067
0.54102701 -0.118871 1.25977
0.53323501 -0.108663 1.27053
0.022316501 -0.095094599 1.10893
0.550457 -0.087375499 1.23622
-0.075678498 -0.080769598 1.14459
-0.0388094 -0.078187399 1.13622
0.0152081 -0.0729708 1.10877
0.48398101 -0.088288203 1.30801
0.155664 -0.071832702 1.10114
-0.16895799 -0.071099199 1.1176701
0.12631901 -0.068672799 1.1106499
8.7109802e-05 -0.063283503 1.10523
0.299261 -0.072060697 1.22312
0.080231003 -0.058117799 1.07967
0.134792 -0.057971999 1.09398
0.55839097 -0.066380098 1.26033
-0.168541 -0.056354199 1.11869
0.188333 -0.0540208 1.0822001
0.20954999 -0.050195199 1.0721
0.19533899 -0.047432002 1.06375
0.0067364299 -0.049451999 1.0973901
-0.183364 -0.051147498 1.13015
-0.14954901 -0.047116298 1.10184
-0.245672 -0.047245599 1.1630599
-0.31739199 -0.032117698 1.17307
-0.154465 -0.027762501 1.10532
-0.032673199 -0.0221579 1.07429
-0.213563 -0.0186444 1.14081
0.123969 -0.0149056 1.06769
0.0638735 -0.0097428197 1.06348
0.107381 -0.0114627 1.05475
0.153845 -0.0092614396 1.0652601
0.54421997 -0.0119465 1.28286
-0.147113 -0.0051802699 1.10597
0.00078063598 -0.0053977701 1.05176
-0.093076803 -0.00014203299 1.10774
0.21774399 -0.00187426 1.04074
0.51986402 -0.0021207801 1.30203
0.192965 -0.000181531 1.0444
0.0364221 0.0047581601 1.04836
0.15694501 0.0069258302 1.06458
0.098364897 0.00761104 1.0622
-0.165371 0.0112607 1.10873
0.0089343702 0.0100593 1.03082
0.083162002 0.0139365 1.0628099
-0.25652799 0.0188917 1.16703
0.113008 0.00948242 1.07192
0.38904899 0.024533199 1.25626
0.34327799 0.0294409 1.2217799
-0.195024 0.0243442 1.1233
0.121438 0.0264135 1.0690399
-0.25786999 0.037215501 1.17653
0.58085799 0.035219699 1.21806
0.203026 0.037959099 1.05363
0.094119303 0.041052099 1.06821
-0.14130899 0.044475898 1.10883
-0.124857 0.049466498 1.11675
0.38804799 0.058564499 1.25278
0.080075502 0.049195699 1.06714
-0.0278605 0.058153 1.12172
0.101849 0.056792401 1.0793
0.35124701 0.072506599 1.27328
-0.18098 0.065203801 1.12894
-0.087188199 0.072435498 1.14891
0.116581 0.072451703 1.1034
-0.099919103 0.079245597 1.1215
-0.110008 0.080823101 1.14456
0.179804 0.079914302 1.0917701
0.542184 0.092552803 1.2402
-0.070281804 0.086161703 1.14592
0.099082902 0.082760803 1.08972
-0.0840303 0.095169298 1.14533
-0.1578 0.122432 1.22909
0.50826001 0.122006 1.3259
0.51873499 0.124948 1.3119
0.151862 0.112621 1.11787
0.14617801 0.125944 1.14171
0.50168598 0.14720801 1.35069
0.45497 0.15071701 1.36499
0.53440303 0.15781499 1.29011
0.47453499 0.170194 1.36902
0.433018 0.198745 1.4193799
0.0721552 0.187024 1.2377501
0.42603099 0.21414401 1.42298
0.51139402 0.19972099 1.31223
0.503362 0.208326 1.3544101
0.405451 0.243011 1.44586
0.57591999 0.228007 1.2956899
0.51598102 0.233871 1.3463399
0.45462301 0.25122601 1.41275
0.50980598 0.247786 1.36036
0.545403 0.24760699 1.3221
0.44032601 0.294094 1.44423
0.57707 0.26858899 1.2975301
0.54406703 0.29065099 1.34165
0.54200798 0.31803399 1.3659
0.45059901 0.36370301 1.49698
0.50396502 -0.39533401 1.3281
0.58202797 -0.36526099 1.25539
0.56158602 -0.355878 1.2843699
0.46857199 -0.36082599 1.32737
0.52043301 -0.357012 1.3282599
0.56942803 -0.33233199 1.27808
0.58403498 -0.31973699 1.26715
0.45284799 -0.33213601 1.3550299
0.49246201 -0.31157601 1.32522
0.46904901 -0.307244 1.36519
0.486743 -0.28105101 1.33608
0.515001 -0.27282 1.29263
0.41948801 -0.292303 1.4091001
0.56828398 -0.247252 1.2544301
0.49800101 -0.239105 1.34228
0.522816 -0.17879599 1.26905
0.56007701 -0.140636 1.25252
-0.129923 -0.115968 1.11746
0.13681 -0.113734 1.12317
-0.27769199 -0.117282 1.21738
-0.258663 -0.104429 1.16944
-0.088780202 -0.093876101 1.13779
-0.223555 -0.092838801 1.16511
0.54544002 -0.092588998 1.26375
-0.23438001 -0.052498698 1.17002
-0.32446599 -0.0296802 1.15108
0.11436 -0.028226299 1.0716701
-0.24516501 -0.029601799 1.16054
0.34086701 -0.0223221 1.23707
0.056490902 -0.0192947 1.0709701
-0.138414 0.0037809601 1.1039
0.222132 0.022831099 1.04347
0.090003297 0.0284188 1.06668
0.55861598 0.046498001 1.21281
0.0021282099 0.049102299 1.10788
0.29878199 0.0578674 1.21378
0.352891 0.078359403 1.28967
0.00117155 0.079527304 1.0987999
-0.144728 0.091046698 1.12602
0.51202297 0.13710099 1.33346
0.55214602 0.134762 1.26205
0.52158999 0.14972199 1.28732
0.496425 0.16607501 1.3509099
0.52545297 0.16875701 1.30713
0.52727097 0.171131 1.27916
0.107866 0.16876601 1.19776
0.57855701 0.18659499 1.28409
0.46244401 0.21158899 1.38951
0.49338001 0.206219 1.36745
0.52550298 0.20607901 1.32261
0.52468801 0.20135801 1.24131
0.484227 0.218557 1.37096
0.54954201 0.222967 1.3070101
0.42808801 0.24030399 1.42676
0.47685 0.237157 1.39039
0.46902901 0.25235701 1.398
0.58606702 0.25478899 1.29535
0.48410299 0.28919899 1.3994499
0.51551098 0.29778001 1.37332
0.52084398 0.30369601 1.3636301
0.566517 0.323327 1.33612
0.55368 0.35196301 1.39641
0.52167201 0.40416601 1.37181
0.529172 -0.297943 1.3207
0.47559199 -0.25938901 1.3362
0.39786899 -0.275098 1.44475
0.474525 -0.236094 1.3647
0.38143799 -0.227441 1.43929
0.47988799 -0.20645399 1.34642
0.45267501 -0.204383 1.34642
0.37393001 -0.206331 1.4329
0.49342301 -0.17789701 1.30351
0.524957 -0.143387 1.26625
0.165728 -0.125761 1.12793
-0.23299301 -0.12775899 1.19731
-0.101416 -0.119083 1.11684
-0.065978199 -0.123413 1.14847
-0.000797852 -0.119672 1.13202
0.28516501 -0.13176601 1.29882
-0.083672203 -0.113716 1.14525
0.52450299 -0.124835 1.26467
0.55845898 -0.124177 1.25445
-0.109401 -0.097794697 1.12638
0.0241383 -0.095246904 1.1079201
0.180103 -0.096956097 1.1137201
0.53464401 -0.109315 1.2761
0.45875299 -0.111628 1.30239
-0.131611 -0.090374202 1.1078399
0.539846 -0.093989499 1.2488199
0.208379 -0.078342199 1.08403
0.55010098 -0.086051501 1.23769
0.073586702 -0.076758899 1.0963399
0.480984 -0.087144002 1.30514
0.124229 -0.068985403 1.09593
0.15357301 -0.0686846 1.10027
0.098464698 -0.063924603 1.08574
0.30253401 -0.072092898 1.2361701
-0.26203001 -0.067600898 1.15914
-0.038461 -0.059300099 1.12406
0.138345 -0.058308199 1.10142
0.188665 -0.0544958 1.08031
-0.168172 -0.0536437 1.1147701
-0.087625302 -0.0464136 1.1376801
0.061518099 -0.044287201 1.07627
0.104338 -0.042889498 1.0693901
-0.246949 -0.0447044 1.1659
-0.151619 -0.0431665 1.11364
0.081564203 -0.036463398 1.06118
-0.148131 -0.031747501 1.09252
-0.056373201 -0.0231867 1.0882
-0.21232399 -0.017347001 1.13855
0.093729198 -0.018034499 1.06125
0.015684601 -0.016365601 1.04807
0.46764901 -0.018165 1.29502
0.066113196 -0.0107356 1.0628
-0.0464468 -0.0057083499 1.08442
0.108162 -0.0099240802 1.06217
0.20812599 -0.0028766401 1.0432
0.39121899 0.0134223 1.2607
0.0191481 0.0164381 1.07239
0.105139 0.0264109 1.0654401
0.18175501 0.0234395 1.05841
0.33932501 0.0290643 1.2164201
-0.25866199 0.034843098 1.17278
0.15289199 0.026265301 1.06809
-0.170783 0.031930301 1.1131999
0.060384199 0.0300563 1.06554
0.31703001 0.0340808 1.21837
0.029734399 0.032982599 1.0683
-0.14555299 0.041953702 1.1099
0.092762798 0.0395917 1.0582
-0.249357 0.047948699 1.16598
-0.172916 0.047486901 1.11545
0.54613298 0.051781401 1.2273099
0.48901001 0.0569297 1.30571
-0.126817 0.051539 1.11752
0.079516597 0.048300602 1.0676301
0.100904 0.055424102 1.08123
0.181595 0.0581134 1.07061
0.50745302 0.0728966 1.30583
-0.132323 0.0645575 1.1098599
0.073621802 0.066412397 1.08061
0.115012 0.074431002 1.1034
-0.0272664 0.0787021 1.13413
-0.071720101 0.085123397 1.14439
0.054969501 0.085630402 1.10527
-0.081524402 0.092591003 1.11862
-0.048950899 0.102159 1.1530499
0.17669 0.107541 1.1465
0.52361798 0.121081 1.31815
0.067327298 0.111661 1.13019
-0.070412502 0.124082 1.16851
0.47156999 0.167916 1.36566
0.53922701 0.15845799 1.26451
0.451067 0.187812 1.39215
0.41903499 0.199568 1.43592
0.448342 0.209399 1.40666
0.400433 0.221251 1.4492
0.470357 0.219295 1.3862
0.376966 0.234919 1.4771
0.43941501 0.29450601 1.43997
0.50145698 0.29637799 1.38807
0.4698 0.30856299 1.42056
0.48502201 0.31436601 1.40864
0.51076001 0.35156801 1.39294
0.47561499 0.402688 1.44379
0.437897 -0.27106401 1.4056799
0.449664 -0.23654801 1.40262
0.478625 -0.206563 1.35139
0.49327099 -0.174904 1.30276
-0.106191 -0.122238 1.13064
0.112717 -0.110753 1.11538
0.52789801 -0.118104 1.26939
0.299252 -0.075282499 1.2067
0.188187 -0.055262499 1.07908
0.49653199 -0.054994199 1.29178
0.070654802 -0.0164377 1.06458
-0.091749698 -0.0041467799 1.1109101
-0.00024309799 -0.0010712499 1.0523
0.156617 0.00032878001 1.07173
-0.110088 0.0249811 1.11094
0.33775499 0.0313516 1.21593
-0.15217701 0.034188598 1.11178
-0.080074497 0.039902601 1.15754
-0.12851299 0.063331097 1.11247
0.137955 0.0622475 1.10991
-0.16535801 0.069394499 1.11737
0.117853 0.089364298 1.10895
0.453316 0.114031 1.33682
0.113988 0.154875 1.1742001
0.49094999 0.191679 1.35737
0.465646 0.33491999 1.4267499
0.47923699 -0.26246101 1.33883
-0.072910003 -0.080508001 1.14676
0.093227901 -0.017573901 1.06014
0.0228878 -0.000639926 1.0323
0.117591 0.0067491299 1.08842
0.104692 0.026782099 1.06199
0.124594 0.033041801 1.0767601
0.097644798 0.0407441 1.05969
0.38920301 -0.19133399 1.38153
-0.0278855 -0.074363202 1.1155
-0.084457397 -0.0531612 1.1390899
0.0663969 -0.052630201 1.08518
-0.113346 -0.040978201 1.10847
0.071928397 -0.0187367 1.07085
-0.14940199 -0.0136582 1.09855
0.115975 0.0053918501 1.07335
0.15400399 0.0072659301 1.06318
-0.15471201 0.0285837 1.10869
0.070004404 0.027204599 1.06774
-0.250375 0.031491499 1.17092
-0.26026401 0.066131301 1.24281
0.145164 0.063317701 1.1098
-0.0220467 0.072876602 1.1641999
0.116216 0.085924797 1.10103
-0.0148765 -0.083627798 1.1299599
-0.26304099 -0.0134045 1.15878
-0.24426401 0.043309201 1.18326
0.19929799 0.0148447 1.05738
0.53642702 -0.35809001 1.30659
0.51876199 -0.358942 1.32146
0.60659802 -0.331633 1.25088
0.52909398 -0.34274501 1.30911
0.570351 -0.33105901 1.27405
0.583956 -0.31984901 1.29317
0.53929698 -0.32056701 1.3160599
0.520298 -0.31462699 1.30865
0.58190101 -0.268738 1.26477
0.51893598 -0.227054 1.2894599
0.54280001 -0.24006499 1.33065
0.59082299 -0.173278 1.2362601
0.55032903 -0.175584 1.26045
0.52226001 -0.175653 1.28982
-0.126568 -0.10345 1.1362
0.027759099 -0.090525798 1.1004699
-0.231865 -0.10507 1.2139601
0.59361899 -0.124908 1.24584
-0.063073002 -0.086119398 1.14458
0.114226 -0.067396 1.08041
0.55897301 -0.089517802 1.24084
0.57987303 -0.086235397 1.24332
-0.254484 -0.0580942 1.1539
-0.117468 -0.0222272 1.10507
0.55903602 -0.0441195 1.19074
0.38175201 -0.056928001 1.27395
0.153354 -0.0092243301 1.06398
-0.15848801 -0.0049031698 1.10579
0.22657 0.0139647 1.04469
-0.217943 0.0107952 1.14677
0.351017 -0.0070573199 1.22882
0.359442 0.0045660501 1.23603
0.0612185 0.0343295 1.07204
0.31681499 0.0106595 1.22293
-0.306633 0.037595201 1.17384
-0.22369701 0.038371298 1.15611
0.120212 0.040838402 1.07725
0.40565699 0.020344701 1.25975
-0.17279901 0.0474131 1.11432
-0.103295 0.045617599 1.1252199
0.52238703 0.0205337 1.2998101
0.108426 0.0623837 1.0937999
-0.26552501 0.056776199 1.19014
0.14337701 0.068745099 1.11352
0.40586799 0.042261899 1.2902499
0.077192999 0.075042598 1.0960799
0.25416201 0.072099 1.13966
-0.138065 0.077516198 1.11905
0.223142 0.0802022 1.08593
0.555637 0.066044196 1.2181799
0.21017499 0.087425001 1.0822901
0.56537801 0.069663502 1.21873
0.10482 0.091746598 1.0968601
0.162347 0.0946557 1.10624
0.32429001 0.082425296 1.25776
-0.035131 0.097877398 1.15883
0.57419097 0.079186298 1.21447
0.49312201 0.079880401 1.31266
-0.0851264 0.105723 1.13673
0.56571299 0.091772497 1.22997
0.57824397 0.092049398 1.22448
-0.094844997 0.110237 1.13395
0.56446999 0.086679399 1.24894
-0.103631 0.116974 1.1447999
0.145558 0.114112 1.12239
0.105909 0.119378 1.12951
0.32107201 0.114455 1.30814
0.439643 0.117208 1.33766
0.0282743 0.133442 1.15359
0.17025299 0.13349199 1.15414
0.150994 0.14561699 1.15231
0.108395 0.15291999 1.16965
0.588521 0.150362 1.25981
0.52307498 0.151621 1.32714
0.52487701 0.156084 1.2955199
-0.113697 0.17168701 1.19707
0.51069498 0.175071 1.3228
0.52671498 0.178993 1.3012
0.51546001 0.191889 1.33034
0.50073498 0.20509399 1.35465
0.504722 0.21738701 1.34674
0.42269701 0.265044 1.44052
0.59392703 0.261453 1.29354
0.58038998 0.270964 1.30522
0.50891298 0.30695701 1.3831199
0.54274899 0.315952 1.3501101
0.46082601 0.32668701 1.44177
0.59502202 0.31841901 1.31864
0.60158801 0.31444499 1.30135
0.57929498 0.32115301 1.3245
0.51804799 0.34378701 1.38775
0.59733897 0.33649299 1.30674
0.52119201 0.35077301 1.38256
0.484882 0.36442301 1.42493
0.55153102 -0.312581 1.32033
0.52062303 -0.29677901 1.30814
0.45181501 -0.30107099 1.3992
0.585962 -0.227295 1.24725
0.48112401 -0.236066 1.33925
0.58228701 -0.17941999 1.24192
-0.085303798 -0.114402 1.14581
0.52526897 -0.14203499 1.26704
0.58802003 -0.114054 1.23851
0.541354 -0.117409 1.25922
0.57366002 -0.108265 1.23334
-0.25592801 -0.081321701 1.2057
0.57941699 -0.085281 1.2366101
0.131606 -0.0337115 1.0721
0.093597203 -0.0185502 1.06338
-0.117089 -0.024030101 1.10412
-0.16215099 -0.0075499499 1.107
0.053683899 0.00164852 1.06242
0.135543 -0.00168451 1.0700999
0.55951899 -0.0294932 1.20772
0.305861 -0.018015601 1.2357301
0.180961 0.0243547 1.0571001
0.031030299 0.0299848 1.0646
-0.172153 0.033339102 1.10923
0.395565 0.0088015096 1.26226
0.054933399 0.047001399 1.09126
0.34356201 0.028368199 1.22697
-0.0093314601 0.081387296 1.12318
-0.26926401 0.090502903 1.20706
-0.085436203 0.131898 1.16912
0.47305 0.120774 1.3444
0.51177901 0.219513 1.35059
0.58767402 0.220001 1.28949
0.57831901 -0.34416199 1.2701401
0.51984602 -0.31492001 1.30887
0.47126499 -0.28412199 1.36072
0.14926399 -0.0469044 1.08289
0.212163 0.0088562397 1.04059
-0.172857 0.047911901 1.11438
0.116235 0.047182601 1.09251
0.54927301 0.071603402 1.22754
0.18046799 0.093707196 1.09605
0.51596397 0.152053 1.3035001
0.50212598 0.18034901 1.34255
0.48256701 0.18492299 1.36488
0.467958 0.196458 1.37363
0.51672399 0.26179299 1.35535
0.50860602 0.27603301 1.38524
0.54762101 0.27277499 1.3282501
0.44563401 0.31939301 1.45181
0.38260999 -0.289114 1.44914
0.41366601 -0.250781 1.43169
0.49608099 -0.12847 1.3117599
-0.0083947098 -0.077876799 1.11932
-0.27211499 -0.070265897 1.19042
0.13247 -0.0309997 1.0769
0.022901401 0.00088996801 1.00967
-0.167393 -0.00978975 1.11589
0.18037599 -0.0016741001 1.0601
0.12623601 0.0060680201 1.06259
0.121773 0.027816299 1.07257
0.50671202 0.0089894896 1.2471499
0.12752301 0.049407199 1.06423
-0.085210003 0.074389398 1.14775
-0.145152 0.091582403 1.12202
-0.089782998 0.096376203 1.16274
0.45804 0.15043101 1.36827
0.358697 0.166991 1.3724999
0.395408 0.219799 1.44327
0.40333 0.24173801 1.43036
0.38330299 0.25196099 1.46292
0.45078 0.248541 1.4026999
0.56292897 0.27048299 1.31858
0.54284698 0.29025 1.3373899
0.48191801 -0.31850901 1.33126
0.522686 -0.179133 1.27582
-0.079355903 -0.107119 1.1518101
0.50995499 -0.15034799 1.29825
0.46403301 -0.116847 1.32007
0.064453803 -0.0484365 1.08452
0.52113497 -0.00219244 1.29372
0.46612 0.113972 1.35519
0.45234099 0.21703599 1.40325
0.109255 -0.0192258 1.08969
0.097222 0.0070852502 1.0609601
0.48933601 -0.40840501 1.33081
0.49924701 -0.38657799 1.3209701
0.61052102 -0.33795199 1.2448
0.59931201 -0.349298 1.26108
0.550551 -0.36051899 1.28865
0.59204799 -0.31797299 1.25616
0.51564997 -0.35483599 1.3186001
0.59593898 -0.29039201 1.2564
0.47308099 -0.33644599 1.36178
0.59539098 -0.260322 1.25037
0.57904297 -0.255615 1.25808
0.59040099 -0.25519699 1.2558399
0.60025799 -0.247683 1.25051
-0.132167 -0.150838 1.1294301
0.55207002 -0.253126 1.27201
-0.0195488 -0.20061301 1.217
0.41661701 -0.318104 1.40211
-0.045637701 -0.196036 1.21929
0.485769 -0.27856699 1.3375
0.52264899 -0.234155 1.26375
0.470777 -0.28255701 1.35747
0.561122 -0.23023701 1.2601399
0.50287801 -0.242576 1.2990299
0.52393299 -0.23129299 1.28268
0.45675999 -0.27862 1.37111
0.50065202 -0.236149 1.30831
0.54354799 -0.209179 1.25919
-0.12036 -0.14116301 1.16878
0.55646002 -0.201794 1.25327
-0.067974404 -0.123196 1.15049
0.58829403 -0.183153 1.2358201
0.51405901 -0.207148 1.28578
0.45891699 -0.246796 1.36115
0.52773899 -0.19892199 1.27503
-0.066712797 -0.105191 1.1434
0.53267097 -0.161952 1.26423
-0.087698698 -0.075001702 1.15646
-0.255808 -0.10025 1.2265199
-0.129371 -0.040023699 1.10478
0.56895697 -0.130389 1.24756
-0.12182 -0.030063599 1.1005501
0.52802801 -0.126816 1.2746201
-0.25034001 -0.066009201 1.18488
0.070037 -0.0060838698 1.0627199
0.18178201 -0.0035099699 1.05387
0.0048722499 0.0136558 1.04228
0.57156003 -0.094366997 1.24268
0.178946 0.0073067402 1.06015
0.015578 0.023092801 1.03607
0.211071 0.0226638 1.03658
0.220962 0.0224506 1.04062
-0.15788899 0.0101712 1.10462
-0.16880301 0.0108209 1.1092401
-0.300309 0.00331514 1.1365
0.104893 0.0265758 1.06792
-0.239535 0.00743578 1.16188
0.172838 0.0369679 1.0666
0.21499699 0.0491823 1.04637
-0.064493299 0.0220444 1.1274199
0.18571199 0.050836999 1.0461
0.189814 0.054857198 1.06129
0.114625 0.0486653 1.08586
0.23006999 0.045410801 1.09542
-0.0146527 0.052680299 1.11278
0.14658301 0.0596889 1.08655
0.52785999 -0.037337098 1.28522
0.127931 0.059575502 1.09469
0.31367701 0.0054915301 1.20541
0.33617401 -0.0113777 1.24454
-0.039831601 0.047488101 1.13471
0.210655 0.0620519 1.0772099
0.107442 0.069959 1.084
0.49056801 -0.0427926 1.30259
-0.0459668 0.061209898 1.13237
-0.0570185 0.056753598 1.142
0.342426 0.0102171 1.22837
0.30122599 0.023424599 1.20398
0.36291 0.00904168 1.24863
0.52009499 -0.00177021 1.30203
0.31446299 0.0408618 1.2147
0.15473001 0.087510198 1.10219
0.42043701 0.0150704 1.28672
0.180525 0.092053197 1.1003799
-0.13261899 0.096373603 1.1186301
0.043306399 0.095400997 1.107
0.17318501 0.095912002 1.10051
0.327912 0.043997101 1.22785
0.30163899 0.047221798 1.23365
0.31889701 0.050151601 1.21955
0.355351 0.043226302 1.24236
0.106217 0.099130802 1.11379
0.33656999 0.0469102 1.23627
0.20804401 0.10137 1.10279
0.21774501 0.106042 1.10312
0.326267 0.057711601 1.23444
0.351239 0.053181 1.2482001
0.341281 0.056763299 1.25448
-0.054458801 0.105567 1.15418
0.14460599 0.113902 1.12164
0.182834 0.114243 1.11621
0.208893 0.115306 1.10704
0.036613401 0.116802 1.12745
0.16298801 0.116009 1.1244299
0.54627699 0.071115203 1.22419
0.19637901 0.117823 1.12266
-0.13883799 0.127277 1.1375
-0.0268365 0.113991 1.16409
0.37710801 0.064509504 1.2740901
-0.085822403 0.112846 1.16784
0.213845 0.116099 1.14773
-0.13151699 0.130698 1.14499
-0.098728403 0.12585799 1.1533099
0.360109 0.072495602 1.27897
0.106912 0.1303 1.13009
-0.12630799 0.12935001 1.15727
-0.048666298 0.123161 1.16891
0.084015697 0.129722 1.13893
0.120591 0.128433 1.14158
-0.136087 0.136599 1.14591
-0.0127042 0.130208 1.15718
0.13170899 0.13203201 1.1423301
0.33459401 0.082552701 1.27589
0.148394 0.13443001 1.1427
0.0387282 0.130619 1.1550699
0.140468 0.135966 1.14448
0.185651 0.130384 1.15165
0.30800501 0.090171702 1.26618
0.197824 0.13493299 1.14816
-0.080476202 0.13590699 1.1669199
0.086739101 0.139874 1.1542
0.123247 0.14279599 1.14135
0.35416201 0.088664599 1.29241
0.029671799 0.147516 1.15625
0.54095203 0.106777 1.24424
0.16316301 0.146911 1.15474
0.305756 0.103858 1.27994
0.53955299 0.095352903 1.28719
0.174026 0.142629 1.1677999
0.15429901 0.149921 1.16373
-0.045136102 0.14745 1.20193
0.108754 0.151336 1.17606
0.0392549 0.155765 1.17897
0.176301 0.155247 1.17169
0.54619098 0.116423 1.26419
0.55713499 0.1174 1.26377
-0.024083 0.154171 1.18624
0.022133701 0.16182099 1.16996
0.076630503 0.160878 1.17668
0.13344599 0.156903 1.17937
0.17760301 0.15976299 1.18336
0.149271 0.163601 1.17662
0.557078 0.131311 1.25247
0.13191301 0.165161 1.18243
-0.110667 0.17139 1.19232
0.0816416 0.16614901 1.19156
0.55114502 0.13418201 1.2624
0.52320802 0.120215 1.30949
0.17405599 0.165804 1.19551
0.092155501 0.170948 1.1975501
0.11549 0.17464299 1.1966
0.520208 0.139195 1.28145
0.137197 0.176728 1.20108
0.165355 0.17551699 1.20394
-0.037477799 0.17779 1.22307
0.10532 0.179051 1.20895
0.15291201 0.175009 1.219
0.109838 0.185064 1.21944
0.53226799 0.15757 1.28994
0.087543599 0.188504 1.23772
0.50183803 0.16061901 1.32592
0.121007 0.194014 1.2405
0.365062 0.169705 1.38931
0.53684503 0.19769 1.31845
0.541641 0.202199 1.3104399
0.55205899 0.206322 1.3037699
0.48557699 0.19909599 1.35446
0.53170502 0.202727 1.32287
0.55969101 0.208491 1.30119
0.468941 0.194444 1.37993
0.54043198 0.225363 1.32353
0.52758503 0.229176 1.33596
0.42793399 0.214292 1.42391
0.490558 0.22587501 1.37211
0.499511 0.227062 1.36479
0.56396002 0.23581301 1.31346
0.417483 0.219018 1.43681
0.44352099 0.22225399 1.41407
0.552827 0.240495 1.3193901
0.469329 0.232196 1.38192
0.44736499 0.23152 1.41328
0.40825501 0.230074 1.42714
0.44472501 0.23751201 1.42354
0.50150901 0.24618 1.36737
0.53337198 0.25238699 1.33719
0.42719901 0.240301 1.43115
0.43524501 0.243397 1.43001
0.49363199 0.252027 1.37828
0.40678999 0.242163 1.45275
0.389884 0.240766 1.46737
0.41500899 0.24483 1.44227
0.54663301 0.263632 1.33301
0.558456 0.26546901 1.3299201
0.43546599 0.25338599 1.43077
0.51828301 0.26342401 1.36256
0.39177001 0.250846 1.46517
0.50885803 0.26472899 1.36888
0.472936 0.26262301 1.41105
0.401806 0.25637701 1.4490499
0.56874299 0.28024799 1.32338
0.519777 0.27339199 1.36652
0.55755597 0.280049 1.32726
0.496878 0.273074 1.39166
0.54713303 0.28537801 1.33901
0.49405301 0.281712 1.39527
0.458592 0.28029901 1.42428
0.48913401 0.28424501 1.40676
0.45483899 0.29043099 1.43024
0.51443899 0.297223 1.37875
0.54857898 0.305237 1.34939
0.55843699 0.304037 1.34323
0.53420597 0.305298 1.36406
0.51052999 0.30574101 1.38817
0.54164797 0.32709599 1.35967
0.47087401 0.31895399 1.43574
0.50664401 0.32422701 1.3920701
0.56265801 0.32712901 1.35894
0.56249702 0.34438401 1.33403
0.48123699 0.33661199 1.4361399
0.48841199 0.33752799 1.41271
0.48578501 0.35279801 1.42744
0.45989501 0.36494699 1.45789
0.52878201 0.37282699 1.37971
0.50966299 0.38966599 1.39512
0.53679001 0.41385001 1.3499399
0.53599602 -0.356332 1.30766
0.49325699 -0.316026 1.33366
0.48759601 -0.302854 1.33979
0.53837502 -0.26905 1.28537
-0.155872 -0.151159 1.1519099
0.51689398 -0.25879899 1.30391
-0.13797 -0.14213 1.14081
-0.070631698 -0.161387 1.1888601
0.475117 -0.258044 1.3382601
0.468274 -0.231463 1.35761
-0.130548 -0.067941301 1.11331
-0.074283697 -0.080319896 1.14358
0.080095701 -0.038141601 1.06111
0.060864899 -0.046255 1.08741
0.0525208 0.00115561 1.06293
0.043436799 0.0154133 1.06749
0.18421701 0.022185 1.05619
0.0123874 0.038645498 1.05741
-0.186692 0.024969401 1.11044
0.108992 0.0402481 1.0744801
-0.028025899 0.038073201 1.10628
0.042948 0.042212199 1.09294
-0.238598 0.0223803 1.16825
-0.102344 0.0461994 1.13062
-0.29240799 0.037515599 1.1767499
-0.038649701 0.066282503 1.14206
0.0153962 0.074148603 1.10997
0.13007601 0.071314998 1.10732
0.47021201 -0.010568 1.2872601
0.28609401 0.043903001 1.19874
0.105272 0.092212297 1.0975
0.481666 0.00225984 1.30231
-0.260593 0.070413798 1.1936899
0.36843899 0.038453799 1.25563
0.300679 0.0577683 1.21938
-0.14613301 0.106563 1.13464
0.46888301 0.0325418 1.2978801
-0.068531297 0.104351 1.14896
0.54906499 0.052606702 1.2419
0.124651 0.116169 1.11876
0.21950001 0.114214 1.12357
0.086678199 0.119502 1.1289001
-0.10921 0.117416 1.15396
0.072206102 0.12765899 1.1302299
0.18780801 0.124812 1.13427
0.38635901 0.068504602 1.28622
0.146327 0.126112 1.13864
-0.25920901 0.104378 1.23639
-0.069612898 0.123511 1.16703
0.043944001 0.136861 1.14879
-0.051511001 0.136577 1.1753401
0.0299649 0.14682101 1.15561
0.12943301 0.146745 1.16281
0.119448 0.155808 1.17198
0.550623 0.128442 1.2891001
0.072312899 0.189161 1.23375
0.13823099 0.18958101 1.23812
0.45722499 0.15022001 1.35698
0.446026 0.15666801 1.3648601
0.432035 0.199348 1.42232
0.44802999 0.20905399 1.40757
0.53540498 0.228542 1.30316
0.47249699 0.217264 1.39003
0.37122101 0.231702 1.46992
0.44999301 0.246273 1.41196
0.52391303 0.30391699 1.37386
0.440797 0.292375 1.44875
0.463038 0.30410099 1.42958
0.472114 0.30759299 1.41931
0.54784 0.31156999 1.3794399
0.539101 0.34618601 1.36822
0.49329701 0.38335001 1.41151
0.56210899 -0.39774099 1.27653
0.56511903 -0.299207 1.27151
-0.094012797 -0.15970799 1.14317
0.53603703 -0.23317701 1.2776901
-0.14229301 -0.0241684 1.10799
0.18715601 0.035955001 1.0486
-0.070450902 0.031709801 1.1434
0.196297 0.070765302 1.0760601
0.054988399 0.085041597 1.10624
0.31501901 0.0396857 1.21593
0.208326 0.103015 1.10092
-0.0870746 0.113291 1.13928
0.054776199 0.117322 1.12564
-0.136858 0.131073 1.14903
0.160532 0.128906 1.1332901
0.130413 0.13039701 1.14329
0.0297039 0.133348 1.14774
0.53783703 0.085137501 1.27595
0.162816 0.146543 1.15649
0.119604 0.15639199 1.16989
0.139613 0.175303 1.21611
0.51459002 0.14372499 1.30287
0.50364202 0.159628 1.32781
0.5025 0.20615301 1.42186
0.453944 0.22184099 1.40826
0.51985002 0.260692 1.36479
0.50946099 0.26232901 1.37138
0.471266 0.292225 1.41983
0.51870298 0.303433 1.4354399
0.55104101 -0.345474 1.28988
0.498393 -0.262898 1.3290499
0.53650898 -0.235378 1.2804199
-0.069461599 -0.14978001 1.1702501
0.17427699 -0.108553 1.1456
0.53947598 -0.167 1.25509
-0.13069899 -0.076745801 1.1250499
0.132393 -0.0306393 1.07429
0.111807 -0.0256168 1.07876
0.213256 -0.021977101 1.07846
0.187314 -0.0027941801 1.0477901
-0.248492 -0.039667699 1.16725
0.179039 -0.0038341701 1.06199
0.053264201 0.00080557202 1.06616
-0.091101497 -0.0142958 1.11201
0.098311998 0.0070909499 1.06232
0.46316499 -0.117196 1.3178101
0.11388 0.0064015901 1.08127
0.106793 0.036708102 1.08351
0.30316401 -0.0148312 1.2131701
0.49858099 -0.0605007 1.29948
-0.239025 0.021627899 1.16441
0.0589738 0.0498312 1.0855
0.200664 0.061722498 1.06573
0.52894098 -0.0337223 1.2835799
-0.073615097 0.049572799 1.1333899
0.359079 0.0084047904 1.2323
-0.272838 0.048854101 1.18305
-0.071210898 0.057727601 1.15202
-0.037899699 0.062976599 1.14606
0.179873 0.079171501 1.08979
0.201694 0.082339197 1.08593
0.51791698 -0.00036188899 1.29951
0.48418 -0.0041408502 1.30566
-0.10741 0.083428398 1.14178
0.176715 0.098695002 1.11764
-0.13288701 0.097693302 1.14535
-0.14972501 0.107839 1.1382
-0.066914499 0.104594 1.1482
-0.0284734 0.106596 1.14868
0.156876 0.114576 1.12149
0.122622 0.117059 1.1221499
-0.18074401 0.113877 1.16195
-0.25426799 0.109275 1.22216
-0.068986803 0.123156 1.16598
0.161486 0.130817 1.1432101
-0.050065398 0.13641 1.1754
-0.00639222 0.14560001 1.1526999
0.094873197 0.14459699 1.15123
-0.120504 0.148201 1.17231
0.36500299 0.100119 1.30682
0.47800499 0.103706 1.32321
-0.105822 0.15317699 1.22508
0.108113 0.168099 1.19107
0.468894 0.118804 1.34563
0.50230801 0.146314 1.3123
0.38339299 0.15777101 1.37863
0.45265099 0.188116 1.39103
0.41467699 0.204615 1.43925
0.47648001 0.234602 1.3939199
0.399977 0.228177 1.44543
0.486606 0.25305 1.37679
-0.26671201 -0.166265 1.19911
0.47395501 -0.091301799 1.3065799
0.059817102 0.052179102 1.094
-0.165419 0.062075902 1.13087
-0.100618 0.113117 1.13125
0.11975 0.121949 1.12466
-0.069734603 0.12424 1.1641099
0.34694901 0.076280601 1.27119
-0.117506 0.150341 1.16731
0.47244701 0.17005999 1.36142
0.432827 0.19054399 1.42574
0.023722 0.055351101 1.10177
0.45361099 0.150787 1.36221
0.153887 0.0058061699 1.07034
-0.212666 -0.0131252 1.12735
-0.090207599 -0.0031912201 1.11106
0.029988701 0.0296019 1.0720201
0.059044201 0.056226201 1.09282
0.14288799 0.057848498 1.10597
0.181749 0.073576197 1.08486
0.114015 0.088026203 1.10352
-0.0746345 0.085890397 1.13389
-0.102008 0.110369 1.14583
0.15572201 0.114891 1.1229
-0.051814601 0.104672 1.17287
-0.0701892 0.12534501 1.1668299
0.34004799 0.0827365 1.27144
0.13730501 0.14738099 1.16285
0.0262042 0.15285701 1.1741199
0.109999 0.159933 1.18178
0.195591 0.0108268 1.05812
-0.0118609 0.070312098 1.13862
0.105174 0.137005 1.13279
0.53943598 -0.40164599 1.2878799
0.55797499 -0.352184 1.2804199
0.62445498 -0.27886999 1.2259001
0.62000799 -0.27176899 1.23036
0.60709101 -0.273774 1.24079
0.51138598 -0.33099699 1.32432
0.569233 -0.27964601 1.26534
0.56877601 -0.247215 1.25884
0.50120902 -0.29633901 1.3205
-0.067710198 -0.142308 1.17547
-0.14586 -0.109064 1.15961
0.042472001 0.0021054901 1.06493
0.098272003 0.0094564501 1.0574
0.546175 -0.15386599 1.25179
0.60853499 -0.139791 1.23335
0.54584301 -0.15494201 1.26632
0.23595899 0.061769102 1.11067
0.120556 0.097629897 1.11543
0.30185601 0.034228999 1.20374
0.57105899 0.023585699 1.23786
0.10614 0.13421801 1.14617
0.286746 0.079348803 1.23797
0.32499099 0.069159299 1.25173
0.34840301 0.066638902 1.25896
0.13363799 0.13956399 1.1584899
0.088180803 0.146213 1.16038
0.341647 0.078384303 1.26903
0.31971201 0.085618302 1.26993
0.34875199 0.0843812 1.27514
-0.127288 0.162285 1.1677999
0.16770899 0.15666801 1.16408
0.29239899 0.102799 1.2711999
0.063283898 0.166291 1.18548
0.32506701 0.103936 1.28938
0.16511001 0.166958 1.18738
0.32217801 0.107429 1.29812
0.153768 0.169172 1.19719
0.106675 0.172139 1.20091
0.53606701 0.12611701 1.26393
0.096304998 0.17516901 1.20105
0.29366201 0.122722 1.30151
0.53168797 0.13163801 1.2745399
0.286071 0.129365 1.30955
0.303886 0.12653799 1.31341
0.13223 0.18012001 1.22753
0.14798 0.181422 1.2226599
0.53637201 0.143466 1.28118
0.30969799 0.132681 1.32261
0.540492 0.158177 1.28915
0.52753502 0.207481 1.33245
0.55164897 0.220952 1.3142101
0.49343699 0.205138 1.3647799
0.44242901 0.209242 1.40667
0.54699701 0.24016599 1.3298
0.54872 0.24729601 1.32898
0.55081499 0.258549 1.32454
0.52585101 0.260497 1.35516
0.529248 0.26840499 1.3507299
0.55317199 0.28755501 1.33188
0.410211 0.25024 1.45649
0.459732 0.265793 1.41976
0.51751798 0.284282 1.37024
0.52470601 0.29139999 1.3730201
0.482934 0.298702 1.40916
0.45890301 0.300165 1.43586
0.43693799 0.31225601 1.46407
0.52626902 -0.281616 1.29319
0.537974 -0.19855399 1.2654901
-0.074356496 -0.078470498 1.1400599
0.058186602 0.029212199 1.06837
0.044117201 0.031818099 1.0799299
0.19525 0.083101504 1.08097
4.13997e-05 0.075152501 1.12533
0.081393801 0.106147 1.1052999
0.461211 0.0073096701 1.29931
0.188026 0.141204 1.16203
-0.057479501 0.15068001 1.17989
0.549052 0.113124 1.2473201
0.362331 0.098995999 1.30317
0.114354 0.164773 1.19753
0.442247 0.114754 1.33777
0.42510799 0.14678 1.36217
0.53756601 0.29911 1.3532
-0.075137503 -0.16836201 1.1659499
0.52577901 -0.197063 1.2712899
0.207917 0.040576 1.04372
-0.0741418 0.043687899 1.15046
0.0898192 0.087602697 1.10403
-0.0093858596 0.081229404 1.12106
0.206016 0.117898 1.12134
0.336483 0.046685498 1.23569
0.075568803 0.14498401 1.14079
0.113601 0.143822 1.15828
0.153033 0.150002 1.1629699
0.176727 0.157004 1.16813
0.35454801 0.089863203 1.29146
0.178882 0.16023199 1.18385
0.125494 0.169329 1.18883
0.57043302 -0.19422799 1.25132
-0.162411 -0.0091164801 1.11183
0.54092401 -0.116802 1.25594
0.496189 -0.12994801 1.31098
-0.1232 0.070706703 1.12824
0.220163 0.112466 1.12433
0.338833 0.055003699 1.2563
0.38651401 0.0638301 1.29061
0.21419001 0.13971099 1.18911
0.022017799 0.16185801 1.17014
0.070865303 0.15707099 1.1779
-0.098480903 0.164839 1.19335
0.108883 0.16950101 1.18989
0.263338 0.129456 1.27082
0.10864 0.175919 1.21205
0.52494001 0.16874699 1.30592
0.38103101 0.215369 1.46498
0.154286 0.0127413 1.05576
-0.12824 0.064510897 1.11452
0.18071499 0.073966503 1.09111
0.0114869 0.131464 1.1305701
0.184839 0.122971 1.13763
0.022275699 0.157592 1.17531
0.072154403 -0.0123161 1.05862
0.042076401 0.040870801 1.10001
0.105945 0.147379 1.15558
-0.076800697 -0.128012 1.15616
0.12318 -0.0585908 1.0782599
0.118786 0.12299 1.13227
0.186424 0.122348 1.13529
0.110505 0.165657 1.17294
0.119336 0.184218 1.2305
0.428727 0.20767599 1.35191
0.114698 -0.055785 1.0911601
-0.257348 -0.081550598 1.20509
-0.229629 -0.0120396 1.1492701
-0.242861 0.035273701 1.16407
-0.15655801 0.077840097 1.1235
0.56045598 -0.0232687 1.25985
0.56664801 0.0289387 1.2128299
-0.199679 0.0798041 1.1837
0.61286902 0.046214901 1.20973
0.55934697 0.059965201 1.21518
-0.0996124 0.131726 1.17724
0.57757998 0.104916 1.23156
0.598912 0.129747 1.2280101
0.60879397 0.210861 1.25845
0.50281101 0.17538001 1.35618
0.153696 0.0268969 1.0701801
0.124706 0.0452304 1.0755301
-0.033162698 0.102194 1.16368
0.593898 0.0583512 1.20667
0.44547501 0.00337216 1.32171
0.51660401 -0.037336901 1.22961
0.56702298 0.069889598 1.22085
0.518933 0.13654201 1.32041
0.60800898 0.27723899 1.36002
0.0088252705 0.0276134 1.0813299
0.101313 0.0551618 1.07926
0.55770499 0.015657101 1.23675
0.58795202 0.150785 1.2602
0.481653 -0.0044895401 1.3091201
0.47227001 0.0264049 1.29905
0.54901099 0.093209602 1.23298
0.56147099 -0.14671201 1.23141
-0.0321545 -0.091489002 1.13124
-0.168541 -0.057225801 1.1362
0.55346 -0.079425 1.24654
0.331305 -0.094407298 1.28934
-0.28980601 -0.0173965 1.16045
0.197552 0.037126899 1.04549
0.230597 0.0455832 1.0525
0.308384 -0.0270583 1.19503
0.57375199 -0.00166557 1.19618
0.31805 0.0246408 1.20941
0.32750899 0.037358001 1.2118
0.56356901 0.039151698 1.2073801
0.38666901 0.0244436 1.25599
0.534392 0.0101689 1.29216
0.59726399 0.044930801 1.2089601
0.60757798 0.055883199 1.2107
0.60617101 0.0661465 1.21106
0.58593601 0.069905102 1.20919
0.61087698 0.122597 1.20983
0.59501398 0.13080101 1.2481101
0.61319202 0.135332 1.24066
0.61712301 0.147743 1.24033
0.56646103 0.205327 1.29767
0.606646 0.273157 1.28064
0.606435 0.33823299 1.30463
-0.053848099 -0.100648 1.15808
0.58211797 -0.13838799 1.24027
0.0875789 -0.0033938501 1.06339
-0.253106 -0.039284401 1.17791
0.074824698 0.0245257 1.0601799
-0.27447301 0.0196555 1.15326
0.102318 0.055716202 1.08
0.56501901 0.0033639199 1.25059
-0.120698 0.071076497 1.1265
0.38776499 0.067511603 1.2869101
0.54799902 -0.14474 1.2587
-0.106434 -0.025617201 1.10934
-0.242203 -0.025921101 1.18353
-0.107179 0.080672197 1.1266
0.55788499 0.061681699 1.21811
0.52922302 0.040057801 1.29855
0.566908 0.074460402 1.26283
0.56821603 0.082949601 1.22609
0.56199402 0.149775 1.26749
0.578987 0.2071 1.28689
0.53836101 0.236278 1.32313
0.44979101 -0.29684001 1.3772
0.57241601 -0.108212 1.23204
0.43508899 -0.030862899 1.28394
0.56596601 0.0151914 1.1999
0.394667 0.0096039101 1.2872
0.45940101 0.0103283 1.3041
-0.070422202 0.084360898 1.14265
0.54258001 0.093068302 1.23875
0.35901099 0.0075262198 1.23786
0.53801298 0.121168 1.25354
0.470195 0.0156656 1.28415
0.455735 0.220082 1.41021
0.52766401 -0.373963 1.28812
0.51209301 -0.37512901 1.3196599
0.48172501 -0.37375599 1.34811
0.527273 -0.36166999 1.30925
0.52921802 -0.344749 1.3091201
0.52404398 -0.33551201 1.31796
0.547135 -0.32133001 1.29047
0.532152 -0.306541 1.29758
0.576024 -0.288993 1.2644399
0.436784 -0.28024599 1.3898799
0.50467598 -0.270123 1.31628
0.532772 -0.261691 1.2837
0.57338202 -0.25906801 1.2642699
0.54268402 -0.25909799 1.28011
0.501104 -0.25781101 1.31836
0.451455 -0.256639 1.35146
0.42088601 -0.257902 1.3979599
0.52163398 -0.247081 1.28664
0.50265902 -0.24347 1.2995
0.094613001 -0.21696401 1.29896
0.47212699 -0.21617 1.31295
0.0483758 -0.198039 1.27557
0.39174601 -0.202768 1.38684
0.085706301 -0.192908 1.27776
0.492854 -0.19226199 1.2992001
0.453448 -0.185697 1.34542
0.52232599 -0.16495401 1.3076299
-0.045135699 -0.156433 1.17837
0.58983499 -0.16230001 1.2392499
0.075538397 -0.156203 1.16803
-0.242671 -0.15026499 1.214
0.56487697 -0.15861399 1.25216
0.121587 -0.15059 1.16278
0.094559602 -0.14946701 1.16834
-0.0802406 -0.14192501 1.1554101
0.123148 -0.14337 1.1537
0.168497 -0.14465199 1.1749099
0.29913101 -0.14337499 1.31128
0.33577701 -0.14402699 1.31179
0.107491 -0.131945 1.1397099
0.28315699 -0.132181 1.2976
0.60291302 -0.13615 1.2367899
-0.142019 -0.129363 1.14694
0.51352799 -0.128563 1.29285
-0.025844799 -0.124905 1.14791
0.53387302 -0.127508 1.25867
-0.00909587 -0.125174 1.1354001
0.178293 -0.122287 1.13512
0.041643102 -0.119954 1.1227601
-0.052320302 -0.116108 1.14308
0.020204701 -0.113271 1.12308
0.0341652 -0.116114 1.12385
-0.251901 -0.110625 1.20297
0.54956198 -0.11324 1.24975
0.60428101 -0.114007 1.23417
0.29363301 -0.110343 1.2964799
-0.277466 -0.102375 1.19549
0.39498901 -0.101871 1.29703
0.31801099 -0.101044 1.28398
0.57319099 -0.105681 1.24401
0.314843 -0.092130303 1.2781399
0.59932399 -0.098065503 1.23001
0.173106 -0.097282298 1.11752
0.27623299 -0.0901976 1.21372
0.56284499 -0.091702104 1.23036
0.54277599 -0.085744999 1.25018
0.198718 -0.085766703 1.10998
0.55673403 -0.080954403 1.22662
0.33076501 -0.0744766 1.26478
0.56968999 -0.079863898 1.2286299
-0.091118999 -0.074759498 1.15332
0.38246599 -0.070814602 1.28019
0.40040001 -0.070365198 1.28005
0.55204499 -0.072840303 1.2238801
-0.0555095 -0.073327899 1.11772
0.195669 -0.069458798 1.08798
0.59698302 -0.065773703 1.2225699
0.57432097 -0.062281098 1.2137001
-0.079737201 -0.054088201 1.14297
-0.057100002 -0.056707799 1.136
0.34569001 -0.054479498 1.25247
0.019749301 -0.053213801 1.09931
0.34982699 -0.0478318 1.24956
0.461597 -0.045449901 1.29636
-0.0590849 -0.046410199 1.1294399
0.0079785297 -0.0489076 1.09942
0.085198298 -0.0512003 1.07216
0.093618102 -0.053879801 1.08764
0.605353 -0.048179399 1.22325
-0.0156422 -0.042784899 1.09633
-0.28931001 -0.027858401 1.14354
0.57833898 -0.0386847 1.2053699
0.13036001 -0.0375899 1.08101
0.174996 -0.035730101 1.08051
0.58932298 -0.034093801 1.19919
0.58237499 -0.029218599 1.199
-0.0061093802 -0.030401601 1.05209
0.52495098 -0.0144329 1.29141
0.33566001 -0.0165605 1.22407
0.017746899 -0.0228658 1.0455
0.34270799 -0.0093425503 1.22484
0.029933199 -0.0213277 1.06327
0.475629 -0.0048966999 1.2764699
-0.00046444699 0.00057500001 1.0497299
0.510943 0.024410199 1.30357
0.59410399 0.0120994 1.1986901
0.55331397 0.047772501 1.23967
0.062890001 0.039050199 1.0739501
0.106944 0.081964999 1.10653
0.62646103 0.187143 1.25302
0.49159801 0.243609 1.38512
0.56088901 0.22412799 1.30418
0.62596899 0.21861801 1.2570601
0.534392 0.26451701 1.34013
0.465446 0.308945 1.43753
0.63573802 0.25029501 1.26038
0.57994199 0.29976401 1.36769
0.53115302 0.30579299 1.35653
0.494856 0.328152 1.40942
0.64116102 0.29307199 1.26407
0.53147298 0.346246 1.37895
0.55992699 0.33645099 1.34724
0.638004 0.30593601 1.26783
0.487771 0.374167 1.4180501
0.47865501 0.40042499 1.4236701
0.58136803 0.38457 1.335
0.482095 0.42436099 1.4145401
0.58665401 0.39588699 1.33991
0.578578 0.400704 1.33162
0.50801498 -0.35992399 1.32604
0.46684 -0.30106199 1.42788
0.44016999 -0.26808 1.3902
0.50595498 -0.203825 1.2929699
0.45276901 -0.20215601 1.3539799
0.49340501 -0.17992599 1.2977999
0.51588303 -0.163808 1.27606
-0.046757899 -0.14884301 1.17251
-0.0827967 -0.146246 1.17415
0.107661 -0.13806801 1.1578701
-0.25656199 -0.135226 1.21664
0.35421699 -0.134133 1.3044699
0.59613901 -0.138147 1.24327
0.16795699 -0.129207 1.1444499
-0.029093999 -0.117809 1.14601
-0.098422997 -0.115862 1.14723
0.093867302 -0.117751 1.12409
0.14267901 -0.101007 1.11384
-0.0520285 -0.092723899 1.13908
-0.124123 -0.0860264 1.13225
0.60434401 -0.0885043 1.23138
0.402152 -0.072091602 1.2853
0.0735026 -0.075185701 1.09497
-0.238011 -0.0623383 1.17457
-0.072210602 -0.059678901 1.14072
0.15013801 -0.0628874 1.1029
-0.088105701 -0.048074201 1.14047
0.152208 -0.034844801 1.07876
0.36312199 -0.021057701 1.24649
-0.25620201 -0.0050349301 1.16311
0.113604 0.00326865 1.07269
0.53123802 0.34659001 1.37929
0.55855697 0.38068601 1.34902
0.44961399 -0.27796099 1.3813
0.52999401 -0.21133 1.27821
0.50375998 -0.175685 1.29241
0.57675898 -0.157692 1.24919
0.30304801 -0.14533 1.32476
-0.083520599 -0.102255 1.14222
-0.054140799 -0.076987699 1.13441
0.31776401 -0.075736903 1.2582999
0.57079101 -0.0391027 1.22747
0.43867099 0.221533 1.41329
0.59547299 0.340195 1.30487
0.541596 0.39733401 1.3591599
0.574588 0.40108299 1.3305
0.45946401 -0.321951 1.43776
0.109576 -0.159863 1.18191
0.56092298 -0.157611 1.25339
-0.066539697 -0.14112701 1.16392
-0.14745399 -0.122471 1.12515
-0.108493 -0.118315 1.12212
-0.027984001 -0.117906 1.1460201
-0.0469293 -0.112114 1.14309
-0.073201098 -0.099795699 1.14512
0.054997299 -0.098120503 1.10877
0.13214999 -0.086888097 1.10277
-0.0285828 -0.075533502 1.12781
0.059593 -0.077731602 1.10254
0.40393701 -0.069465898 1.2878799
-0.26260999 -0.063033998 1.16435
0.20571899 -0.071534798 1.13069
-0.056793001 -0.065901801 1.1525199
0.307854 -0.051660199 1.2309099
0.56612802 -0.054540399 1.21409
0.478111 -0.040640499 1.2939301
0.125045 -0.047411799 1.0930001
-0.12853301 -0.0394857 1.1047699
0.209222 -0.048892301 1.06174
-0.25871 -0.0159564 1.16228
0.053549401 0.0022237101 1.06326
0.61192203 0.30787101 1.2937
0.58382499 0.37018099 1.33079
0.108148 -0.157664 1.17256
0.136163 -0.131488 1.14265
-0.202142 -0.081895903 1.13921
-0.0302359 -0.072595596 1.11727
0.124296 -0.077957101 1.0925
0.0040148599 -0.068124197 1.11298
0.152198 -0.063514598 1.09908
0.29216799 -0.036769599 1.2177401
-0.081949003 0.0393387 1.14627
-0.132927 0.067275703 1.1418101
0.50214398 -0.046790998 1.30234
-0.082164504 0.037813298 1.13513
0.39503899 0.057525799 1.27658
0.48102799 -0.40733799 1.35053
0.49312401 -0.40086299 1.33644
0.50235301 -0.39791399 1.32732
0.47713199 -0.394438 1.3565
0.517488 -0.395022 1.30467
0.51186901 -0.39226601 1.3121099
0.46875301 -0.376587 1.36262
0.50431103 -0.37316501 1.3293
0.47544 -0.36917701 1.357
0.46621999 -0.35242099 1.36494
0.483841 -0.35297301 1.35232
0.465583 -0.33662599 1.37114
0.44651601 -0.338947 1.36724
0.41224301 -0.29301599 1.41994
0.47057101 -0.29894599 1.36633
0.48995301 -0.301323 1.33772
0.42220601 -0.29045099 1.40165
0.45477599 -0.29314199 1.364
0.538266 -0.29860401 1.29319
0.51093203 -0.28995299 1.31243
0.41423801 -0.26445001 1.41065
0.426386 -0.26398301 1.39397
