ply
format ascii 1.0
comment PCL generated
element vertex 1580
property float x
property float y
property float z
element camera 0
property float view_px
property float view_py
property float view_pz
property float x_axisx
property float x_axisy
property float x_axisz
property float y_axisx
property float y_axisy
property float y_axisz
property float z_axisx
property float z_axisy
property float z_axisz
property float focal
property float scalex
property float scaley
property float centerx
property float centery
property int viewportx
property int viewporty
property float k1
property float k2
end_header
-0.0672739 -0.083154798 1.079
0.110619 -0.070746802 1.0803
0.165852 -0.071701199 1.0956399
0.0028734801 -0.066862598 1.06573
0.119559 -0.0621842 1.07728
-0.066170096 -0.060614001 1.09199
-0.040064398 -0.057204101 1.09262
0.0938453 -0.0566056 1.07697
-0.093101501 -0.055789601 1.10646
-0.053763699 -0.056017399 1.08283
0.119383 -0.0566497 1.1046
-0.079611801 -0.053752001 1.11114
0.099421598 -0.048456699 1.09276
-0.099287301 -0.046589501 1.11717
-0.066187598 -0.046488099 1.1052099
-0.057321999 -0.041928601 1.10896
0.120539 -0.0425287 1.10353
-0.102613 -0.0249344 1.11748
-0.116511 -0.023804899 1.1432199
0.140691 -0.025406601 1.1168801
-0.042210899 -0.0190026 1.10074
-0.000772311 -0.019621801 1.0827399
-0.0591291 -0.0169413 1.10013
0.103274 -0.0136494 1.10471
0.127718 -0.0142557 1.10498
-0.0382021 -0.00582369 1.12219
-0.0246829 -0.0035663899 1.0986
-0.025402401 0.0148632 1.09716
-0.036779501 0.015915601 1.09894
-0.0606835 0.0214519 1.1119
0.146246 0.027295301 1.12537
0.102719 0.068763703 1.07813
-0.0264045 0.072474703 1.05836
0.035433002 0.073912397 0.98102403
0.0105792 0.075683802 1.01502
-0.029419901 0.085504703 1.06625
0.13146099 0.114046 1.08751
-0.040178999 0.112008 1.07039
0.117399 0.118777 1.08046
-0.045220099 0.121226 1.09059
-0.087779202 0.12797301 1.10234
0.13890301 0.12952501 1.0858901
-0.017001599 0.130052 1.04925
0.131769 0.137711 1.0854501
0.0195738 0.13325199 1.03263
0.095373601 0.137527 1.06143
0.115654 0.14801501 1.0807101
-0.078580797 0.151595 1.09387
0.0048896102 0.14843801 1.03456
0.0363038 0.147164 1.03575
-0.044016499 0.15486801 1.08482
-0.0304872 0.1564 1.0765001
0.052424502 0.151205 1.03572
0.037087701 0.15766899 1.05865
-0.062429398 0.166678 1.08801
0.0634211 0.16031 1.04527
-0.0304475 0.165345 1.07047
0.0830414 0.161742 1.0567
0.112788 0.174218 1.09882
-0.010478 0.16888 1.0728101
0.063369401 0.169338 1.04983
0.081733003 0.17318401 1.06675
-0.028720001 0.17748401 1.06417
0.085335404 0.19070899 1.07462
-0.0117966 0.188895 1.05685
0.085899197 0.202016 1.07601
-0.033026598 0.208909 1.08452
-0.048719 0.219584 1.1023999
0.101922 0.22181199 1.09179
0.0523564 0.221917 1.07096
0.0133656 0.22885001 1.06341
0.00170896 0.231576 1.0606
-0.069778897 0.25067499 1.1346
0.0516169 0.236866 1.06357
-0.036439698 0.238674 1.0755301
0.0090901796 0.237693 1.05766
-0.078396901 0.25970101 1.1461
-0.0080943396 0.23593301 1.0526201
-0.018809101 0.24218 1.06385
0.0361927 0.244601 1.06047
0.063370399 0.247034 1.06414
-0.0080690896 0.248675 1.0644
0.047931299 0.25012201 1.06081
0.027889799 0.25046599 1.05761
-0.033094 0.32408401 1.23788
0.076481499 0.33608201 1.21709
0.32830101 0.390829 1.42838
0.071462102 0.370253 1.24038
-0.231767 0.42205 1.37428
0.34772801 0.43307301 1.40315
-0.0082725296 0.38984701 1.25963
-0.241355 0.427136 1.3630199
-0.193716 0.42220899 1.35331
-0.21260899 0.43183699 1.35051
0.352467 0.44093999 1.3945
0.34968099 0.45594701 1.387
0.380575 0.456521 1.37508
-0.108168 0.43717301 1.29616
-0.41373 0.47046301 1.39465
0.382992 0.46525899 1.36543
-0.186896 0.45728299 1.3108799
-0.38235399 0.47897401 1.38954
-0.40277401 0.48158199 1.38076
-0.21568 0.46334299 1.32811
0.37892401 0.473351 1.36426
-0.37061399 0.47626001 1.35807
0.31555301 0.478055 1.3392299
0.36602101 0.483888 1.3587
-0.405577 0.49216899 1.36607
0.32708001 0.48132399 1.34322
0.093577899 0.46107501 1.2748899
-0.18282101 0.47063401 1.29277
-0.0503789 0.45438701 1.26779
0.14258701 0.46246201 1.27492
0.29821301 0.48086101 1.32433
0.35854301 0.490859 1.35304
-0.215709 0.46872699 1.28892
-0.38081399 0.50381202 1.3695101
-0.39605799 0.50316203 1.36421
0.38253701 0.49608299 1.34698
0.32448301 0.493377 1.3310601
0.34979299 0.49857 1.3453701
0.36667299 0.49842399 1.34203
-0.237082 0.45344299 1.21557
-0.402208 0.50895602 1.35497
0.096410803 0.476657 1.26201
0.112617 0.48048699 1.2674299
0.37573701 0.50376803 1.34228
-0.15738 0.48087499 1.27349
0.14183199 0.481601 1.28132
0.307504 0.50506097 1.3385201
0.359359 0.50546402 1.33922
-0.39228401 0.51735002 1.3558199
-0.324395 0.51246101 1.33473
0.30459601 0.50609899 1.31732
-0.31521699 0.51461899 1.3311501
0.091845103 0.49015599 1.26773
0.45279601 0.51749003 1.33992
0.29611999 0.50574702 1.29635
-0.327014 0.51919103 1.3286099
0.33683199 0.51561499 1.31884
0.071700998 0.50227702 1.26846
0.44338199 0.52829999 1.3454601
-0.399685 0.52769601 1.33097
-0.369528 0.531214 1.34498
-0.308983 0.52315199 1.32305
0.050590999 0.49700701 1.25552
0.30094501 0.51655298 1.30468
0.32663 0.52148497 1.32164
0.355371 0.52347898 1.327
0.37048301 0.52316803 1.32611
-0.42237201 0.52673 1.32112
-0.38775599 0.536138 1.3430901
-0.298926 0.52634799 1.31964
-0.46431699 0.53413397 1.34003
0.0309483 0.502186 1.25849
0.34046301 0.52851897 1.32057
0.36208999 0.53045899 1.31784
-0.31746 0.52829897 1.31443
0.29296899 0.520805 1.28737
0.321468 0.52947003 1.31168
-0.30967501 0.53490198 1.31767
-0.39023 0.54320103 1.33408
-0.0068938602 0.51009899 1.26176
0.30625501 0.53003699 1.2953399
0.33556899 0.53799802 1.31847
0.32802001 0.53648001 1.30818
0.43527699 0.54367501 1.32962
0.372605 0.53718698 1.30977
0.35913599 0.54111499 1.31321
-0.409421 0.54374897 1.31188
-0.301622 0.54395998 1.30883
0.230693 0.52012801 1.25339
-0.083540797 0.50918299 1.23409
0.299941 0.53819603 1.29184
-0.042902902 0.50628299 1.19999
0.161732 0.50274801 1.19375
0.384193 0.54307002 1.2945
-0.403557 0.55387503 1.3096
-0.37722799 0.55150902 1.30397
0.31362 0.54939198 1.29567
0.35329601 0.554124 1.30873
-0.116405 0.52208102 1.21727
0.32467401 0.55261898 1.2983201
0.43969101 0.55838901 1.31969
0.28957301 0.54376203 1.2752399
0.37494999 0.55337399 1.29899
0.36227301 0.555686 1.30252
-0.40380299 0.56058699 1.3017499
0.34663799 0.56089997 1.30497
-0.36292899 0.56356901 1.30694
-0.183144 0.544945 1.25353
-0.16824199 0.54328102 1.24796
-0.40981501 0.56317598 1.29241
-0.084719397 0.52604002 1.2034
0.29997799 0.55486101 1.27794
-0.39837599 0.56825399 1.30038
-0.32327199 0.56177598 1.30367
-0.30204299 0.56118298 1.28712
0.13268299 0.531394 1.21127
0.282042 0.55350202 1.2679501
0.35964301 0.575472 1.31802
0.232095 0.54256302 1.2436399
0.21957999 0.54581702 1.2396801
-0.402679 0.57041401 1.2915601
-0.032732401 0.53526002 1.20912
0.23951501 0.54941601 1.24317
0.437785 0.57492298 1.31037
0.27148101 0.56090099 1.2643501
-0.126662 0.54671502 1.22003
0.048561499 0.54549599 1.2173899
-0.37041399 0.57445902 1.30269
-0.32779899 0.57556403 1.28579
0.21529201 0.552203 1.23532
-0.23705401 0.55396003 1.23815
-0.026444299 0.54025698 1.20181
0.159376 0.5424 1.21276
-0.351401 0.58431101 1.30079
0.14299101 0.54474801 1.20368
0.178564 0.55908698 1.24128
0.30116501 0.57071799 1.2674
-0.161438 0.54390901 1.1977
0.25351599 0.56355101 1.25497
-0.0068434202 0.549128 1.20863
0.211661 0.55769497 1.2282701
0.224806 0.544963 1.19688
-0.062695198 0.54471701 1.19376
0.00021819401 0.53251398 1.16801
-0.26412001 0.57022703 1.24933
0.202562 0.564089 1.23429
0.36984199 0.583561 1.28111
-0.26377001 0.55859703 1.22261
-0.124979 0.55527103 1.20983
-0.105679 0.556059 1.20848
0.220649 0.56262499 1.22855
0.34454101 0.58588499 1.28297
0.0145226 0.55934 1.21069
0.243854 0.56827599 1.23474
0.27347299 0.57425803 1.25055
0.29148901 0.57732803 1.2576801
-0.32795599 0.59067202 1.28249
-0.307275 0.589737 1.2798899
-0.037582699 0.55414599 1.1962
-0.287312 0.59123498 1.27806
-0.22484399 0.56126601 1.20925
-0.063205697 0.55210602 1.19183
-0.33543599 0.594302 1.27774
0.340965 0.59623998 1.28947
-0.418138 0.59286398 1.2770801
0.229974 0.571652 1.22632
0.28687501 0.58758801 1.25748
-0.38992399 0.60056001 1.28133
-0.044738799 0.56240302 1.19484
-0.0258068 0.56241798 1.1976
0.00116449 0.56615198 1.20288
-0.087397598 0.565148 1.1969
0.035895701 0.57716697 1.2266901
0.329992 0.59644002 1.27314
0.34511501 0.597835 1.27433
0.37500599 0.59622902 1.2744
-0.211991 0.56871402 1.20377
-0.125587 0.57461601 1.21127
-0.35059601 0.60487902 1.27631
-0.073624499 0.57051003 1.19574
-0.40346399 0.59989899 1.26459
-0.38670999 0.60716099 1.2721699
-0.314785 0.60674602 1.2732
-0.219937 0.57452399 1.19898
0.32553199 0.60485297 1.2690901
-0.30385199 0.60534 1.25968
-0.361121 0.61333001 1.2746201
-0.345245 0.61409599 1.2781301
-0.26037899 0.57928002 1.20525
-0.228871 0.57427198 1.18627
0.184341 0.58632499 1.21913
0.29771599 0.59930599 1.24603
0.17154101 0.58864701 1.21979
0.35437399 0.610116 1.2694499
-0.28744799 0.60807902 1.25763
0.209304 0.58683503 1.2113
0.059331302 0.596174 1.2261
0.091722198 0.56949598 1.1707799
0.178461 0.59400398 1.2175699
0.219283 0.58885098 1.20682
0.269752 0.60665399 1.24623
-0.41519001 0.61693001 1.26235
-0.13681801 0.58696002 1.19717
0.14087699 0.58677799 1.19297
0.34344199 0.61345702 1.26107
-0.360706 0.61277401 1.25372
-0.316737 0.61306 1.24795
-0.37438801 0.61493897 1.25719
-0.33360401 0.61958802 1.268
-0.048042901 0.58875698 1.19331
0.081025802 0.57779801 1.17339
0.301045 0.61030799 1.24076
-0.39924201 0.62195301 1.26034
-0.20764799 0.58787298 1.18799
0.198054 0.59772801 1.2107
-0.325331 0.62746501 1.26043
-0.13449501 0.600326 1.1984
-0.109982 0.598822 1.19471
0.18856201 0.60073698 1.20357
0.35812899 0.62462598 1.25819
-0.414996 0.621117 1.24098
-0.37546501 0.63115603 1.26095
-0.20387299 0.59507 1.18537
0.214845 0.60330999 1.2033
0.248812 0.61654198 1.23232
0.131667 0.59681898 1.18496
0.20460699 0.60354799 1.20014
0.36713701 0.62994999 1.25844
-0.41174299 0.63487798 1.2605
0.181411 0.60549498 1.20213
0.196982 0.60824502 1.2067
0.0084973201 0.61122203 1.2055399
0.37698299 0.63000202 1.25219
0.398619 0.63709497 1.25774
-0.052301299 -0.27832901 1.1486501
-0.034152199 -0.267607 1.13506
-0.0937429 -0.243342 1.15847
-0.063837498 -0.22814 1.11877
0.10718 -0.21857201 1.1023
0.139598 -0.21344499 1.11924
0.093141302 -0.177874 1.08345
-0.114794 -0.16478001 1.15437
0.041869901 -0.112206 1.063
-0.088180102 -0.086370498 1.131
-0.0225392 -0.082315601 1.08655
0.149993 -0.087671898 1.10799
0.13246199 -0.062585197 1.09041
0.016943499 -0.054630399 1.063
-0.073836803 -0.053894799 1.09049
0.0163428 -0.040122099 1.0653501
0.13734201 -0.041192099 1.11506
0.12494 -0.027647501 1.10563
-0.037597399 -0.0047267699 1.10938
-0.055339102 -0.00132189 1.1081899
-0.096148796 -0.0083958199 1.12725
0.103403 0.017510699 1.10027
-0.040192001 0.023381799 1.10207
-0.081588998 0.031421199 1.11931
-0.071463697 0.036705799 1.10885
0.109443 0.0493549 1.08929
0.0818756 0.054119401 1.0353
-0.067725599 0.067286998 1.08658
0.035593498 0.061460301 0.989353
0.0701067 0.069339901 1.00543
-0.00155444 0.067798398 1.0075099
0.046419598 0.081239298 1.00932
-0.00024746999 0.088258602 1.02219
-0.045664102 0.107302 1.08266
-0.0391353 0.141605 1.0703
-0.011456 0.140275 1.04659
-0.041671898 0.156279 1.08577
0.027872499 0.14883 1.03107
-0.053644799 0.163488 1.08749
0.0517454 0.18131299 1.06984
0.0079401098 0.183175 1.06304
-0.016561501 0.19411901 1.06359
0.072502002 0.200284 1.07314
0.049042601 0.206076 1.061
0.0136629 0.208984 1.06196
0.038870301 0.237198 1.05959
-0.24168099 0.39146599 1.38256
0.055868 0.37924999 1.26389
0.074572101 0.41207701 1.26061
-0.39878801 0.46909001 1.40088
0.15646601 0.44985899 1.32047
-0.200965 0.45107499 1.32999
0.169476 0.45281699 1.30773
0.025110001 0.46512499 1.26456
-0.035515301 0.46986601 1.26197
0.170238 0.47280601 1.2826
-0.40955499 0.50480801 1.35103
0.31820801 0.50470197 1.32877
0.168881 0.48202401 1.23706
-0.403124 0.532942 1.34803
0.133407 0.51334298 1.27088
0.32154101 0.530568 1.3099
-0.0029491901 0.50236899 1.22918
-0.027672101 0.50220001 1.21413
-0.31993899 0.54928303 1.3135099
0.058786899 0.52805901 1.25401
0.133508 0.51956499 1.2487299
-0.121218 0.51907903 1.22096
-0.33273199 0.55473799 1.30393
-0.40215099 0.55826402 1.30059
-0.362461 0.56550699 1.3082401
-0.0460946 0.544047 1.19968
-0.39588499 0.585024 1.2928801
0.12893701 0.55118603 1.20171
-0.107581 0.55312097 1.2029099
0.081749298 0.56935698 1.22264
-0.093295597 0.55501401 1.19876
-0.34758899 0.60603398 1.3101701
-0.38491699 0.60046202 1.28391
-0.0024552499 0.56612003 1.20252
0.034008499 0.57476401 1.22203
0.25271499 0.583399 1.24117
-0.135539 0.56537497 1.19322
-0.0448278 0.57707602 1.19828
-0.0889377 0.57825398 1.19569
-0.034438599 0.58608103 1.19561
0.32531101 0.61398703 1.26222
0.381412 0.60764802 1.23817
0.24172799 0.60624701 1.23168
-0.097080797 0.59615999 1.19855
-0.0045473501 0.605259 1.21621
0.0076815402 -0.266316 1.10788
-0.0362943 -0.211715 1.12247
0.069233298 -0.065397397 1.06537
-0.0215427 -0.0133449 1.1052099
-0.078528501 0.113001 1.09357
-0.0088090897 0.118126 1.04818
-0.016338199 0.260104 1.07002
-0.092932701 0.376403 1.28251
-0.37012899 0.44388199 1.39836
-0.422479 0.46148801 1.38521
0.330713 0.50138003 1.32727
-0.349145 0.51629001 1.37073
0.35690999 0.50745201 1.3352799
-0.082291201 0.51481402 1.2029901
0.289166 0.542997 1.27526
0.31248701 0.54988301 1.2807
-0.31808299 0.56663197 1.29699
-0.125182 0.53843498 1.22456
0.093707301 0.54172099 1.24089
0.27185601 0.56066102 1.26645
-0.025165301 0.54051298 1.20345
-0.168359 0.55186999 1.23118
-0.20682301 0.55439103 1.22298
-0.170165 0.568241 1.23835
0.0166291 0.562594 1.21813
0.099567004 0.56972098 1.21942
-0.069314003 0.55708599 1.18899
-0.044457901 0.56130803 1.1936001
0.285083 0.58437598 1.24652
-0.28454599 0.59565401 1.2593499
-0.116872 0.573331 1.196
-0.343225 0.61244202 1.27914
-0.31023899 0.60865599 1.27186
-0.28355801 0.60295701 1.24642
0.34413099 0.61506498 1.27469
-0.064581901 -0.29047501 1.1505001
-0.054054201 -0.28251201 1.13674
0.059985802 -0.27256501 1.12231
0.091268599 -0.258156 1.1153001
0.033712901 -0.25179899 1.10404
0.112993 -0.243829 1.13096
-0.097832203 -0.24139699 1.16932
0.069882102 -0.221219 1.10289
0.213067 -0.222454 1.18915
0.20636 -0.192164 1.19642
0.032752801 -0.169716 1.08268
-0.0268752 -0.12902699 1.0668401
0.041760899 -0.112944 1.0561
0.0026918501 -0.108164 1.05653
-0.047411401 -0.104803 1.06666
0.064291701 -0.101289 1.05322
0.121612 -0.099795699 1.07033
-0.0289595 -0.083346002 1.07196
0.083480798 -0.075506799 1.0618401
-0.064517803 -0.0686915 1.0849
0.13540401 -0.061287299 1.08611
0.048648302 -0.045777 1.06516
0.073250003 -0.043058999 1.09076
0.100009 -0.028581301 1.08336
-0.058913998 -0.0320215 1.10589
-0.160552 -0.0055791098 1.20072
-0.0355624 0.0176368 1.0828201
-0.035701402 0.049507499 1.07763
-0.068057999 0.066637099 1.08486
0.0338731 0.063787498 0.99147803
-0.043555599 0.106321 1.07704
0.0080407197 0.109983 1.0431499
-0.066785201 0.130852 1.07873
-0.037314899 0.140728 1.0717601
0.0103786 0.160299 1.03824
0.039746299 0.164638 1.03392
0.052320801 0.182754 1.07072
0.049897701 0.206486 1.06085
0.015911 0.20830999 1.0692199
0.034736399 0.237974 1.0731699
-0.022456 0.28051701 1.08851
-0.228552 0.38110399 1.41754
-0.185194 0.393094 1.36912
0.34409201 0.38632801 1.30901
0.13765199 0.38637799 1.2865
0.177926 0.428372 1.34382
0.074230701 0.40972799 1.26346
-0.41119099 0.45565501 1.39175
-0.39868501 0.46875301 1.40133
0.153688 0.44859201 1.3132401
0.39822799 0.46628001 1.37345
-0.387218 0.48857799 1.38203
-0.224931 0.466171 1.32306
-0.167182 0.459387 1.307
0.051304299 0.459252 1.27166
0.174297 0.46108499 1.2693599
-0.083724901 0.46382001 1.28058
0.0034618501 0.46535301 1.27407
0.023713499 0.47288701 1.29468
0.191357 0.45569399 1.25613
0.13440999 0.46490601 1.2736
-0.058799699 0.49475601 1.2661099
0.0387192 0.49638301 1.23814
-0.191517 0.51271498 1.27028
0.0639017 0.50012398 1.23699
-0.145248 0.50953698 1.24777
-0.088454798 0.50418401 1.24756
-0.333327 0.538513 1.3156
-0.110904 0.50448298 1.22411
-0.028547199 0.499387 1.20833
0.130311 0.51653397 1.24571
0.0171283 0.51599699 1.22808
-0.39101899 0.55316103 1.31674
-0.22034401 0.54103601 1.28169
-0.057735302 0.51049697 1.2025599
-0.0077001099 0.519283 1.21762
-0.23473001 0.52905798 1.25035
-0.36198401 0.56650698 1.30773
0.065379404 0.545057 1.24652
0.118929 0.54000002 1.23496
-0.143409 0.54766703 1.24152
0.00294629 0.53786999 1.22299
-0.080837302 0.53776002 1.20447
-0.223436 0.54914898 1.22785
-0.17257699 0.552948 1.22192
-0.0433762 0.54020602 1.19979
-0.34867901 0.58089799 1.29074
-0.39388299 0.58322299 1.28623
-0.230882 0.56196499 1.2112
0.0310173 0.58730602 1.23596
-0.063182503 -0.289758 1.14253
-0.093975298 -0.23454 1.15688
0.00193676 -0.110856 1.05819
0.061563302 -0.103718 1.04781
-0.0344574 -0.083206199 1.0725501
0.103416 -0.081371702 1.0688699
0.079181299 -0.041842401 1.0813
-0.036961999 0.0251722 1.0949399
0.115039 0.030102899 1.08246
0.0034483799 0.116364 1.03097
0.028524 0.14856701 1.0344501
-0.228367 0.37916699 1.4148
-0.22314399 0.40829399 1.36373
0.149584 0.44755599 1.3150899
-0.0234122 0.47783399 1.27206
0.068452902 0.50969499 1.30328
0.224434 0.50336599 1.2616301
0.148375 0.50770199 1.17548
0.120947 0.53968501 1.24368
-0.188033 0.50504702 1.25884
-0.0636198 -0.28682399 1.12782
0.092594102 -0.256455 1.11151
0.0575311 -0.23418599 1.10395
-0.089588299 -0.23544601 1.16223
0.124729 -0.21207 1.0992399
0.00263178 -0.112764 1.05013
0.0586829 -0.107372 1.05323
-0.0327731 -0.082695097 1.0697401
0.0255449 -0.048427101 1.07723
0.082934901 -0.038931999 1.09596
-0.042082801 0.030717099 1.08954
-0.039764602 0.29292399 1.15566
0.219822 0.359063 1.3802201
-0.22876801 0.37351301 1.39
-0.023442499 0.37099299 1.24254
-0.223536 0.41479099 1.36859
0.19727901 0.46007699 1.25353
-0.037437201 -0.245168 1.14484
0.062507898 -0.227649 1.11079
0.120962 -0.217838 1.12675
-0.131982 -0.200423 1.22261
-0.036262799 -0.036509 1.11121
-0.038165402 0.372904 1.25078
0.0121041 -0.32578599 1.0704499
0.0023495301 -0.30541599 1.05677
-0.121968 -0.28156099 1.11062
-0.0239983 -0.231261 1.1248699
-0.0129195 -0.221659 1.09547
0.00387424 -0.218372 1.08407
0.0141289 -0.21292 1.08311
0.0785641 -0.204836 1.0654401
-0.067838103 -0.195861 1.10668
-0.050322998 -0.19471399 1.10021
-0.13416 -0.19449501 1.1353199
0.0169082 -0.184672 1.0763201
-0.085658103 -0.186986 1.12251
-0.147324 -0.193482 1.19363
-0.085869297 -0.170223 1.1118701
-0.144908 -0.156361 1.18051
-0.0356736 -0.146212 1.0761499
-0.0159097 -0.143052 1.0777299
0.037275098 -0.139007 1.06633
-0.13406999 -0.14549001 1.1717499
0.051017102 -0.12817501 1.0655
-0.109225 -0.111059 1.10563
0.0450374 -0.111141 1.05941
-0.045169301 -0.10283 1.06002
-0.108734 -0.097902097 1.10258
-0.119811 -0.097056702 1.10949
-0.061232101 -0.092593104 1.0720299
-0.14352401 -0.090810403 1.17028
-0.035319299 -0.084385604 1.0905401
0.0249712 -0.079446398 1.06321
-0.132911 -0.064469501 1.13679
-0.115847 -0.064228602 1.10821
-0.076391302 -0.059528999 1.10638
0.059481598 -0.056779999 1.07143
-0.119089 -0.0525201 1.12883
0.0074156499 -0.052772298 1.08398
-0.028253 -0.050747599 1.0994101
-0.0209704 -0.0482978 1.10144
-0.087352499 -0.047001701 1.11068
0.044387002 -0.0435948 1.05854
-0.122234 -0.0325699 1.14224
-0.121157 -0.0148335 1.18897
0.119256 -0.0117011 1.10489
-0.10993 -0.0096227098 1.13706
0.115607 0.0022721 1.10622
-0.0037276701 0.0232094 1.05927
-0.106939 0.064429499 1.12562
0.00413134 0.058380499 1.00916
0.0139785 0.0650758 0.98845899
-0.119615 0.080522798 1.12801
-0.111211 0.086426899 1.12214
-0.034538198 0.100092 1.07722
-0.0139233 0.105973 1.05187
-0.0118228 0.116493 1.0412101
-0.024225701 0.122135 1.05696
-0.034256201 0.12724701 1.06023
-0.104275 0.140424 1.12284
-0.076174602 0.137587 1.08815
-0.088990502 0.15467 1.09589
-0.103264 0.16515 1.11602
-0.080221102 0.16782799 1.10148
0.0029357499 0.173343 1.04558
0.036329601 0.205153 1.06805
-0.0677341 0.220634 1.10173
-0.076026797 0.22542401 1.11315
-0.032053702 0.22559901 1.0793
-0.0066404701 0.21688201 1.06596
0.022422001 0.23215801 1.05312
-0.039419498 0.241887 1.09405
-0.0259743 0.237387 1.06937
-0.043638699 0.26173699 1.08631
-0.037058201 0.26066399 1.07919
-0.098738201 0.30651599 1.27905
-0.0140168 0.347673 1.21512
-0.0313669 0.35325101 1.21131
-0.052923601 0.366198 1.24143
0.240274 0.39031699 1.2418
0.256825 0.42987201 1.2577699
-0.31416199 0.44099501 1.3935601
-0.19462 0.441921 1.3467799
0.210629 0.43503001 1.23071
-0.14918099 0.44743401 1.33955
0.39151999 0.48482201 1.34671
-0.39555001 0.45552999 1.42304
-0.37200099 0.46218401 1.4141999
0.41911599 0.50587201 1.37632
-0.38158801 0.47195899 1.41896
-0.331229 0.461465 1.3740799
-0.35940599 0.47076499 1.40135
-0.37251401 0.473259 1.402
-0.324265 0.46544999 1.36506
0.26732701 0.489292 1.29563
-0.395625 0.472092 1.3744299
0.182209 0.47164401 1.27121
0.36795801 0.51415902 1.32918
-0.33935499 0.479341 1.36518
0.17259499 0.47926 1.26572
0.26393199 0.49886701 1.29319
0.349159 0.51924998 1.33006
0.17722701 0.496696 1.27882
-0.34426001 0.484355 1.3578399
-0.33007899 0.48496699 1.35128
0.12768 0.49325699 1.27605
0.0097732004 0.477808 1.24559
-0.31452799 0.48807499 1.34136
0.041012298 0.47823 1.2377599
0.32663801 0.53226101 1.32144
0.13974699 0.50564098 1.27493
0.34942201 0.53798699 1.31859
-0.34065801 0.49914101 1.34288
0.404585 0.55085099 1.31045
0.0361734 0.49352899 1.2323999
-0.346526 0.50621498 1.33662
-0.37664801 0.517726 1.36959
0.179948 0.51331502 1.21759
0.263403 0.52914 1.2534699
-0.40836599 0.51415002 1.3394001
-0.37255999 0.52343202 1.35221
0.0045365999 0.50928003 1.23736
-0.37829 0.540335 1.38519
0.34287301 0.55204397 1.2649699
-0.39308 0.52766299 1.34734
-0.32254499 0.53379202 1.31928
-0.30199501 0.53475899 1.3200999
-0.29471201 0.534729 1.3080699
0.412227 0.59070802 1.30677
-0.043983199 0.510647 1.17779
-0.40700701 0.53637999 1.31124
0.41917801 0.60346001 1.3102601
-0.34687901 0.54339498 1.3104
0.36474901 0.59069198 1.27906
-0.30634001 0.54986799 1.30189
0.39477399 0.60206002 1.28203
-0.183376 0.51592499 1.17582
0.059760399 0.55860502 1.2376
0.098784797 0.56223202 1.24115
-0.278148 0.54661798 1.27236
-0.19886801 0.52488899 1.18639
-0.41509399 0.55466199 1.3040299
0.37615001 0.61391097 1.2837
-0.38686699 0.56576002 1.31683
-0.303267 0.56365502 1.29114
-0.31851301 0.56452399 1.29289
-0.169976 0.55182999 1.22403
0.248154 0.59244299 1.2283601
0.36119401 0.61987501 1.2683001
-0.24098501 0.551229 1.2227499
-0.35710299 0.58184701 1.31282
-0.342686 0.57509601 1.2918
-0.30224201 0.573919 1.28391
-0.14029101 0.55071902 1.18995
0.337075 0.62497801 1.2665401
-0.36726999 0.588539 1.31067
-0.36003 0.58416599 1.2962
-0.29284 0.57950699 1.27535
-0.192368 0.56530899 1.21819
0.0943202 0.571603 1.18212
-0.378034 0.58585101 1.29752
0.27542901 0.62357599 1.2532901
-0.16068099 0.571661 1.22214
0.33392099 0.63669598 1.25675
0.35344699 0.63933003 1.25547
0.37118 0.63920897 1.2528
-0.261334 0.57245499 1.2172199
-0.033488698 0.584786 1.19726
-0.205111 0.57351899 1.19991
-0.235434 0.56989998 1.19428
-0.167555 0.58289301 1.2084301
0.164162 0.61693501 1.21003
-0.0087913396 0.58831799 1.17469
0.28051201 0.642721 1.23585
-0.17350601 0.59204602 1.20435
-0.0083765397 -0.32289401 1.08944
-0.0144646 -0.27056399 1.11693
0.051546302 -0.264878 1.09991
0.00097589399 -0.261471 1.12606
-0.088849902 -0.264146 1.16561
-0.0607774 -0.25906801 1.14271
0.088257402 -0.25634801 1.1099401
-0.092000797 -0.245579 1.1629601
-0.061648998 -0.229214 1.12472
0.043212902 -0.22585601 1.0912499
-0.127854 -0.22460601 1.18989
0.0095091304 -0.201379 1.08474
0.209923 -0.17606799 1.19152
-0.089230202 -0.10633 1.0950201
-0.12827399 -0.100552 1.1529
-0.075594597 -0.087701499 1.07346
-0.0480185 -0.0860302 1.06858
-0.12711801 -0.074226297 1.11493
-0.0047319098 -0.049191199 1.09066
-0.128318 -0.047968801 1.16275
0.070184603 -0.039869901 1.07499
-0.0788785 -0.033968199 1.10823
-0.061183602 -0.0305847 1.10592
0.108768 -0.030532399 1.10531
0.0125127 0.00133073 1.0321701
-0.033364899 0.048836201 1.08201
-0.0175367 0.05291 1.05382
-0.0125669 0.072365701 1.05118
-0.064054199 0.0869065 1.0913301
-0.107605 0.124014 1.13688
0.0351144 0.127379 1.02966
-0.00121821 0.202195 1.0679899
-0.094740503 0.223065 1.1537499
-0.050372899 0.230883 1.08787
-0.021484099 0.230398 1.06332
-0.036784101 0.36176401 1.23796
-0.22844 0.40187401 1.3837301
0.206258 0.42327401 1.3528
-0.11822 0.424032 1.30975
0.18662301 0.46180901 1.30694
0.13095701 0.45848599 1.28291
0.43075001 0.51430398 1.36374
0.10906 0.471223 1.27654
0.44031101 0.53372198 1.346
-0.169237 0.46993101 1.26323
0.0091068 0.48256299 1.26651
-0.053220201 0.50312799 1.25903
-0.42229801 0.51439703 1.33719
-0.0965546 0.48991299 1.20912
-0.193496 0.51318097 1.27157
-0.071885496 0.495783 1.20517
0.38457301 0.566589 1.29651
-0.106973 0.51026702 1.24401
0.235278 0.53967297 1.2423
0.112476 0.53223097 1.24654
-0.093060501 0.50628698 1.21136
-0.0367456 0.53064299 1.2577
0.0669562 0.54434699 1.2487
-0.37093899 0.54769498 1.32528
0.0038912899 0.53792697 1.22291
-0.12508801 0.53356701 1.22436
-0.038987499 0.53173202 1.1993901
-0.21318001 0.52746803 1.21295
-0.103415 0.538046 1.2055399
-0.084117502 0.53989297 1.19774
-0.387869 0.560857 1.30553
0.099035203 0.567469 1.20623
-0.22282299 0.550955 1.22816
-0.034140401 0.57207698 1.1913
-0.045909502 0.57609302 1.19735
-0.19606499 0.57107002 1.20704
0.30748901 0.63277602 1.24675
0.27180299 0.63871902 1.25316
-0.080683596 -0.119442 1.0402499
-0.116952 -0.062828302 1.10654
-0.0309643 0.084846102 1.0698299
-0.0346995 0.127204 1.05873
-0.042645399 0.249451 1.08418
0.19807699 0.436306 1.3133301
-0.34149399 0.45510799 1.3820601
-0.18269899 0.47437 1.29084
-0.15110201 0.47198501 1.27934
0.114217 0.49088201 1.2783999
0.45374 0.54869801 1.3289599
-0.334133 0.50839102 1.33541
0.186085 0.51236898 1.22735
0.31225699 0.573542 1.3220299
0.33234701 0.58382797 1.28794
-0.16753399 0.52209502 1.19767
-0.025365001 0.562599 1.19909
0.047642801 0.58804399 1.22603
0.094337001 0.57163101 1.18229
-0.043252502 -0.305834 1.0872999
0.117709 -0.32010901 1.13912
0.030919701 -0.27888301 1.07583
-0.054797199 -0.27643099 1.14347
-0.0146349 -0.27484301 1.11891
0.068109497 -0.27323899 1.11051
-0.059158999 -0.25692901 1.14158
0.051417999 -0.24220601 1.09777
0.10719 -0.240004 1.10993
0.0450041 -0.228026 1.09267
0.0228 -0.220296 1.08968
-0.126974 -0.224582 1.1865
-0.15133999 -0.199196 1.19995
-0.084012203 -0.173729 1.13156
-0.111196 -0.164957 1.15899
-0.063524 -0.12591501 1.07107
0.118105 -0.101859 1.06591
0.035087202 -0.087275498 1.05793
-0.076216102 -0.086953297 1.07397
-0.0460512 -0.083519198 1.06199
-0.00679358 -0.076088198 1.0619299
-0.0929254 -0.067469999 1.09058
-0.00535818 -0.047428802 1.08937
0.078338102 -0.037958302 1.08371
0.20115501 -0.040224701 1.13779
0.17441601 -0.0295636 1.1268899
-2.95587e-07 -0.019291099 1.08623
-0.071833 0.037900198 1.10659
-0.016453899 0.052318901 1.05643
-0.0256382 0.072736703 1.06103
-0.053844199 0.077496 1.07876
-0.00091387198 0.088304698 1.0231
-0.0552231 0.166831 1.0924
-0.0242636 0.232489 1.07144
-0.16137899 0.386839 1.35623
0.20807201 0.42434099 1.35653
-0.29769999 0.38289699 1.27495
-0.0480146 0.39782 1.25021
0.19191501 0.44576699 1.33573
-0.115679 0.41922501 1.3017401
0.044351999 0.42317399 1.26134
0.16919 0.454115 1.30467
0.191882 0.47118199 1.32081
-0.101957 0.44422701 1.31032
0.43110299 0.51180398 1.36438
-0.322191 0.48470101 1.34972
0.0074036298 0.476652 1.25467
-0.163473 0.48243901 1.29607
0.159494 0.502092 1.28177
0.2272 0.53419501 1.25919
-0.26454699 0.50779098 1.26069
-0.094779998 0.50743598 1.21218
0.15450899 0.52551502 1.20364
0.21228699 0.55694902 1.2419
-0.35233501 0.55446899 1.30752
0.222884 0.57146299 1.23281
0.33255699 0.60599601 1.2862099
0.200415 0.58624703 1.2737401
-0.00169241 0.54652101 1.1965801
0.32206699 0.60436302 1.24554
-0.087317802 -0.26482001 1.15521
-0.093544602 -0.236303 1.16135
0.215739 -0.215333 1.18483
-0.048534699 -0.108471 1.06262
-0.065810099 -0.067820698 1.12027
-0.0166358 -0.038332 1.12203
0.085695699 -0.0398908 1.0954601
-0.105512 -0.039062899 1.1161799
0.17718001 -0.031710699 1.1344301
0.094397098 -0.00081374397 1.0822001
-0.036206599 0.047141202 1.07924
-0.039799999 0.102681 1.0735101
-0.067351498 0.139717 1.08416
-0.017067401 0.38133201 1.2468899
0.17760199 0.46860701 1.31335
0.19758099 0.45885301 1.26893
-0.163315 0.459149 1.32464
0.017715 0.471874 1.274
0.15353601 0.52310401 1.2503099
-0.025315801 0.49816099 1.21708
-0.186088 0.51193202 1.2656
-0.12626401 0.51815599 1.23487
-0.078654401 -0.028440701 1.11484
0.0268133 -0.25587499 1.0937001
-0.036010198 -0.257954 1.1296901
0.0563154 -0.232876 1.10022
0.21835101 -0.22375301 1.18698
-0.144766 -0.19155499 1.18584
-0.052448701 -0.113109 1.06216
-0.161203 -0.082087003 1.22742
0.177294 -0.081227101 1.12832
0.142156 -0.0348389 1.11992
0.169809 -0.0348024 1.13925
0.104214 -0.023550101 1.0952899
-0.061368 0.13994201 1.09674
0.0849424 0.242998 1.09914
-0.160181 0.45398799 1.31469
0.14426 0.482627 1.27516
-0.031794101 -0.068745598 1.07102
-0.037996601 0.38338399 1.2774301
0.106787 -0.28942701 1.07611
0.0079413597 -0.27158299 1.0819
0.0200196 -0.28886101 1.1518101
-0.061011799 -0.26694 1.12412
0.148507 -0.25655299 1.14703
0.100364 -0.220328 1.13068
0.188903 -0.220117 1.17197
-0.0053060199 -0.134609 1.0845799
-0.15137 -0.129529 1.18408
-0.058843002 -0.113705 1.0707999
-0.092457302 -0.113599 1.09721
-0.159639 -0.11252 1.20477
-0.123629 -0.074957699 1.1083699
-0.15312 -0.067364402 1.1851701
-0.111045 -0.0441842 1.12925
-0.085496001 -0.035585001 1.11163
-0.067414701 -0.032442801 1.10272
-0.00454569 0.00096490502 1.08285
-0.121191 0.0064305202 1.14516
-0.082291797 0.045369301 1.10492
-0.0133535 0.070654899 1.01752
0.0087136701 0.0803001 0.98771298
-0.0048359199 0.097230099 1.06604
-0.041012 0.092960604 1.03328
0.0080975704 0.097218201 1.02104
-0.046875801 0.121778 1.06813
0.0086410297 0.127342 1.03736
-0.083182298 0.139008 1.10119
0.0481705 0.140632 1.03438
-0.113353 0.147908 1.13665
-0.0714439 0.145623 1.09082
-0.098269999 0.152435 1.11076
-0.107398 0.156285 1.11023
0.021702601 0.169709 1.04362
0.041031599 0.19056401 1.08445
-0.067892998 0.200931 1.10825
-0.111446 0.22608501 1.20876
-0.063833103 0.21166299 1.10289
0.0049776598 0.210812 1.06652
-0.087853998 0.226475 1.1363699
-0.081143603 0.22586 1.12704
-0.098921597 0.24139801 1.19898
-0.097490102 0.227332 1.14095
-0.081316501 0.235229 1.12921
-0.075574704 0.280981 1.2563601
-0.057962701 0.246663 1.09591
-0.068567403 0.257314 1.1324199
-0.0446635 0.248634 1.08213
-0.091023102 0.29778901 1.26934
-0.083131298 0.30596 1.27107
-0.065735199 0.30184799 1.23692
-0.067639597 0.305758 1.25693
-0.071547598 0.31425899 1.24959
-0.0665344 0.32117 1.24616
-0.068308301 0.324213 1.2588
-0.059736699 0.327443 1.2385499
-0.0594467 0.319042 1.20503
-0.0412976 0.32381901 1.17996
-0.048104499 0.34971699 1.24597
-0.061551102 0.359943 1.25718
0.215749 0.40929201 1.3046401
0.223336 0.39077401 1.23379
0.216114 0.399194 1.23068
0.219431 0.40446401 1.21998
0.42289799 0.477478 1.38328
0.198237 0.44298801 1.32815
0.229532 0.41843799 1.22586
0.389153 0.480555 1.365
0.208138 0.41667601 1.2180001
0.13397001 0.43535101 1.29151
0.168593 0.45068401 1.31109
0.210852 0.42070699 1.20244
0.193679 0.43445301 1.2453901
0.20908201 0.427865 1.21887
0.377487 0.49544799 1.3635499
-0.30259401 0.43701801 1.40608
-0.322108 0.438407 1.40145
-0.096805699 0.44578201 1.28125
0.44826099 0.53578198 1.3371
-0.35409099 0.45365101 1.41637
-0.30479899 0.454712 1.3834701
-0.265434 0.40450799 1.20818
0.45583501 0.54887199 1.32911
0.145685 0.47638199 1.25021
0.40642601 0.547122 1.32748
-0.34750399 0.46343201 1.37634
-0.164938 0.46197 1.2959501
-0.34868401 0.479388 1.39446
0.166656 0.50915498 1.26053
0.3671 0.560265 1.2919199
-0.37601399 0.48806801 1.38945
0.35609299 0.56533402 1.30164
-0.29212299 0.49306101 1.3392299
-0.330926 0.49415401 1.34919
-0.319444 0.495363 1.34789
-0.30456501 0.49577299 1.34045
0.119545 0.524077 1.24719
-0.351421 0.50264299 1.36365
-0.310729 0.50291902 1.3443
-0.31933099 0.504969 1.33842
-0.36359099 0.51132601 1.3674099
0.35701299 0.58932602 1.28116
-0.0607985 0.48966801 1.1827101
-0.33887899 0.50539899 1.31552
0.092438102 0.55395001 1.2445101
-0.25899199 0.52067399 1.25783
0.181473 0.58145899 1.22838
-0.251425 0.52002603 1.24992
0.13085 0.56722999 1.20757
0.29144201 0.61354399 1.25121
-0.27454901 0.52671301 1.25734
-0.35374901 0.54558998 1.32373
-0.25694701 0.536102 1.23937
-0.29258299 0.55677497 1.29924
0.37196401 0.65036303 1.24988
-0.27087399 0.544469 1.25617
-0.30960199 0.55981702 1.29654
-0.152402 0.54340702 1.19013
-0.066614501 0.56118298 1.1975501
-0.25055 0.54787701 1.2349401
-0.37080699 0.56509602 1.31378
-0.33491999 0.56587797 1.29538
-0.27762201 0.56623203 1.27669
0.258403 0.64470702 1.23104
-0.33356601 0.57265699 1.29571
-0.25046399 0.55542201 1.2169
0.103528 0.60074902 1.1803401
-0.100707 0.57070303 1.19131
0.30543199 0.662633 1.2303801
-0.313757 0.57538497 1.28405
-0.183925 0.565503 1.20625
0.30699599 0.661255 1.21764
0.23639201 0.65255398 1.21904
0.15935899 0.635562 1.21703
-0.240852 0.56298798 1.21249
-0.348369 0.58372802 1.29601
0.168401 0.63358402 1.1934201
0.27636701 0.66499001 1.21481
0.078040302 0.60557598 1.16359
-0.342388 0.589845 1.29185
-0.40212199 0.57967001 1.28687
0.13540401 0.63814098 1.19497
0.16494299 0.64202702 1.19063
0.268839 0.66951299 1.20706
0.0331483 -0.24837799 1.09281
-0.073716499 -0.21086399 1.12485
-0.087463401 -0.144352 1.09919
-0.019130399 -0.127647 1.0815901
-0.12922999 -0.072548397 1.11757
0.1829 -0.072881199 1.1129301
-0.097786598 -0.036294602 1.12185
0.070120797 -0.031855099 1.0664999
-0.00117034 -0.0192053 1.0833
0.063119598 -0.0126706 1.05923
-0.027786899 0.0165984 1.09166
-0.108411 0.024604799 1.13422
-0.106394 0.0529119 1.1224
-0.0043145302 0.069401696 1.00188
-0.021663399 0.088226497 1.05931
0.0051539298 0.111796 1.03746
-0.094956197 0.134867 1.11069
-0.033848301 0.141753 1.05528
-0.090007298 0.162788 1.1075
0.0053317798 0.20193499 1.04475
-0.073612101 0.213901 1.10769
0.028834101 0.23111799 1.0557899
-0.074813299 0.240012 1.12293
-0.079115704 0.29029599 1.2453901
-0.092449799 0.31923899 1.2684
0.225619 0.40321001 1.26182
-0.094163097 0.37469801 1.28083
0.189399 0.452813 1.25386
-0.169183 0.45899799 1.306
0.365677 0.54471099 1.32585
-0.321392 0.48445401 1.3556401
-0.122342 0.490192 1.27285
0.0113064 0.51119202 1.22174
-0.138431 0.48991501 1.2346801
-0.034982901 0.521088 1.20174
-0.0041931798 0.55256802 1.21243
0.28864801 0.62656403 1.2536401
0.045977298 0.58735502 1.2242
-0.393076 0.55250901 1.31695
0.090441301 0.586178 1.19873
0.105188 0.60297102 1.1840301
-0.310693 0.57499897 1.28966
-0.063743398 0.578556 1.19172
-0.38143501 0.577003 1.30316
-0.24031299 0.56364298 1.21324
-0.31803 0.58405799 1.2836
-0.118623 -0.097637601 1.11893
-0.055687599 -0.066559501 1.08681
0.20541701 0.018750699 1.16287
-0.0656792 0.220525 1.10818
-0.053488798 0.266664 1.13086
-0.055893298 0.280204 1.16422
0.219337 0.41099 1.30927
0.218565 0.42527199 1.2729599
0.201895 0.431766 1.28369
0.1566 0.44549301 1.31278
-0.191652 0.44128099 1.36022
-0.32389301 0.46418899 1.36632
0.072982199 0.49097499 1.26477
0.426828 0.56965101 1.31761
0.0458907 0.49783 1.25014
-0.097760797 0.48927099 1.20445
-0.252538 0.481231 1.21494
-0.28670099 0.51429898 1.29925
0.37911701 0.61001402 1.2685
-0.30948201 0.52336103 1.32212
0.35637 0.641491 1.26094
-0.13275801 0.54447299 1.21338
-0.197943 0.53185898 1.20735
-0.0125936 0.57168299 1.21488
0.258389 0.62887001 1.23072
0.287678 0.64458501 1.21767
-0.0883343 -0.26463199 1.16536
0.078019202 -0.230334 1.10958
-0.082941502 -0.146501 1.11599
-0.144317 -0.131862 1.1664701
-0.091004401 -0.105016 1.08813
-0.107418 -0.082560398 1.09699
0.103521 -0.080908202 1.06507
-0.115124 -0.0167113 1.1467299
0.062473401 -0.0138572 1.05476
-0.107552 0.0229201 1.13866
-0.039319899 0.024135901 1.09826
-0.086080901 0.059757501 1.09883
-0.0042782901 0.065440603 1.00808
-0.124698 0.102543 1.13785
0.0052698799 0.112024 1.04
-0.0378819 0.15748601 1.0938801
0.023890899 0.169422 1.05891
-0.06752 0.21729501 1.12274
-0.048851501 0.229288 1.08939
-0.0786689 0.23979899 1.11824
-0.045203902 0.262667 1.11128
0.25077799 0.352568 1.24929
0.435738 0.452126 1.36465
-0.328527 0.428361 1.4419399
-0.29976901 0.41960099 1.3904099
-0.31210199 0.441939 1.39733
0.169146 0.48385501 1.26048
0.16642199 0.51157302 1.24771
-0.23157699 0.454063 1.22656
-0.10718 0.49662799 1.25966
-0.140415 0.49028099 1.22776
-0.162415 0.53406698 1.25098
-0.308002 0.54016799 1.29225
-0.33106399 0.55531698 1.30114
0.093339004 0.592601 1.20986
-0.136254 -0.088705197 1.1482
0.056510199 -0.10311 1.04737
-0.075815797 -0.087733097 1.07447
-0.121754 -0.076157399 1.11692
0.0389116 -0.046847399 1.06073
-0.055466201 -0.036621202 1.10376
-0.162149 -0.0131925 1.22255
-0.062497798 0.0014786799 1.1113501
-0.079327203 0.28835899 1.24359
0.20907301 0.39492199 1.25332
0.15243401 0.49871299 1.27323
-0.30493999 0.50615197 1.33034
-0.096699901 0.52103102 1.24779
0.129054 0.55523098 1.21978
-0.265246 0.51343697 1.26768
0.020402299 -0.0487918 1.06833
0.201847 -0.28028199 1.12053
0.135628 -0.22369701 1.14224
-0.075232297 -0.087417401 1.06768
0.031413399 -0.045661598 1.0618
-0.054025501 -0.0365576 1.09578
0.071028799 -0.0107391 1.07423
0.203307 -0.00364834 1.15447
-0.066473998 0.00250201 1.11331
0.067995697 0.247749 1.09361
-0.117146 0.426718 1.28466
-0.047378801 0.041022401 1.09657
-0.053773399 0.14392599 1.08902
0.118704 -0.30891499 1.10137
-0.04194 -0.22645301 1.09058
-0.031383801 -0.212226 1.1002899
0.066634297 -0.096065603 1.06093
0.152831 -0.061989602 1.0953
-0.052590199 -0.028827099 1.10603
-0.124086 0.056866601 1.1341701
-0.056171499 0.151136 1.08189
-0.030666601 0.15786199 1.07655
-0.0029490199 0.18095499 1.04061
-0.041109402 0.192811 1.07689
0.012103 0.216493 1.06264
-0.092095599 0.233486 1.13493
-0.036131199 0.23907401 1.07479
-0.044776 0.23961601 1.07833
-0.0172357 0.26029301 1.0663
0.0114975 0.262586 1.06874
-0.0082727699 0.341539 1.21207
-0.036231998 0.36179999 1.2372
-0.047584701 0.457504 1.27277
-0.085758403 0.50062603 1.20181
0.36023301 0.58159798 1.29144
-0.044006001 0.51813102 1.19578
0.29010499 0.58993399 1.26051
0.062921397 0.55267 1.21885
0.378187 0.610614 1.2654999
-0.30989301 0.52459598 1.32636
-0.38306001 0.52610302 1.3573
-0.387501 0.53623599 1.34404
0.0282331 0.57538098 1.2372299
-0.249559 0.53936797 1.2345999
-0.39753601 0.54653901 1.3210599
-0.37868601 0.55909902 1.32143
-0.25004199 0.557208 1.22267
-0.215644 0.55974603 1.21292
-0.421929 0.55497301 1.2962101
-0.22320899 0.571711 1.1855299
-0.086608797 0.59783798 1.19139
-0.31900299 0.58319801 1.28088
-0.183587 0.588323 1.20398
-0.14690199 0.59087199 1.1928101
-0.19546901 0.58666098 1.19709
-0.309167 0.58880699 1.27604
-0.26184699 0.57995802 1.21077
-0.218482 0.58311403 1.19142
-0.145 0.60738999 1.19809
-0.41027799 0.58191001 1.27779
-0.19851001 0.59511399 1.18953
-0.180401 0.60197198 1.1928101
-0.130206 0.60977602 1.19822
-0.30490401 0.60226399 1.27327
0.00704712 0.641002 1.20635
-0.36736 0.60263002 1.30023
-0.396911 0.59332401 1.28299
-0.296303 0.606049 1.25437
-0.136857 0.616561 1.1883399
-0.27728 0.60784602 1.24519
-0.089160703 0.62621403 1.18611
-0.36864901 0.60620099 1.27589
-0.31898499 0.61227101 1.26425
-0.29829901 0.61488003 1.25657
-0.140797 0.624789 1.18823
-0.28472501 0.61651498 1.24965
-0.27704 0.620121 1.24616
-0.40411499 0.60221398 1.2639
-0.21777301 0.61595899 1.18397
-0.30883199 0.62038797 1.25383
-0.396402 0.61040002 1.2696
-0.30062699 0.625067 1.24648
0.030699801 -0.25089201 1.0968601
0.049427699 -0.241827 1.09589
-0.094896302 -0.0553798 1.10734
-0.0974444 -0.037057601 1.12482
-0.114026 -0.0232944 1.15127
-0.084858 0.019055299 1.10891
-0.106149 0.0230387 1.1412899
-0.064330399 0.131501 1.07937
0.046865299 0.149341 1.07713
-0.086348601 0.323993 1.2721
0.028807299 0.37695199 1.23265
-0.34710801 0.50959003 1.34577
0.30239701 0.60494399 1.26006
-0.0187112 0.57656097 1.20845
-0.408003 0.54232699 1.31259
-0.069127701 -0.104976 1.0756299
-0.0089456299 -0.0300739 1.09521
-0.0242722 -0.00168648 1.10211
-0.050778899 0.122576 1.06422
-0.0187073 0.15433399 1.05142
-0.043781798 0.248778 1.08064
0.085571803 0.51033098 1.2441601
0.065275297 0.55202699 1.21821
-0.37803999 0.523839 1.3502899
-0.358688 0.55413598 1.3110501
-0.173457 0.56239498 1.19805
-0.074869998 0.59966898 1.18365
-0.208189 0.58458799 1.1881
-0.145484 0.60560697 1.1963
-0.0218958 -0.308817 1.0953799
-0.10102 -0.23299199 1.1440901
0.0065099401 -0.23967101 1.10401
-0.0627378 -0.230529 1.1225899
-0.037021801 -0.205835 1.09749
-0.064315401 0.087994203 1.08208
-0.0604668 0.342731 1.2479
-0.082098603 0.39929301 1.26533
0.20466501 0.45109099 1.3157001
-0.37325099 0.447606 1.40122
-0.370673 0.51379699 1.35109
-0.083606496 0.53248 1.20055
-0.37263501 0.54848498 1.32616
-0.183102 0.56036597 1.22649
-0.089501597 0.579036 1.19379
-0.17247 0.58147502 1.20491
-0.144265 0.58406001 1.19157
-0.20516001 0.58639699 1.20568
-0.11913 0.59562999 1.19153
-0.0534328 0.17435899 1.08548
-0.043508299 0.22930001 1.09031
-0.0357081 -0.255402 1.13378
-0.039325502 0.100929 1.0803
0.034645699 -0.183192 1.0747499
0.098540798 -0.072245598 1.05619
0.0521015 0.15928 1.03732
0.017108399 0.205579 1.08058
0.054776601 0.248032 1.06925
-0.062903099 0.52864403 1.2110699
-0.21164399 0.57912499 1.19532
0.0529138 -0.111116 1.0520999
0.068562403 0.49395299 1.22649
0.281234 0.53026998 1.28246
-0.42383501 0.54885399 1.30883
-0.350907 0.62138897 1.2735699
0.036256801 -0.18496899 1.07592
0.0351374 0.185133 1.0725
-0.0653098 0.58007902 1.1920201
0.073519103 -0.270843 1.1102999
0.102898 -0.24151701 1.10637
0.18094 -0.237435 1.15073
0.068811201 -0.22081999 1.09197
0.071389899 -0.196308 1.0711401
0.145568 -0.207197 1.1310101
0.190566 -0.184755 1.15894
0.08839 -0.155975 1.07713
0.099172801 -0.155183 1.07805
0.174292 -0.101387 1.10777
0.218252 -0.118001 1.18325
0.040022299 -0.097772598 1.05656
-0.053868402 -0.065755501 1.08448
0.055419799 -0.0557613 1.06099
0.0624131 -0.0521027 1.06733
0.134747 -0.050192699 1.09507
0.0169116 -0.042812999 1.06613
0.181711 -0.047643401 1.13124
0.127085 -0.0389488 1.1095099
0.16174901 -0.039939601 1.1264499
-0.0104154 -0.0253642 1.0666
0.168403 -0.020440301 1.13998
0.15119 0.0573994 1.11633
0.048737399 0.076348796 0.97893697
0.114627 0.071632303 1.08438
0.122188 0.0745124 1.08599
0.134509 0.092922904 1.09269
0.035714399 0.132714 1.03418
0.096099198 0.139144 1.0605201
0.137146 0.14854801 1.09337
0.12649401 0.159375 1.09249
0.0711696 0.176084 1.0483201
0.027909299 0.17974301 1.0427099
0.111375 0.186024 1.09391
0.055537201 0.20449901 1.08259
0.115517 0.218667 1.10001
0.108997 0.224171 1.0983
0.108892 0.231894 1.09856
0.128195 0.23868801 1.1312
0.131001 0.235845 1.14812
0.118166 0.236949 1.10071
0.093826398 0.245325 1.08816
0.125332 0.244617 1.12379
0.076963499 0.246664 1.09014
0.107886 0.26333699 1.11701
0.084766999 0.27946699 1.1168801
0.12417 0.32611999 1.27616
0.101999 0.34012601 1.2678
-0.26026601 0.35675901 1.29805
0.109302 0.34607899 1.27939
-0.23305 0.36835501 1.37163
0.057744998 0.34828299 1.21201
-0.248206 0.36818701 1.3072
-0.24814899 0.37432799 1.37172
-0.236229 0.379769 1.3723201
-0.23682401 0.38874701 1.38854
0.057937998 0.369791 1.23402
0.30331099 0.39205801 1.42065
-0.233982 0.40114 1.36686
0.234082 0.36917201 1.22505
-0.24069101 0.40420499 1.35473
0.31115201 0.41067299 1.39823
0.30734199 0.419489 1.38583
0.29058501 0.42089799 1.37814
0.275071 0.42226201 1.3819
0.29982901 0.42392001 1.37947
0.35157099 0.42614701 1.40616
0.31282201 0.42880499 1.38144
0.276651 0.433736 1.34249
0.351744 0.4411 1.39595
-0.248943 0.44911999 1.28285
0.30500299 0.454267 1.3585
0.33952901 0.45448399 1.3725801
0.32555601 0.45473 1.36226
-0.050803501 0.45311701 1.26686
0.350034 0.46291599 1.38816
-0.272385 0.47668299 1.35453
0.27644601 0.457176 1.32061
0.35886201 0.46627501 1.37467
0.151326 0.46042401 1.28237
0.29973799 0.46831101 1.34106
0.32179001 0.473369 1.34442
0.34588599 0.4718 1.3508199
0.246635 0.479716 1.28975
0.25805801 0.483399 1.28907
0.335888 0.49582899 1.3351901
0.32960501 0.50195402 1.3313299
0.32414401 0.50796998 1.32648
0.33762199 0.50898898 1.3323801
0.35321999 0.51217002 1.3329999
0.33153501 0.51271999 1.3260601
0.0052418099 0.506962 1.21549
0.273184 0.512492 1.29457
0.232894 0.512079 1.26438
0.27804101 0.51889002 1.28975
0.29284099 0.52315098 1.28926
0.29796699 0.52976 1.29029
0.22388799 0.527089 1.25203
0.349581 0.537615 1.3173
0.27968299 0.53373802 1.2794
0.027144199 0.53336 1.22865
0.0065993299 0.53531498 1.21682
0.341499 0.54222798 1.31494
-0.00315652 0.53559297 1.20398
0.223543 0.53577799 1.2475801
0.19510899 0.54222703 1.25462
-0.216177 0.55893201 1.2187999
-0.00111353 0.54999399 1.2236201
-0.0192541 0.54712099 1.1946599
-0.0084652202 0.54999 1.20831
-0.016159801 0.55650002 1.2065099
-0.36025801 0.59936702 1.2851
0.0094423303 0.57098198 1.2146699
-0.034514401 0.57665002 1.20723
-0.124494 0.58931798 1.1953599
-0.35380799 0.62609398 1.25694
-0.188006 0.604312 1.17962
0.152496 -0.22860201 1.1346
0.066292301 -0.20709001 1.07265
0.115005 -0.205989 1.09663
-0.120255 -0.241495 1.16925
0.21159799 -0.177494 1.19303
0.136856 -0.122489 1.07941
0.104248 -0.116858 1.09235
0.091392003 -0.031892601 1.1070499
0.123078 -0.027887501 1.10923
0.164106 -0.029558299 1.13041
0.111012 -0.0174374 1.1039799
0.13019501 0.0052672201 1.14071
0.12638 0.033932298 1.11106
0.101562 0.067513198 1.08165
0.0227191 0.095848098 1.03611
0.0742153 0.148663 1.05788
0.155163 0.164257 1.1116
0.066305898 0.193792 1.04564
0.0306907 0.20775101 1.0498
0.087772101 0.226221 1.10838
0.100711 0.232467 1.09328
0.117349 0.34051999 1.26964
0.023226701 0.341299 1.1939
0.097881399 0.37956601 1.2642601
0.28448099 0.39202899 1.4087501
0.117042 0.38420001 1.2689
0.27270901 0.40920299 1.36955
0.116646 0.413679 1.2726901
0.0484225 0.42488 1.2474
0.26229399 0.44416901 1.32149
0.052435599 0.46112901 1.27256
0.33397999 0.47391701 1.34945
0.0127106 0.48728999 1.27487
0.164988 0.481518 1.20936
0.280983 0.50287497 1.2976
-0.42083201 0.55341798 1.3080699
0.134728 0.50750798 1.2441601
-0.228937 0.56130999 1.21068
0.123084 -0.041972801 1.10129
0.0692368 -0.017403999 1.08158
0.169392 -0.0194369 1.1404999
0.0823709 -0.0082227103 1.08531
0.120287 0.089419097 1.08725
0.068519399 0.128218 1.04356
0.0934598 0.245592 1.08866
-0.45988899 0.53885001 1.31979
0.33731499 0.51632702 1.32489
0.261179 0.51873702 1.28383
-0.382981 0.600281 1.28275
0.108773 -0.21842 1.10734
-0.093807802 -0.236315 1.15649
0.157884 -0.084967099 1.09342
0.16561 -0.059666499 1.10697
-0.0146756 -0.037164502 1.09556
0.179704 -0.0037593599 1.147
0.155534 7.3773699e-05 1.13538
0.103674 0.019261001 1.10017
0.100648 0.063139401 1.08094
0.062577203 0.091078803 1.02912
0.076149799 0.0999268 1.06503
0.118543 0.13361301 1.07986
0.079414502 0.147664 1.04529
0.12884 0.148559 1.08736
0.100353 0.165139 1.0878
0.136244 0.165188 1.09952
0.113573 0.176613 1.09416
0.074700102 0.199442 1.0700901
0.096175998 0.228237 1.08699
0.093122199 0.24574099 1.0880001
0.13014001 0.289801 1.24587
0.183538 0.33623001 1.33331
-0.23701701 0.39094901 1.3677
0.072567903 0.36909899 1.23829
0.11795 0.38279101 1.2574
0.0533037 0.38844901 1.24559
0.261323 0.44554701 1.32739
-0.41916001 0.490628 1.35104
0.00114156 0.45913199 1.2644
-0.452786 0.51438898 1.34724
0.0126679 0.51231903 1.21778
-0.173219 0.56511199 1.20795
-0.19507299 0.57174098 1.2041
0.115893 -0.299851 1.04996
0.0721265 -0.156023 1.07232
0.172185 -0.030538499 1.12343
0.100302 0.112857 1.07015
0.12664001 0.15046699 1.08801
0.110898 0.182521 1.09376
0.089904398 0.23078001 1.09253
0.113132 0.38703501 1.24953
0.121983 -0.113717 1.0723701
0.096875302 -0.078616299 1.06603
0.114272 0.033243299 1.09465
0.106126 0.109796 1.07449
0.147212 -0.29600701 1.05827
0.150785 -0.29714999 1.08008
0.13104001 -0.246501 1.1214499
0.161577 -0.234796 1.14057
0.13230599 -0.20345999 1.11546
0.121538 -0.190614 1.12176
0.120203 -0.170691 1.09225
0.213167 -0.135987 1.17904
0.230774 -0.13452999 1.20851
0.0877598 -0.099908903 1.06038
0.131126 -0.087394401 1.07374
0.17659301 -0.085595198 1.10181
-0.0072906199 -0.076122098 1.06162
