ply
format ascii 1.0
element vertex 683
property double x
property double y
property double z
property uchar red
property uchar green
property uchar blue
end_header
0.3449605360174358 0.2108970895595573 1.8588497906620480 255 255 255
-0.0520481897333441 0.2622412610136122 1.7869865790171462 255 255 255
-0.0071686920314346 0.0940589648412204 1.4997629110418387 255 255 255
0.0108633313056697 0.0991166742066847 1.5429638390789373 255 255 255
0.3405816653719279 0.1672162370430862 1.9122620755279860 255 255 255
-0.1074233663761895 0.0888050496579908 1.4698058060070534 255 255 255
-0.0435793784858497 0.0744243037888079 1.5038300062190098 255 255 255
-0.0322101847788570 0.0874390069033125 1.5348178049344283 255 255 255
-0.0566163390038671 0.1901549977411346 1.7566888327432084 255 255 255
0.3518619355425526 0.1218230720264227 1.9166311242870064 255 255 255
-0.1483256856155462 0.0419856146985612 1.4276048816698648 255 255 255
-0.1118665623050302 0.0623092039424463 1.5113488415280270 255 255 255
-0.4399598993103698 0.0204804329535587 1.2312461621775348 255 255 255
-0.1134475089093189 0.0653335120463571 1.5338613050740464 255 255 255
-0.0692065250153091 0.0800677140366422 1.6028084632331918 255 255 255
-0.1099134480716921 0.1445279591517548 1.7291772348147532 255 255 255
0.2623429770284260 0.1229803496994718 1.9382160025972450 255 255 255
-0.0706420236013439 0.1280464082919348 1.7652207197893761 255 255 255
-0.2070779728768103 -0.0030397071316943 1.4082874844193860 255 255 255
-0.4272089674331075 0.0333320285479657 1.3467757640683518 255 255 255
-0.0654567973873395 0.1304609462515633 1.7779720668756966 255 255 255
-0.0871009253830353 0.1353158239211304 1.8087763619005248 255 255 255
-0.1966501023217343 -0.0027792880093833 1.4887600450372940 255 255 255
-0.1254945334665711 0.0326036731783750 1.6122399670770871 255 255 255
-0.2615640401938942 -0.0393914203746488 1.3974650059966525 255 255 255
-0.5781820790458549 0.0444034741603276 1.3477651467459393 255 255 255
-0.0798682819142907 0.1009443400210637 1.7904757157028706 255 255 255
-0.4790444122680515 -0.0666330742158099 1.2605949700862360 255 255 255
-0.1895336979892221 -0.0129340655932919 1.5310218583606834 255 255 255
-0.4338649963055182 0.0099934472155978 1.4049647732328541 255 255 255
-0.3553621386479334 -0.0135157639101843 1.4423240102304045 255 255 255
-0.1840999911864976 -0.0002599948494977 1.5767795509691176 255 255 255
-0.3807910937302610 -0.0302032118825763 1.4418816795905325 255 255 255
-0.2142474062554163 -0.0574545024613117 1.5240430530705387 255 255 255
-0.1645585821284933 -0.0316571495014944 1.6236903579644031 255 255 255
-0.0936272943147128 0.0486598819976779 1.8182372974660115 255 255 255
-0.1679252488652234 -0.0626747941610751 1.6438426795288190 255 255 255
-0.0641739577802421 -0.0905636977275647 1.6775988455121262 255 255 255
-0.0945876894078534 -0.0520728693500470 1.7343872232489370 255 255 255
-0.1086320734726407 -0.0287200978200624 1.7767227015378442 255 255 255
-0.5188678859158641 -0.1432061841141350 1.3833973808345328 255 255 255
0.6527449917017137 0.3681587124406638 1.5104589410590175 255 255 255
0.5778966618153919 0.3441181014912706 1.5709357919654949 255 255 255
0.1473460993487179 0.2876713969143536 1.3399912791642903 255 255 255
0.0155585941307436 0.3659292832218266 1.6395929894319818 255 255 255
-0.0524666951386116 0.3693131478404739 1.6667625958322343 255 255 255
-0.0130684770845919 0.3438804858934283 1.6228331096723096 255 255 255
1.0472786657000590 -0.6160653775436165 -0.8935807534188578 255 255 255
0.0129756217906150 0.2920795484855516 1.6609009869105751 255 255 255
0.4128467191344389 0.2442186539181369 1.7159516529531837 255 255 255
-0.0085222168716260 0.3058686615277892 1.7444961564201713 255 255 255
0.0943100005409343 0.1155375515448664 1.3176022656984652 255 255 255
0.1309284120215083 0.1330367526434382 1.4209410855826472 255 255 255
0.0753457585059433 0.1007219255500906 1.2798445365459381 255 255 255
0.8432586344618092 -0.9476538861451738 -1.0990148702700500 255 255 255
-0.0407573256062207 0.2717718973979106 1.7536652815036964 255 255 255
-0.0119234295113164 0.2268184660169904 1.7144282074957073 255 255 255
-0.0623087425321837 0.2532550215213956 1.8212245548515273 255 255 255
-0.0879269969494800 0.0869863540435605 1.4428510361754703 255 255 255
-0.1205855192348303 0.0697245682947242 1.4284891681868166 255 255 255
-0.0794823394734046 0.2265934091736634 1.8224113026834623 255 255 255
-0.0700149641975381 0.1766057710859030 1.7128322348493550 255 255 255
-0.0494245877982911 0.1714159530597936 1.7209547727552896 255 255 255
-0.0484816528656055 0.0525761301255025 1.4800746355261825 255 255 255
-0.0527339370016841 0.0761135106679874 1.5347976395257727 255 255 255
-0.0624713681540351 0.1868364810412675 1.8129451514290460 255 255 255
-0.0399787028559416 0.1506749481180616 1.7558388841562991 255 255 255
-0.0435824771989476 0.1576426118922573 1.7771148020844285 255 255 255
-0.0621155263191263 0.1734064156242840 1.8193817464228170 255 255 255
-0.1682831154395734 0.0439484806626940 1.4614121037262835 255 255 255
-0.0676637441098632 0.1619127473130559 1.7954033006135088 255 255 255
-0.1064798906922821 0.0576481160836040 1.5560692700669367 255 255 255
-0.1660892445901315 0.0186708213086214 1.4756382281654215 255 255 255
-0.0921913057941429 0.1341149872600151 1.7551580792351889 255 255 255
-0.1313394302710549 0.0565394335226513 1.5600994541267763 255 255 255
-0.1896565701584070 -0.0004576883389290 1.4527979597387748 255 255 255
-0.0884458068490960 0.1031082231868392 1.7306212079208114 255 255 255
-0.0776644781002831 0.1435688907652486 1.8484100448786962 255 255 255
-0.1277649096069372 0.0244761338601063 1.5900965679233747 255 255 255
-0.3968189582693232 0.0201086105630969 1.4191680140334948 255 255 255
-0.2189771956575854 -0.0021263266776257 1.4982778803705117 255 255 255
-0.2086667541624750 -0.0012599174394660 1.5107944415777010 255 255 255
-0.1570635549438649 0.0137466346436093 1.5829931192164988 255 255 255
-0.1387072024808381 0.0173429824930031 1.6052321188114513 255 255 255
-0.4019242906945840 0.0041361182519636 1.4114299966253789 255 255 255
-0.2255213711293089 -0.0306819740891235 1.4685614166241332 255 255 255
-0.1795977268078195 -0.0190293537416856 1.5307749453330535 255 255 255
-0.1648925244071931 0.0077158326278405 1.5973896685397557 255 255 255
-0.2203598117220895 -0.0276322538842110 1.5111148703684130 255 255 255
-0.1723071714793656 -0.0022617522678241 1.6066204004963143 255 255 255
-0.2448383185017068 -0.0846404127105091 1.4478554506282890 255 255 255
-0.4916183218779376 -0.0113419626788771 1.4043334399650393 255 255 255
-0.1883028988291862 -0.0277064065414577 1.5982769599314832 255 255 255
-0.2376652576902688 -0.0826426522926416 1.4748019133838268 255 255 255
-0.0751116034327693 0.0048115002182666 1.7545192694355651 255 255 255
-0.2337232623856181 -0.0649701381409622 1.5273100164318834 255 255 255
-0.2133376186903159 -0.0385576786940762 1.5882652074114234 255 255 255
-0.5846854375751322 -0.0287701350600325 1.3677194303463844 255 255 255
-0.3802390338834649 -0.0731371681423637 1.4388861008349438 255 255 255
-0.6139196237181817 -0.0086671660352594 1.4016686545550661 255 255 255
-0.1018331239514519 0.0252478147976960 1.8006315920784592 255 255 255
-0.5341234340656649 -0.0749937363579243 1.3556875607751582 255 255 255
-0.1073591879113070 0.0108892376865882 1.7963643372620952 255 255 255
-0.0912382238673992 -0.0904948212053544 1.6697489325998625 255 255 255
-0.2744166415556707 -0.1459736742469475 1.5220539027291247 255 255 255
-0.2216356686322849 -0.1408088033841942 1.6411983544923552 255 255 255
-0.1475579321153641 -0.1486500185861554 1.6950258804489819 255 255 255
-0.1266184006365528 -0.1543981794592025 1.7120468435931711 255 255 255
-0.2036763275414987 -0.1681537705475067 1.6940033767013016 255 255 255
-0.2201332613314627 -0.1765140930845513 1.6815208396140038 255 255 255
0.2223067781791614 0.4331158868139718 1.5177204062919762 255 255 255
0.0949150376394754 0.4195409167019195 1.5290861286244801 255 255 255
0.0820496243625206 0.4133638448404469 1.4897410727531242 255 255 255
0.0987905146924631 0.3982040195150771 1.4466667495408763 255 255 255
0.0438168399868992 0.4025203372579825 1.5721403050287674 255 255 255
0.1326516543895943 0.3348663471433317 1.4371401363056411 255 255 255
0.3227874356689437 0.3202976463417442 1.6196161622925469 255 255 255
0.0057056453080175 0.3479111538977412 1.6533473776671059 255 255 255
0.3828725020802527 0.2627252711319119 1.6675961816111760 255 255 255
0.1307564617685320 0.1690918490277654 1.2935031252460776 255 255 255
0.3779842917817502 0.2697919545690187 1.7930673999806241 255 255 255
-0.0215325628098585 0.3231348459440699 1.7728498062883806 255 255 255
0.0966859503549686 0.1050003026638469 1.1905733414584774 255 255 255
0.0389464448789085 0.2248564562934616 1.5795185905716600 255 255 255
-0.0402993534897445 0.2970193626016642 1.7450126846172838 255 255 255
0.0833222698137063 0.0743543624278172 1.1999180292622948 255 255 255
-0.0309506793550351 0.0475554201523426 1.1923399550039100 255 255 255
0.0525841214811727 0.0454782768964599 1.2370396387913951 255 255 255
-0.0204543760231109 0.2369589820060671 1.7149986242561563 255 255 255
-0.0471641896502343 0.2560835977368403 1.7601751389842684 255 255 255
-0.0392623665954366 0.2714370144067123 1.8224661098783306 255 255 255
-0.0346213069770800 0.2734482147870903 1.8430691790860831 255 255 255
-0.0776520273692522 0.1024957076087242 1.4832991160952278 255 255 255
-0.1136140669673056 -0.0396226473724518 1.1867958227469841 255 255 255
-0.0595607555267517 0.1999390878998035 1.7541966097854822 255 255 255
-0.0952407501626544 0.0672796787057954 1.4509754878713581 255 255 255
-0.0725511057163906 0.2439290314437102 1.8819501634467535 255 255 255
-0.0730178501839130 0.0694479867852569 1.5450869245503656 255 255 255
-0.0878512094782328 0.2084840672179631 1.8463424323834798 255 255 255
-0.1214391368331603 0.0705890232669467 1.5212116208581359 255 255 255
-0.0946672660906008 0.1605852191681244 1.7385554201592890 255 255 255
-0.4385728807464734 0.0165036360531792 1.2301201815685390 255 255 255
-0.0477786121941918 0.2210509069105882 1.9201068933322278 255 255 255
-0.1069915981172760 0.1427294298854390 1.7256308868261911 255 255 255
-0.0931217781503450 0.2037093976762799 1.8695678183413751 255 255 255
-0.1314870792183066 0.0618159969349852 1.5433222705405785 255 255 255
-0.1757278694595332 0.0073267275563263 1.4467101527263138 255 255 255
-0.1010621056523576 0.1852648734156550 1.8627727633746598 255 255 255
-0.1561363680430838 0.0356418455846858 1.5470062392069477 255 255 255
-0.1919025751787537 -0.0070262571842977 1.5290728313528039 255 255 255
-0.4200996850051695 -0.0173427295399370 1.3817669824415095 255 255 255
-0.5929991772005573 0.0034841017839928 1.3116642820824833 255 255 255
-0.4452914719827263 -0.0061978937977057 1.3673753396966617 255 255 255
-0.1801826636769219 -0.0086667771846143 1.5699491059554098 255 255 255
-0.1971087737037881 -0.0096718016568369 1.5625546814076192 255 255 255
-0.1069595844425885 0.0484329219609722 1.7332777955437804 255 255 255
-0.5881884043167155 0.0488609364880175 1.4040530285059836 255 255 255
-0.1804539631498713 -0.1405421228667426 1.3877769887072291 255 255 255
0.3112998432504359 -0.0163493136801267 1.9280987831838396 255 255 255
-0.6217780448252084 0.0305875894558243 1.4050428427409085 255 255 255
-0.2657590578817243 -0.0897471051724371 1.5053583253104383 255 255 255
-0.3764667163582480 -0.1052178797789717 1.4346936285398775 255 255 255
-0.2386443021829668 -0.0628466563976549 1.6033498683991754 255 255 255
-0.5269458378537130 -0.0821774360013850 1.3819385699039717 255 255 255
-0.4429411347476110 -0.1241082126997657 1.4089573505455764 255 255 255
-0.0922869317953983 -0.1079009418906810 1.7294228736171240 255 255 255
-0.1977190461102747 -0.2006336944914738 1.6176749201688161 255 255 255
-0.1945018813519086 -0.2371427811409845 1.6323297531602969 255 255 255
0.3684794570624500 0.2643852445385060 1.7931550439682868 255 255 255
0.0822270207380849 0.1086755470471559 1.2032192012163059 255 255 255
0.0545483042272562 0.0749701527190371 1.2200332358446753 255 255 255
0.1116799171372024 0.0734973739524057 1.3410655061408627 255 255 255
-0.0324741335254370 0.2723828550917231 1.7953910400726707 255 255 255
-0.0111168406876784 0.2323176402311052 1.7109484891281512 255 255 255
-0.0642899488683697 0.2567472082625776 1.8623954182824272 255 255 255
-0.0616908111676587 0.0597704635404273 1.5011843019118287 255 255 255
-0.1037152087299085 0.0707310617936436 1.5706620457951237 255 255 255
-0.4788630846721916 0.0080559801297905 1.2198198538603477 255 255 255
-0.1440633795407672 0.0492191506825395 1.5148731862985971 255 255 255
-0.2609869535306852 -0.0450026427905863 1.3900055497452954 255 255 255
-0.4252166894688383 -0.0872745975254161 1.4033926517217536 255 255 255
-0.1641094955503031 -0.1035707180959713 1.6368194834286003 255 255 255
0.1843508722044374 0.2558369510110488 1.3230267387494621 255 255 255
0.1100297890071019 0.1675827813993121 1.3511662735432322 255 255 255
-0.0467031036850942 0.2741979116180745 1.8472708071501458 255 255 255
-0.1219340552104197 0.2716927417442192 1.8370788224829186 255 255 255
-0.0667704546823302 0.0634350043624400 1.5963920531384230 255 255 255
-0.1524751349087634 0.0326846726856575 1.5446285132553921 255 255 255
-0.1354090464935201 0.0304238177959383 1.5901387826351177 255 255 255
-0.2009863904489981 -0.0677357687436742 1.3864038207913569 255 255 255
-0.1175985250411413 0.0649813061534887 1.7303777647594223 255 255 255
-0.2005015044459950 -0.0219576506878910 1.5760229887343671 255 255 255
-0.1325305446892754 0.0471331490720797 1.7582682092085953 255 255 255
0.0749169775824801 0.1146232316805582 1.2092423391997000 255 255 255
-0.0322786896970143 0.0430918342074729 1.5455313227882630 255 255 255
-0.1338564151007647 0.1858292266823733 1.8875228646098181 255 255 255
-0.0817704775413275 -0.0034173894063080 1.5330013925980532 255 255 255
-0.1966434723819786 -0.0680436974580444 1.4433792770095393 255 255 255
0.1119318676275637 0.3255086378351087 1.3725110242794853 255 255 255
1.6988408613100976 -0.9291815363559660 -1.0142996561329680 255 255 255
0.5129198095084326 -0.2546605289785983 0.2092905794081513 255 255 255
1.5594668648658829 -1.0535427774968820 -1.0773046073919297 255 255 255
0.0044455753621487 0.3590558651230428 1.6703131653503536 255 255 255
1.3974951498794681 -1.4283044087765262 -1.4222935430132126 255 255 255
1.3563406354102543 -1.4410410986891335 -1.4171124240839337 255 255 255
-0.0098570966787842 0.3427319145695009 1.7209626885806801 255 255 255
0.4476886108609815 0.2881402002387184 1.8431712916876133 255 255 255
0.0449950459077208 0.0441152245827350 1.1774739496238877 255 255 255
-0.0188517574813158 0.3162207619791262 1.7138093407607782 255 255 255
0.0315636942824836 0.0784114794800179 1.2933244868214393 255 255 255
0.4270282972643029 0.2665559823518494 1.8708276255993248 255 255 255
-0.0274687547261403 0.3102944128929848 1.7299137563556088 255 255 255
1.4348970492030821 -1.7652150152998463 -1.5117252256646172 255 255 255
0.0305660378910225 0.0474388058402534 1.3155577176354178 255 255 255
0.0618692573561168 0.0482760639465944 1.3302523502758776 255 255 255
-0.5117344628053422 0.0939965440587292 1.1478494107296540 255 255 255
-0.0343372593332614 0.1112852299374959 1.4624614146005763 255 255 255
0.0225628648154446 0.1429740938127809 1.5880673162135570 255 255 255
-0.1569953243429490 0.0370249256658346 1.3584090922154934 255 255 255
-0.0328096141509115 0.1037231000617888 1.5572319560227847 255 255 255
-0.1435914290644597 0.0616455885716612 1.4443807722837696 255 255 255
-0.1708736056251040 0.0491264441158389 1.4185672543835730 255 255 255
-0.1376240772007354 0.0778875439038853 1.4882211718090197 255 255 255
0.1497260825049858 0.1476339248574284 1.8021459165495977 255 255 255
-0.1744391627061468 0.0488154894876865 1.4529669336753714 255 255 255
-0.1960390158202034 0.0054140846038737 1.3872510103144697 255 255 255
-0.1671974621625317 0.0531669093576587 1.4924419486002563 255 255 255
-0.0752561586673405 0.1684051247837335 1.7425912610828969 255 255 255
-0.0998175309583331 0.0607965172406831 1.5818181317900972 255 255 255
-0.1772902275798654 0.0178078730148061 1.4781846379139052 255 255 255
-0.0943214665216810 0.0482145213538460 1.5985824204156671 255 255 255
-0.0828752083296418 0.2245317347806131 1.8749790857885258 255 255 255
-0.1077775832484586 0.0397955312058298 1.5970264610576796 255 255 255
-0.0691688528897170 0.1427802615944310 1.7828374730549592 255 255 255
-0.4336991043042898 0.0237964027695478 1.3922284656764288 255 255 255
-0.2179762545871656 -0.0152470872915799 1.4758180078946959 255 255 255
-0.2067336003053823 -0.2336531800212963 1.2440168122940227 255 255 255
-0.2119733010635443 0.0006915295456906 1.5327875581109534 255 255 255
-0.5011112960995274 -0.0019312656946043 1.3853738545098921 255 255 255
-0.6556603643188514 0.0430197771215424 1.3834127941461103 255 255 255
-0.6471389093640763 0.0461402602434474 1.4062963916380871 255 255 255
-0.6390579191676484 0.0509376836793785 1.4208237700498350 255 255 255
-0.1113429258133460 -0.0280511516992610 1.7821081001611709 255 255 255
0.3800924755843378 -0.1347967231474524 2.0472112100570174 255 255 255
0.3835185734667053 -0.1357747324449437 2.0792015930516117 255 255 255
0.0448366869210566 0.3911049686040359 1.6542284608323263 255 255 255
0.0011273207439844 0.3698943992948033 1.6671374334831104 255 255 255
1.2651558341577427 -1.3438799478987016 -1.2654697560486179 255 255 255
-0.1149586783928201 0.4171510074008639 1.8091478397524978 255 255 255
0.0120274150764903 0.3335916660091407 1.7622712525580795 255 255 255
-0.0035494730006194 0.1014060217936085 1.5635232318679397 255 255 255
-0.1037263056434793 0.0948755373006585 1.5067181986128479 255 255 255
-0.1428121602530181 0.0705831791404249 1.4741186144527090 255 255 255
-0.0455218599031908 0.0936510324126241 1.5683268302394786 255 255 255
-0.1709758904242776 0.0444157076659345 1.4462957979824478 255 255 255
-0.1499094230150495 0.0430963090795131 1.5027243910604371 255 255 255
-0.5918128539831088 0.0910263946759916 1.3532047396200744 255 255 255
-0.4435154955241202 0.0317444591590302 1.3724582351245114 255 255 255
-0.1934661319081228 0.0320539067161754 1.5341648262772833 255 255 255
-0.1171529503917065 -0.0718542699347291 1.6938989813075440 255 255 255
1.4272906631950497 -1.3588657667936122 -1.2939355757940489 255 255 255
-0.0082247968315697 0.3309449323487298 1.6705306254016359 255 255 255
1.2587586159134587 -1.3966475745514007 -1.3618365195255633 255 255 255
0.0615908432412268 0.1522727445839532 1.5763078282287033 255 255 255
0.0620529170215552 0.1503392866043240 1.5930396225452050 255 255 255
-0.0245731715230798 0.2975810065054649 1.8362465471846432 255 255 255
-0.0624702472888605 0.0909256901772218 1.5628080066759962 255 255 255
-0.0313105182161377 0.0707092909861668 1.5852850611893436 255 255 255
-0.1907619723032041 0.0193011278870581 1.4400158835313546 255 255 255
-0.2116254535181534 -0.0146196084521534 1.5206072978148220 255 255 255
0.1305897723939536 0.1710472728121915 1.3422585279193509 255 255 255
0.0806319050861734 0.1273842127963919 1.2479416506253498 255 255 255
0.0124873006505875 0.3416066840918120 1.7085538506804903 255 255 255
0.0310971197372007 0.0888574203299230 1.2257584986149646 255 255 255
-0.0217667248915725 0.3259867785619653 1.7498138444875946 255 255 255
0.0102787902200739 0.0405698836657487 1.2142391986477084 255 255 255
0.0510431923996859 0.0535439378795465 1.2817260641124939 255 255 255
-0.0194139140968152 0.3192264195541702 1.8149407312705756 255 255 255
-0.0229133089087907 0.0724344074479235 1.4107377863637638 255 255 255
-0.1173514314346758 0.0805552553050925 1.4501543077430981 255 255 255
-0.1357628924694363 0.0698507865968751 1.4569754495885918 255 255 255
-0.0344306723801611 0.2370359669082847 1.8744195157104468 255 255 255
-0.1545135673577953 0.0472249250936322 1.5149544181954357 255 255 255
-0.1490181681617338 0.0538095248468879 1.5360565222966964 255 255 255
-0.2045194569909153 0.0011719531368470 1.4365307289148546 255 255 255
-0.1543084893472941 -0.0440455180103455 1.6393723187578775 255 255 255
-0.1652908986832634 -0.0818855312747681 1.6570454787737967 255 255 255
-0.2175479404988217 -0.0901248028032707 1.6233923431987938 255 255 255
-0.2449322463727334 -0.1087609705873873 1.6242824445281936 255 255 255
-0.1458827731203397 -0.1543936688580512 1.7222729904860110 255 255 255
0.0014278698121767 0.0412598410282654 1.2084318896312385 255 255 255
0.3173382910480108 0.2221591379552201 1.7519027603543573 255 255 255
-0.1512094027936905 0.0580345574282831 1.5251571705384361 255 255 255
-0.2092608806649293 0.0192879225422509 1.5404035177384696 255 255 255
-0.1773141235135575 0.0282782639897829 1.5228910297441132 255 255 255
-0.1298877473788266 0.0276555359179259 1.6638876269554166 255 255 255
0.1066516812756495 0.4424861881834605 1.5172355121033454 255 255 255
2.6323056882874134 -0.4259770269617326 0.6670502609697682 255 255 255
0.1300923383020761 0.3315740106785596 1.3830864669931611 255 255 255
0.0560865610715451 0.3704607127283299 1.5856395324096597 255 255 255
0.1010706169729474 0.3725778875538327 1.6573608178868928 255 255 255
0.1135972232400685 0.1926929018648560 1.3603129237669522 255 255 255
0.1113683730165670 0.1945004765859071 1.3870915107143178 255 255 255
0.0548274979720022 0.3764988827032137 1.6917403849845434 255 255 255
0.0128227260550871 0.3527765265872210 1.6532802915997546 255 255 255
0.0023094868457088 0.0599243201803410 1.1792084193223169 255 255 255
0.0421340096610347 0.0900824904932780 1.2503515030077945 255 255 255
0.0495626307617238 0.1178579155173976 1.3033172093248042 255 255 255
0.0011407814351648 0.3687933363576307 1.6981551788522711 255 255 255
0.0185935958812701 0.0388213952038551 1.1879319408818430 255 255 255
0.4100447490799065 0.2870801307824667 1.7397272052053463 255 255 255
0.0158821672754037 0.0583268544329815 1.2203346072684393 255 255 255
0.0360354680156443 0.0816101094080830 1.2654125456509107 255 255 255
0.1215325821315408 0.1284857295034833 1.3984719241796271 255 255 255
0.0697816559095932 0.0999019126278368 1.3352232549823888 255 255 255
-0.0227295876943552 0.0031696676420122 1.1619800078891445 255 255 255
0.0731673697616437 0.0599289019221261 1.2887905393488599 255 255 255
0.0277358576657625 0.2429960315935716 1.5738132928194979 255 255 255
-0.0061390447577732 0.2968459833146646 1.6463617737767875 255 255 255
0.3757385733303286 0.2288685490450467 1.7115022109278515 255 255 255
1.5715371949572807 -2.5349248927832506 -1.8909453588268621 255 255 255
0.0814945024132762 0.1541172560373296 1.4971085369753083 255 255 255
1.4056400604218979 -2.6117201648348303 -2.0133153938082162 255 255 255
1.3644593787665762 -2.6240629709789411 -2.0455318303675112 255 255 255
-0.0566172975525881 0.1255259981759719 1.4033775282876808 255 255 255
0.3961959677024613 0.2532665951199255 1.8039757751516745 255 255 255
-0.0563766200961997 0.1138071867185838 1.4101741704774955 255 255 255
-0.0255046547116451 0.3445528232001257 1.7614817414185477 255 255 255
-0.0472419915299642 0.1158332397438553 1.4442136218288062 255 255 255
-0.1263830076760450 0.0710157993338356 1.3551860791149946 255 255 255
0.0697811881511168 0.1261459314269058 1.5284787298230622 255 255 255
0.0299364486570117 0.1178080273787084 1.5071452763947863 255 255 255
0.0573467999448649 0.1204785313782942 1.5314583529936716 255 255 255
-0.0425549556066981 0.1136972088135512 1.4732047844028717 255 255 255
-0.0325314231478734 0.3114436226502069 1.7489515790833223 255 255 255
-0.0134950023158526 0.1102394525696270 1.4850948252088403 255 255 255
0.0678122280192797 -2.8430201824989920 -2.5123747029291752 255 255 255
-0.0020635830979662 0.1065721340724779 1.5093294281164547 255 255 255
-0.1594304257022292 0.0546228820395959 1.3714585203669458 255 255 255
-0.0412751393768625 0.2802533596610816 1.7337778711533767 255 255 255
-0.0849495451476907 0.0885693204879036 1.4662562775016110 255 255 255
-0.0587273464334656 0.0883384199303703 1.4912578755379395 255 255 255
-0.4346920556185300 0.0499696789573639 1.2892014600102806 255 255 255
0.0424837639224692 0.0836491847861904 1.5678144914954262 255 255 255
-0.0511943614925173 0.2969305784863481 1.8006176405615300 255 255 255
-0.0122059225137148 0.1024930766572037 1.5866230823320133 255 255 255
-0.2061386262703307 -0.0114180165607099 1.3609872215490568 255 255 255
-0.1106065491337983 0.0834717315607188 1.5244659843089843 255 255 255
-0.1976637103128547 -0.0026018958911427 1.3906200308148498 255 255 255
-0.1302607428944105 0.0622905136662115 1.5128165385817316 255 255 255
-0.5731570721505113 0.0959159170094938 1.3411420902273681 255 255 255
-0.1959562949315654 0.0119426835422295 1.4192485318645105 255 255 255
0.3377400472840856 0.1773182905113522 1.8852177152824068 255 255 255
-0.2200573986077489 -0.0272423962766631 1.3685688489875425 255 255 255
-0.0940637215497368 0.0749486737465301 1.5592479208766641 255 255 255
-0.0505378498029154 0.0716223084997632 1.5817987549419992 255 255 255
-0.2350563873251975 -0.0292963063935325 1.3721375233012887 255 255 255
-0.0589492381248883 0.1830796854772372 1.7163256501707103 255 255 255
-0.4434092230897977 0.0477791615640956 1.3743185202548578 255 255 255
-0.2537234096779893 -0.0188314134210573 1.3876720798904441 255 255 255
-0.0772398179807801 0.0728263901033705 1.5824897398984241 255 255 255
-0.5566792630920686 0.0723780309374772 1.3502005953456209 255 255 255
-0.0301409540827195 0.2841505014030415 1.8662522162460433 255 255 255
-0.0652801726354595 0.2607958727332640 1.8405715935790357 255 255 255
-0.0642649270246466 0.2729385256281251 1.8465032213715480 255 255 255
-0.3745932587924017 0.0280189045952002 1.4221809890458113 255 255 255
-0.3681699132339967 0.0427770090388527 1.4384296470897702 255 255 255
-0.1860550733900609 0.0266172873582667 1.5159653757897300 255 255 255
-0.0731002017513839 0.2736499854233714 1.8616312132484529 255 255 255
-0.2674808267964524 -0.0402613148622885 1.4023846217213658 255 255 255
-0.0620665600891087 0.2716829010181803 1.8641125155879663 255 255 255
-0.1214547111886148 0.1679444210095586 1.7198811267249507 255 255 255
0.2530511048712752 0.1398608582925235 1.8806709575214999 255 255 255
-0.3983267877236841 0.0280730739612392 1.4221560552306343 255 255 255
-0.0639936362613190 0.1662411803330167 1.7513299673176228 255 255 255
-0.0531190171243520 0.2697736364532484 1.8839546993171010 255 255 255
-0.0765662611941607 0.1521487200519676 1.7483066550139910 255 255 255
-0.1938980827999742 0.0108549736755537 1.5275163529050853 255 255 255
-0.3470754612504691 0.0047212049864201 1.4431842405342818 255 255 255
-0.1412807464603615 0.1235125163541036 1.6918665170596092 255 255 255
-0.0778744855420571 0.2670409271252718 1.8893346779475264 255 255 255
-0.6233507624337817 0.0813809075846676 1.3981995223291577 255 255 255
-0.2437558820716602 -0.0388088743049165 1.4670911798408355 255 255 255
-0.0769071165600243 0.2424793513574823 1.8668686887376706 255 255 255
-0.1177593262574182 0.1427950402578158 1.7515527712259025 255 255 255
-0.2167173937360952 -0.0093883008852798 1.5482355341613678 255 255 255
-0.0809844114126291 0.2353511635256915 1.8789066264387633 255 255 255
-0.2159689356552597 -0.0141925609526308 1.5613218562584457 255 255 255
-0.2418193504956921 -0.0331000898254252 1.5314025100077446 255 255 255
-0.5412638634544417 -0.0187250871100061 1.3925415172019608 255 255 255
-0.2130239550826250 -0.0099246885562932 1.5710685202307435 255 255 255
-0.4778106407550632 -0.0342552608516439 1.4136386116428141 255 255 255
-0.2299286181287154 -0.0275292193819647 1.5580785218823101 255 255 255
-0.2152247947744670 -0.0181807160424773 1.6056266856289161 255 255 255
-0.2631382324637755 -0.0773283873019594 1.5457131118112526 255 255 255
-0.1000079610905670 0.0611835881475541 1.8434238980301749 255 255 255
-0.1066268686021333 -0.0559973142275295 1.7446202601027747 255 255 255
-0.0973265968946560 -0.1133361113289256 1.7154339148310906 255 255 255
-0.2416691965268671 -0.1632845419361801 1.6332610512576990 255 255 255
-0.1406654178734253 -0.1314667714459185 1.7210633258813917 255 255 255
-0.1209347350687895 -0.1203891683752814 1.7605221797925568 255 255 255
0.0100589724340735 0.3822616616555555 1.6735331775112503 255 255 255
0.3861566447895116 0.3042721303558520 1.7353268882515878 255 255 255
-0.0062779014136202 0.0503650545506132 1.1968367456545326 255 255 255
0.1162462493675506 0.0817796845063226 1.3530178035582991 255 255 255
0.1056139896146465 0.1377614870521053 1.4228277198036936 255 255 255
0.0217830856667104 0.1248863149470869 1.4662429672599495 255 255 255
-0.0212572882472473 0.2994234010238068 1.7056274789162027 255 255 255
0.3480756295572222 0.2562027007615766 1.8135182000614465 255 255 255
-0.0212746622945760 0.1219687822556679 1.4669818369886978 255 255 255
0.3012226480885998 0.2199229732413875 1.7560050640047837 255 255 255
0.0762455766106571 0.2988750061184246 1.7766066101070381 255 255 255
0.0653266791920878 0.1025362384283934 1.5076784662810352 255 255 255
-0.0876906574863008 0.1045288164683211 1.4600407677796927 255 255 255
0.3398560142563311 0.2366874948777123 1.8479910187184665 255 255 255
-0.0376542085081497 0.3076425352759490 1.7868547754188879 255 255 255
-0.0151087975876506 0.2399637294283471 1.7094029567028470 255 255 255
-0.1195989231578947 0.0535892421745730 1.4369109840137326 255 255 255
-0.0474529743684645 0.3107064962564304 1.8113209742777288 255 255 255
-0.0111491169512166 0.1736768576590426 1.6650595506019474 255 255 255
-0.1927323248202797 0.0111860491951756 1.3872363042056450 255 255 255
-0.5238949820634803 0.0624214544502472 1.3277402554899722 255 255 255
-0.0707282373971639 0.0709242949237484 1.5633700901507703 255 255 255
-0.0516375555701123 0.2832559921773867 1.8531419957008162 255 255 255
-0.3710737688030993 0.0392809040348825 1.4042654824759910 255 255 255
-0.3147700649136290 -0.0199492017803727 1.3691294559824014 255 255 255
-0.1510975240382317 0.0561259821643825 1.5377834757855484 255 255 255
-0.4034833440529207 0.0512594267200596 1.4068538095807386 255 255 255
-0.5269161261182722 0.0438830213905535 1.3439567114017781 255 255 255
-0.2227916442252362 -0.0201161389706061 1.4209292715094288 255 255 255
-0.0845129595990431 0.1779457128155249 1.7265310851905524 255 255 255
-0.2877664274447758 -0.0436149343537303 1.3845982329681745 255 255 255
-0.0597415098661825 0.1704249194584943 1.7481690840720738 255 255 255
-0.0928021407103057 0.1613601426623806 1.7366232233230159 255 255 255
-0.0815819792049516 0.2177931959746602 1.8035037385700774 255 255 255
-0.0787424135702943 0.2414512876399807 1.8384359932311556 255 255 255
-0.5969390218216086 0.0746972391530874 1.3912097617675838 255 255 255
-0.1633968682726301 0.0284338565366285 1.5654300786638635 255 255 255
-0.1730064125997967 0.0136185045888562 1.5683055165830804 255 255 255
-0.5418531399181868 -0.0110129382864922 1.3750178541956215 255 255 255
-0.2192003625590407 -0.0508481975334064 1.5507786899456995 255 255 255
-0.1262864633554086 -0.1191240472716626 1.6806317881849531 255 255 255
-0.1384152515287299 -0.1505140485695609 1.6705523684814283 255 255 255
0.1151944779006713 0.3237091083731266 1.6583784972113054 255 255 255
-0.0127901187316984 0.3672429202323358 1.6783954858731625 255 255 255
0.3898408109384615 0.2195959828182489 1.7083804235714291 255 255 255
-0.0209653701594592 0.3211525634099693 1.7269659796076808 255 255 255
-0.1067045075548561 0.0767794775992287 1.3437040421259725 255 255 255
-0.0265828196969089 0.3007184226212419 1.7490644221474920 255 255 255
0.0771582302257752 0.0907884127839708 1.5217615254130901 255 255 255
-0.0245541822020365 0.1005131466790612 1.4789009780544735 255 255 255
0.0020047849832747 0.1934616617580639 1.6374829838540124 255 255 255
-0.1407986536844376 0.0632757247060177 1.3974653860367281 255 255 255
-0.0940518930958477 0.0952587930351510 1.4781348902051226 255 255 255
-0.0523981327746334 0.2891279712975208 1.7956673232317126 255 255 255
-0.0967032803707821 0.0877500206549000 1.5440985100522426 255 255 255
0.3288377456700608 0.1376343766625117 1.8306292897670133 255 255 255
-0.0541939666415531 0.2615296699274735 1.8096294658148626 255 255 255
-0.4142184134549511 0.0526853898115569 1.3877539560079910 255 255 255
-0.4233123256194334 0.0348226153508137 1.3879615147645823 255 255 255
-0.0685505406040035 0.2678353162935872 1.8585599418722789 255 255 255
-0.5378011161932161 0.0311394095091288 1.3526810031522947 255 255 255
-0.1392248850090153 0.0601335618680268 1.5911373307447694 255 255 255
-0.3900500943488544 0.0185898323790598 1.4297984452681356 255 255 255
-0.0577516015362998 0.2356735872626141 1.8622605136955366 255 255 255
-0.1083998843261878 0.0490301657705359 1.6143982228547398 255 255 255
-0.1320153435877003 -0.1648920113174388 1.4744893996454003 255 255 255
-0.1251574282436317 0.0095135718210451 1.6209620533660980 255 255 255
-0.1401038537624025 0.1100177689585007 1.7290440213651499 255 255 255
-0.1413108840917287 0.0039461291920826 1.6306798449306772 255 255 255
-0.1067054311866910 0.0581176496691658 1.7874996286571316 255 255 255
-0.2031900786492311 -0.1586938116179746 1.6492450978220459 255 255 255
0.1694492768245836 0.4400602273081178 1.4467473989600166 255 255 255
0.0542767715566249 0.3904537946553344 1.6466852071063383 255 255 255
-0.0021226855689233 0.0453700959394701 1.1962481749748808 255 255 255
0.0609306927926034 0.0853515173413964 1.2992904947585100 255 255 255
-0.0294738029564335 0.3354614911340085 1.7295881860115574 255 255 255
0.0894225014483036 0.1368862043832240 1.5097821598281878 255 255 255
0.3594886363331496 0.2363127134916603 1.7663737031115896 255 255 255
0.0325003019101724 0.1261694737552869 1.5322544661805599 255 255 255
-0.0862204401705444 0.0869029093952943 1.4290413915901687 255 255 255
-0.0853897448854268 0.1089225599461109 1.4610612759979704 255 255 255
0.3339360050222578 0.2061522414915249 1.8435251428631818 255 255 255
-0.0013436881874816 0.1021862882215366 1.5639033827990554 255 255 255
-0.0429274024730869 0.2762347044379838 1.7711878819385485 255 255 255
-0.0706863970462931 0.0790544193125144 1.5070900570270529 255 255 255
-0.0331630893797185 0.0840334501532718 1.5612765754735329 255 255 255
-0.0225019358154345 0.1566976166269062 1.6986883243874764 255 255 255
-0.0625505596625039 0.2510200778178987 1.7674962306319819 255 255 255
-0.0283460789730730 0.0717382087732181 1.5839706232168480 255 255 255
-0.0592439887513922 0.2455038956950243 1.7963804581159768 255 255 255
-0.1501464153698038 0.0591682176923224 1.5320845171803943 255 255 255
-0.0634156835602935 0.2686457583675181 1.8285168501449256 255 255 255
-0.2258039925265447 -0.0117921544909408 1.4205779673839378 255 255 255
-0.4522092444269449 0.0564543200672675 1.3973394728869422 255 255 255
-0.4216363089664332 0.0350001912349607 1.3884266039520532 255 255 255
-0.4689519138948374 0.0363962191678469 1.3769550809154889 255 255 255
-0.2252503523176557 -0.0218567504343231 1.4470407338462545 255 255 255
-0.4115552359354943 0.0291874034826660 1.4304592128567934 255 255 255
-0.2030938373353228 -0.0064970386791100 1.5023856082265392 255 255 255
-0.1194149426744388 0.0392866913716684 1.6286396158688292 255 255 255
-0.5390235225294946 -0.0223547761433657 1.3649303077236381 255 255 255
-0.0835815669947253 0.1197079783621406 1.7770283899204218 255 255 255
-0.1019339557247886 0.1057753063254734 1.7776014035088006 255 255 255
-0.1473021458274547 -0.1008494633241074 1.6703439149925823 255 255 255
0.0389252409427951 0.2790328691709815 1.7167103046694965 255 255 255
0.3024127081600385 0.2272635559493671 1.7501794810776976 255 255 255
-0.0668087881645574 0.1090674638669133 1.4768107598689981 255 255 255
-0.0403117471220636 0.2922198145402048 1.7495191547790474 255 255 255
-0.0239813578697558 0.2654751352662215 1.7567798080912318 255 255 255
-0.1642152721511164 0.0571681675691319 1.4869840560412368 255 255 255
-0.0624171838539283 0.1682601588061880 1.7418888933979850 255 255 255
-0.0158796223353201 0.2998693506501428 1.7022459999226494 255 255 255
-0.1034112605510953 0.0691952613900231 1.4962972934919625 255 255 255
0.0029621978106024 0.1272878607267634 1.5414483757637216 255 255 255
-0.0406223253074241 0.2841234661502384 1.7572813232733708 255 255 255
0.6896507493208003 0.2762199030330349 1.2790384466606171 255 255 255
0.0825471731870870 0.4775573045699593 1.5403888193553037 255 255 255
0.0807016228549511 0.1588136924561565 1.3206001804104293 255 255 255
0.0436308355460173 0.3538153408667215 1.5906053804955795 255 255 255
0.0188164452627724 0.3090294570905143 1.5662011400894604 255 255 255
0.0059475841085095 0.3763138881694275 1.6439313513732638 255 255 255
0.0040927871464461 0.3900299345196713 1.6665130624129889 255 255 255
0.0840043593574711 0.3752200452304819 1.6809359188207922 255 255 255
0.0021171942620067 0.3637859430209188 1.6498000364517122 255 255 255
0.0028690304550601 0.3424913495985315 1.6226406389500603 255 255 255
0.4620894349977148 0.3080942008127451 1.7614448944023455 255 255 255
-0.1484423156970497 0.0383733796119234 1.2751342011171969 255 255 255
0.0459337978278127 0.1199596601092258 1.4267438360714464 255 255 255
-0.0632590172395524 0.1152110041950515 1.3944436230830499 255 255 255
-0.1545009992523650 0.0810414212996186 1.3292065157815043 255 255 255
-0.0778239017330604 0.1197259956148684 1.4045555385543820 255 255 255
-0.1591981194557404 0.0391850005389744 1.2944421782333893 255 255 255
0.4053828141066166 0.3039872446115211 1.7787755001737504 255 255 255
-0.0673854904765855 0.1150580808254945 1.4181779874638252 255 255 255
-0.0538868468487727 0.1196202041344333 1.4291986749685723 255 255 255
-0.5428685759562379 0.1212022541813009 1.2839995925709415 255 255 255
-0.0704019730342473 0.1224266381779198 1.4404157239067421 255 255 255
-0.1768706611572215 0.0389840136752202 1.3172956036748478 255 255 255
-0.1118858362172868 0.1138480579260644 1.4185578300876365 255 255 255
-0.0208060421368014 0.3382779013658544 1.6873490510082487 255 255 255
0.4238238137690445 0.2722767428333789 1.7879668087764518 255 255 255
-0.1738121082515084 0.0482790475648655 1.3489918966528633 255 255 255
-0.0064788810292499 0.3551333500550174 1.7411919036966861 255 255 255
0.4134984036753233 0.2947593233492189 1.8178505714628879 255 255 255
-0.1072722843501577 0.0961205215787931 1.4385398523596693 255 255 255
-0.0183726111293042 0.3331695590077303 1.7128349219787562 255 255 255
-0.5686502059129978 0.1187199415444312 1.3073853588827735 255 255 255
-0.4610721018115495 0.0797885762520997 1.2976274961951653 255 255 255
0.3991970187530628 0.2885705358128084 1.8253528998688859 255 255 255
-0.0175882989074349 0.2740190074547321 1.6697769183247682 255 255 255
0.2748660520531152 0.2399784446446825 1.7386880026190259 255 255 255
0.0156255739289698 0.1209159338741053 1.5327414075884016 255 255 255
0.3055673146967418 0.2334993236963749 1.7469258304794477 255 255 255
-0.1981464278995191 0.0094902049017880 1.3477896371571381 255 255 255
-0.0489933680559888 0.1038085062144813 1.4980417145575129 255 255 255
-0.5513736814366488 0.1035501167755894 1.3267644890013692 255 255 255
-0.4838205740864926 0.0658103100667821 1.3124021265288950 255 255 255
-0.3886263578601707 0.0607027916980423 1.3466398278446436 255 255 255
-0.1008541435950792 0.1065657380931700 1.4871271430442694 255 255 255
-0.0216042785017530 0.1226016368386687 1.5341797990677433 255 255 255
-0.0133857124790486 0.2482807393355201 1.6681458640724565 255 255 255
-0.1670016896743896 0.0658553239359420 1.4288197601934147 255 255 255
-0.0387142031577573 0.1140412905635692 1.5290013198281527 255 255 255
-0.4057407592924954 0.0635153465042316 1.3601181628146348 255 255 255
-0.1767523115483798 0.0674663028626146 1.4364146123291401 255 255 255
-0.0343314619680279 0.1095008581961542 1.5406113642167234 255 255 255
-0.2025015058602879 -0.0031132013109011 1.3760601122610883 255 255 255
-0.3694342950183897 0.0669574893508245 1.3868654569981511 255 255 255
0.3464492634389953 0.2669116947355549 1.8402527110355182 255 255 255
-0.4902068883799626 0.0658286942230067 1.3441848677257087 255 255 255
-0.4308384715498490 0.0709779875434153 1.3745747934956101 255 255 255
-0.0775953378837039 0.0884280444190570 1.5196812605488861 255 255 255
-0.4098014918059931 0.0729970876402499 1.3894750823620758 255 255 255
-0.1109844757026934 0.0937746851934699 1.5154649353450496 255 255 255
-0.5772881252175968 0.1016478631124528 1.3600731398334185 255 255 255
-0.0895609720202137 0.0872880347776290 1.5285574562540190 255 255 255
-0.1902676219694927 0.0457261360356316 1.4549490128109728 255 255 255
-0.1620450148022651 0.0677929248684292 1.4841388084272915 255 255 255
-0.0427047680728773 0.3311635091068542 1.7881085410642850 255 255 255
-0.1107600555825887 0.0808375645075760 1.5487828427879251 255 255 255
-0.0449235227022781 0.3234546556580751 1.8010412647854899 255 255 255
-0.0100883307922181 0.3082228992937312 1.8017685360686169 255 255 255
-0.4607140357489463 0.0520546480357591 1.3944553438132310 255 255 255
0.0013017631222632 0.1335000369466518 1.6465601021538214 255 255 255
-0.3362058084995611 0.0298447745063037 1.4254448927434489 255 255 255
-0.0423072427741945 0.3062404889764031 1.7998069127132208 255 255 255
-0.2007997469419599 -0.0101190243298512 1.4680900688861744 255 255 255
-0.1264582688167437 0.0668512587664344 1.5649167936622708 255 255 255
-0.0455964202955630 0.0848363021410812 1.6168608577511476 255 255 255
-0.0926482634879792 0.0662836424313719 1.5865616995380856 255 255 255
-0.4982820778830668 0.0038614212689827 1.3850931963823063 255 255 255
-0.0930050056077469 0.0584629629220384 1.5947840588142463 255 255 255
-0.1497450254403007 -0.1223568198035863 1.3910223845694538 255 255 255
-0.2557288322739207 -0.0562637697344639 1.4475665672146114 255 255 255
-0.0590884592146281 0.2742424370263873 1.8167978464628010 255 255 255
-0.0271266446854830 0.1766939923134414 1.7586987508957066 255 255 255
-0.1337106371223042 0.0154586016152440 1.5983867106599796 255 255 255
-0.5126838356339940 -0.0459117224932439 1.4124917237003911 255 255 255
-0.0844734720472658 0.2256669518236263 1.8496543403404666 255 255 255
-0.0834670586725087 0.2279043918836425 1.8726095755327632 255 255 255
-0.1354335361146513 -0.1419550076114483 1.6929568079483805 255 255 255
7.3124103792721877 -22.7772290376749069 -9.6648034132300893 255 255 255
-0.1140522066549027 -0.1516139024344438 1.7304768222443132 255 255 255
-0.1660351880157309 -0.1522690827215329 1.7288469343812649 255 255 255
0.3549761861416539 0.0049117504468611 2.0790682483991687 255 255 255
4.7718690211217671 -21.8974466162537702 -6.5569659104551015 255 255 255
1.1482298678159633 -19.5890172720050053 -6.5064345786657061 255 255 255
0.2067296612155703 -18.3508954759298284 -6.2651654724863439 255 255 255
2.2677086457686007 -20.4154588449827514 -5.9162255592112007 255 255 255
-0.2834335158616026 -17.4869188351192690 -5.8061360565562268 255 255 255
2.6695536274952563 -20.8362342114324086 -5.7284143682769297 255 255 255
0.2110102415232014 0.4340330482832011 1.5343979408888901 255 255 255
0.0910362103816655 0.4065383750727673 1.6459924412150533 255 255 255
0.0532376346314884 0.3954885466027053 1.6497265718178757 255 255 255
-0.0083828739297193 0.3390516702366363 1.6228196996711490 255 255 255
0.0030703166781700 0.3526929515222489 1.7165015685853442 255 255 255
0.3715995702970789 0.2899395835352030 1.7504643851072383 255 255 255
0.0143387688399701 0.3470850381786877 1.7397550698782476 255 255 255
0.3930068107256640 0.2684889123138121 1.7849614344514606 255 255 255
-0.0190786514748721 0.3474809831195516 1.7463887711468484 255 255 255
0.3475369080595110 0.2684133954105788 1.7737658684810320 255 255 255
-0.4498332419006066 0.0574046454722778 1.3090031162583393 255 255 255
0.0097263286776237 0.1417264868204461 1.5638737219973442 255 255 255
-0.5089896490875413 0.0011831162755268 1.3071742015436316 255 255 255
0.0083047583951822 0.1487283189185786 1.5862708235832741 255 255 255
-0.0228564865857766 0.1097691235217916 1.5506697614892719 255 255 255
-0.1187397171846025 0.0835717548362383 1.4947088020809440 255 255 255
0.0505422981981421 0.1162188026063852 1.5820450022034287 255 255 255
-0.0478302618206758 0.1029793392768913 1.5461922543443438 255 255 255
0.3257246025950917 0.2078860846376241 1.7814089639656165 255 255 255
-0.0469441372151779 0.3090909419556992 1.7563304785895029 255 255 255
0.0458604988034557 0.3056005792779326 1.7923911140649162 255 255 255
-0.1259151873516536 0.0848365715498428 1.5221564503319780 255 255 255
-0.6089041307123211 0.1042639209933715 1.3711204144427118 255 255 255
-0.0233166672432671 0.0985988263905300 1.5850408689419222 255 255 255
-0.0482330531690269 0.2823518864416927 1.7747966307352843 255 255 255
-0.1595334158181795 0.0559875275335092 1.5195639599948512 255 255 255
-0.2265153818288565 -0.0089634499034403 1.4542317024511613 255 255 255
-0.1604935179943237 0.0425906932192827 1.5313234817791050 255 255 255
-0.6041132438949760 0.0402988598799053 1.3922142053769690 255 255 255
-0.0453356776361207 0.2847155177658268 1.8469142504324234 255 255 255
-0.1414753863752150 0.0776224903789219 1.6478762326594742 255 255 255
-0.1825670807285031 -0.0129494238555757 1.5707430824153046 255 255 255
3.7402127272186854 -20.2925464838351601 -6.0801844811634371 255 255 255
2.1693778508991635 -20.8838006222873958 -6.3480175234260887 255 255 255
2.7223169993385032 -23.0418831872221119 -6.8400116691577200 255 255 255
0.1071879824615325 0.3316954923406248 1.4995918573396112 255 255 255
-0.0358740406632451 0.4280695533753617 1.6235463125472784 255 255 255
0.0592599879152518 0.4085236414750271 1.6463242619551408 255 255 255
0.1007708294045107 0.1525922543691929 1.3537725305830191 255 255 255
0.0093577161514871 0.1114279970906882 1.4251050608372291 255 255 255
-0.0141411743238426 0.3535055208238539 1.6972406509583948 255 255 255
-0.1602834356469379 0.0586237230183384 1.3493703697838459 255 255 255
-0.1170902860704644 0.0930482411425083 1.4241600020624705 255 255 255
-0.5581024042728214 0.0959339243194337 1.2873279062932697 255 255 255
-0.1367736802453898 0.0785611702896857 1.4890536884204897 255 255 255
-0.5187613327986489 0.0525812849202129 1.3376858900504105 255 255 255
-0.0309594380425399 0.3229546687124374 1.7851759507780562 255 255 255
-0.2340274917562660 -0.0296044405697664 1.3791896051235093 255 255 255
-0.1304135010018834 0.0693521573176973 1.5334835592386098 255 255 255
-0.2047363411794170 0.0214699330976492 1.4868675765939547 255 255 255
-0.1540646179163515 0.0312998758164734 1.5979860901741825 255 255 255
-0.2268246066337213 -0.0089593901136812 1.5366488547113801 255 255 255
-0.2274303885333575 -0.0285264895183714 1.5811297984403245 255 255 255
-0.2450176277917220 -0.0495291219049369 1.5872153702024927 255 255 255
-0.1007456649721144 0.1027646975799095 1.8182931192201017 255 255 255
0.0893908929771114 0.3254731911746889 1.4980214544391086 255 255 255
0.1021871093720091 0.1702021871993979 1.3917052591235626 255 255 255
-0.0199243197291877 0.3573353108420530 1.6233795807989766 255 255 255
0.0490500371513480 0.0998753226620906 1.3431995058968456 255 255 255
0.0693422896335740 0.3589998767195083 1.7115658259016551 255 255 255
0.2947285340888063 0.2268467849133304 1.7575696281867932 255 255 255
-0.4347414262497578 0.0752996608672371 1.3482414564406426 255 255 255
0.3619407438694083 0.2383552147164154 1.8090558433634718 255 255 255
-0.2148282464557683 0.0140062159821893 1.3793612009393776 255 255 255
0.0500779313680987 0.1294467618060542 1.5857202044581451 255 255 255
0.0124385139217563 0.1374043073599001 1.5900023834237449 255 255 255
-0.0260162242839704 0.1096751427449278 1.5505246213160058 255 255 255
-0.1877248272810247 0.0053241436406212 1.4048233984408531 255 255 255
-0.4710677370914069 0.0618895528418434 1.3550649231438068 255 255 255
-0.4424183162120524 0.0663169560481750 1.3685135162434381 255 255 255
-0.1018957250066627 0.0788994123018914 1.5304872515734504 255 255 255
