ply
format ascii 1.0
element vertex 687
property double x
property double y
property double z
property uchar red
property uchar green
property uchar blue
end_header
-0.2727186075092531 -0.0565917418775817 1.2510998889361247 255 255 255
-0.2050533610433589 -0.0695408438868815 1.3477084587126600 255 255 255
0.3937485788851979 -0.0935519549491711 1.3782889227252124 255 255 255
-0.2572377744833489 -0.0590956096867249 1.2855820518739292 255 255 255
0.1528729296036456 -0.0778417721498520 1.2695477336046768 255 255 255
0.4907700838670843 -0.1237056638782088 1.6386705775399673 255 255 255
0.6754198097807208 -0.1133525389784145 1.4260169977179149 255 255 255
-0.4823581647455003 -0.0272173593713746 1.0659576295454849 255 255 255
0.4761133497301119 -0.0932160734325387 1.4124022122462407 255 255 255
0.6765225274335701 -0.0980397251042834 1.3753147486808506 255 255 255
0.6722225837418720 -0.0974070430044813 1.3907294138175970 255 255 255
-0.3028492740562018 -0.0374009881831107 1.1790880304374527 255 255 255
-0.1979130174697964 -0.0536795508929736 1.3111687577483921 255 255 255
-0.1961497137863851 -0.0423444471201103 1.3565575116969459 255 255 255
-0.0891332343336036 -0.0446472718342966 1.1347337718019610 255 255 255
0.1368850662257737 -0.0621722556453678 1.2537639752893568 255 255 255
0.2009111865287461 -0.0631788032842012 1.3075361415554385 255 255 255
0.4810746639180271 -0.0805676022603757 1.3962064262083274 255 255 255
-0.4579429302649111 -0.0212413728102220 1.0933201943755464 255 255 255
0.3172598922706927 -0.0675114719681455 1.3650049565455606 255 255 255
0.4642404421770324 -0.0790833234196913 1.4407425398655520 255 255 255
0.6098419194636763 -0.0826152215351124 1.4497970371317530 255 255 255
-0.3915312076924463 -0.0237023380433745 1.1801800931404112 255 255 255
-0.1520823955197084 -0.0441120788486321 1.2387295609721098 255 255 255
-0.5050522282907538 -0.0122238538427334 1.0481331308041413 255 255 255
0.6560091427088742 -0.0802651076055719 1.4422736574816108 255 255 255
-0.1047355503602250 -0.0323219470380375 1.1643359625537433 255 255 255
0.0912802511676272 -0.0408283857215574 1.1946607262541660 255 255 255
0.6214625310291307 -0.0737163355002924 1.4280250215259183 255 255 255
-0.5244279467384422 -0.0054358396704061 1.0558309794006013 255 255 255
0.4388259246351328 -0.0628165577555804 1.4034473887415462 255 255 255
0.1633849134198647 -0.0395288502067880 1.2689408894055558 255 255 255
0.4134942876579825 -0.0544232672642335 1.3965630461454979 255 255 255
-0.0275489860994417 -0.0204745335304987 1.1329275370818406 255 255 255
0.4495632331027196 -0.0473074280018912 1.3916808302126813 255 255 255
0.1535130765327270 -0.0292942706371344 1.2516853608826766 255 255 255
-0.3215880230387784 -0.0038796303414222 1.2598180393292722 255 255 255
0.5468285585498660 -0.0480990219194286 1.4358125136679987 255 255 255
0.5592228440378130 -0.0468482198136598 1.4249681943656571 255 255 255
0.6149015441461514 -0.0499603182216286 1.4384963324058651 255 255 255
-0.1385268048713351 -0.0095042669214941 1.2216112378539563 255 255 255
0.1448131232781004 -0.0194637526151072 1.2618254492239283 255 255 255
0.0426828063739023 -0.0096179362763502 1.1570520249259910 255 255 255
0.0880065289193251 -0.0119811292470775 1.1548566342656104 255 255 255
0.0999473060870812 -0.0135454129237795 1.1645245122902612 255 255 255
0.1872351582577890 -0.0191115976540794 1.2927834852190985 255 255 255
0.1451920609236778 -0.0180966590004855 1.2166761708026610 255 255 255
0.6069928374288408 -0.0388158921507800 1.4381565139474497 255 255 255
0.6236215865778777 -0.0364747156991056 1.4176170440406219 255 255 255
-0.0228761290393082 -0.0055485053994598 1.1403920286447367 255 255 255
0.4494615877628430 -0.0259874101578315 1.3885777750145800 255 255 255
0.6802310852885793 -0.0427024578558940 1.3841604402388958 255 255 255
-0.4755403565555272 0.0198213061984805 1.0761164636113465 255 255 255
0.6207532227374438 -0.0305948943107311 1.4392027067134050 255 255 255
-0.5105469743028687 0.0250783280761102 1.0729244675798439 255 255 255
0.1659660931246142 -0.0144225129041595 1.2763500369300917 255 255 255
0.1051569309476037 -0.0028154017430753 1.1622200891266947 255 255 255
0.0612204019417468 0.0030887587138701 1.1424635556493139 255 255 255
0.0927662576302012 0.0000365959500132 1.1577682238133633 255 255 255
0.1715470029990050 -0.0037990769433186 1.2684836205652936 255 255 255
-0.3098889159842678 0.0229243239970277 1.3174256640241473 255 255 255
0.2742360629686331 -0.0061874437220968 1.3422365857231253 255 255 255
0.6857523673837063 -0.0243194696677822 1.3564848205787594 255 255 255
0.6440369435079711 -0.0204228907504272 1.4481838917591512 255 255 255
0.0176949508013012 0.0122076033101588 1.1466573996236815 255 255 255
0.1488942009327976 0.0004759680678539 1.2323711955487815 255 255 255
0.6917765565545879 -0.0172015675062813 1.3447006630831981 255 255 255
0.2878198757605190 0.0041598658674358 1.3525450083272768 255 255 255
0.6155433397926284 -0.0110764704842172 1.4376413201688363 255 255 255
-0.5395071279986354 0.0454368198896337 1.0970964573434538 255 255 255
0.0447735442938164 0.0183042189727325 1.1473696903907220 255 255 255
0.3286781362452834 0.0048543351554160 1.3720068601135900 255 255 255
0.3714018171964416 0.0040669627408417 1.3882791942169959 255 255 255
0.4168894549181973 0.0017113087757903 1.4275175846883770 255 255 255
0.4809921009614262 0.0008463439477659 1.4097421808573671 255 255 255
0.6377229826258383 -0.0098348788848555 1.4559517421029329 255 255 255
-0.0917732456358581 0.0282296274549390 1.2248251847559415 255 255 255
0.0857962731979522 0.0180033107798515 1.1518332486238680 255 255 255
0.5415803607894831 0.0000212847621920 1.4554756747254962 255 255 255
0.6852370071874342 -0.0071434623720188 1.3702147064649621 255 255 255
0.1522236329013610 0.0205315685072109 1.2109846390498751 255 255 255
0.2722308517414780 0.0124306032954042 1.3395151426413003 255 255 255
0.5853192254780126 0.0045347966000073 1.4491310759843508 255 255 255
0.7609703357070922 -0.0107182558666694 1.8177257491204810 255 255 255
-0.4871537886442263 0.0485482670084916 1.1699647681507868 255 255 255
0.0535540741340891 0.0235778911456259 1.1572118141059853 255 255 255
0.3415300310273449 0.0157902184365016 1.3832039276206021 255 255 255
-0.4677648321638154 0.0515575555926840 1.0685862196958502 255 255 255
0.1391490746892908 0.0225127517427912 1.1822785611987769 255 255 255
0.6632216117778982 0.0001901045340685 1.4223937621343632 255 255 255
-0.5156255218842130 0.0484978633322663 1.0918190313776064 255 255 255
0.4049377630402272 0.0173965140316494 1.4282293209069985 255 255 255
0.0649039660002880 0.0312669105094032 1.1522575029465507 255 255 255
0.4742071015529711 0.0139360213614814 1.4035261903504932 255 255 255
0.6361830045323564 0.0059932973457095 1.4399153667022617 255 255 255
0.0769887232934095 0.0313380502141359 1.1514239859315447 255 255 255
0.6714185887253016 0.0147469531506980 1.4175690387393942 255 255 255
0.3961620505327990 0.0230836628295697 1.3687710208313173 255 255 255
0.6864383142073011 0.0103292590702825 1.3648572755480166 255 255 255
0.1459004135026842 0.0338873797091308 1.1785583116232217 255 255 255
0.2542340778270288 0.0307001842297628 1.3263596382118032 255 255 255
0.6597134120041102 0.0195606854817182 1.4330349132130384 255 255 255
0.0785896671779379 0.0414056644890234 1.1538455555346383 255 255 255
0.1353599900433614 0.0395019229606926 1.1764151075528630 255 255 255
-0.0994836569387178 0.0582181662756727 1.3409232267089717 255 255 255
0.1591482551014878 0.0410105384438282 1.1966397085439771 255 255 255
0.0393049033984809 0.0485839771646892 1.1651296817833097 255 255 255
0.3055700299407331 0.0468571841634938 1.3791456604947017 255 255 255
0.0647205409232024 0.0526462253103630 1.1637891622383281 255 255 255
0.3508595759619309 0.0513988840990591 1.3968176228628155 255 255 255
0.6224087937174059 0.0394380344115199 1.4571583562430512 255 255 255
0.2624323223952449 0.0569108005679397 1.3320455017705695 255 255 255
0.3386291303864529 0.0576454594370647 1.3969372625031133 255 255 255
0.4230105000620532 0.0512901894271641 1.4192363630351486 255 255 255
0.6134380667737904 0.0487301248192481 1.4652697526246981 255 255 255
0.6842345483987635 0.0400588537594587 1.3616621220323573 255 255 255
0.3736710129746650 0.0617800892715856 1.4311382352755355 255 255 255
0.3126654506192196 0.0635210098851254 1.3889352950484499 255 255 255
0.4478101575897649 0.0615109009604240 1.4199710001274990 255 255 255
-0.4963777522495087 0.0957340576020856 1.1984626509758411 255 255 255
-0.4842935759819649 0.0952362770159984 1.2046433050548579 255 255 255
0.3298157274150827 0.0662028301270287 1.4020950959230938 255 255 255
0.5024075729566143 0.0627410436864860 1.4375036084531243 255 255 255
0.5563854320507654 0.0594575622871062 1.4625205822984160 255 255 255
0.3413183443573809 0.0661722197416351 1.3848012488725989 255 255 255
0.1538434357135456 0.0656142395406768 1.1791542995967996 255 255 255
0.4242094509453254 0.0666588302234876 1.4413955831666521 255 255 255
0.3524022097130436 0.0735484898753576 1.3804787635137916 255 255 255
0.4029374831807508 0.0705578835150229 1.4403531623983896 255 255 255
0.6253292963943364 0.0686219705887820 1.4219995860816610 255 255 255
0.1029550637815557 0.0777628379335523 1.1730386131024553 255 255 255
0.3524833226669526 0.0817263806971709 1.4205929787187324 255 255 255
0.5930044815629990 0.0591056963049210 1.4645256352822857 255 255 255
0.6145766608100485 0.0779020319823286 1.4807733466620734 255 255 255
0.1147671719430687 0.0803541447781779 1.1714759879502745 255 255 255
0.3956044929481157 0.0799533338910537 1.4524251275661828 255 255 255
0.4319731113665305 0.0832593292965205 1.4090938640560104 255 255 255
-0.5341031311377720 0.1174064344212356 1.2607971895858474 255 255 255
0.0895496734484812 0.0860366211604542 1.1791804745720647 255 255 255
0.2246592890372096 0.0867441968587754 1.2365785197974695 255 255 255
0.5777802257660274 0.0850117066353910 1.4719737331191207 255 255 255
0.6936272482475521 0.0726073489602725 1.3554011979847271 255 255 255
0.6815143521770362 0.0765395249542874 1.3905192122646064 255 255 255
0.1160822516804616 0.0923610033918330 1.1748394690239092 255 255 255
0.6688229994175825 0.0702715018268560 1.4342028144864276 255 255 255
0.1498913091150623 0.0980191545301925 1.1900584792715674 255 255 255
0.5052838629139225 0.1033954883442663 1.4267651108045802 255 255 255
0.3362222423731103 0.1099726457995088 1.4294212864375055 255 255 255
0.0715102697958056 0.1074361492115502 1.2199844990279407 255 255 255
0.6701540153949596 0.1046935202671538 1.4696803223841028 255 255 255
-0.0018591482976426 0.1617680608936495 1.7065404340783656 255 255 255
0.2202906827317961 0.1005402490465396 1.2056307972047464 255 255 255
0.6357464913118376 0.1155512091114577 1.5208255903612240 255 255 255
0.1217269782523092 0.1166676199824697 1.2025916594871249 255 255 255
0.3901093807191020 0.1261235973135093 1.4556046323261838 255 255 255
0.4975312791514758 0.1270221162350444 1.4653239810899290 255 255 255
0.6571966508451729 0.1109470089229714 1.4203738690356964 255 255 255
0.6909139264571662 0.1126622310007997 1.4424159102835756 255 255 255
0.2085439475217830 0.1163836984306298 1.1992356952681333 255 255 255
0.6297790422270800 0.1345898387914663 1.5261822396324163 255 255 255
0.5313165770987052 0.1423139298753117 1.5051838596147680 255 255 255
0.3421958696219995 0.1473627217047046 1.4278431198151282 255 255 255
0.2164314761021456 0.1325083509657057 1.2143207873898809 255 255 255
0.4223597293550842 0.1539033676136562 1.4755257033912526 255 255 255
0.1424602164159857 0.1463200973476243 1.2315081943925239 255 255 255
0.1555492682215668 0.1490212765433589 1.2271763008607559 255 255 255
0.3229661214679962 0.1666971340808891 1.4478051214368237 255 255 255
0.5819851972555933 0.1654009844210101 1.5184367293713501 255 255 255
0.6227687312201037 0.1644443567817180 1.5201927831745750 255 255 255
0.7015662194626495 0.1384058120266040 1.3451835260100320 255 255 255
0.3507327959844927 0.1730490468007941 1.4701862052674770 255 255 255
0.4537333758931018 0.2013419157711965 1.6694958328288692 255 255 255
0.6379424176080025 0.1730829644896761 1.5212884914975398 255 255 255
0.6766148098750479 0.1581687583206503 1.4149089502473031 255 255 255
0.1746248780123765 0.1623653416519926 1.2300479639873543 255 255 255
0.6747107016881783 0.1674340669718956 1.4676917944813670 255 255 255
0.1674356297358232 0.1657142374812348 1.2497237219986752 255 255 255
0.6811794513018405 0.1638224315523786 1.3960795861891762 255 255 255
0.2130604995454217 0.1705815721692575 1.2337402618873430 255 255 255
0.6068657739888307 0.2011612193894871 1.5950970177406865 255 255 255
0.6060633773450306 0.1956131056152376 1.5195621852280436 255 255 255
0.3349050430096142 0.2038972840760936 1.4772090456278486 255 255 255
0.5246124659773553 0.2434969515816299 1.7811150902899924 255 255 255
0.1224602839592591 0.1942972690762743 1.3044014045333492 255 255 255
0.3278821178823143 0.2179540470921994 1.4820673089918373 255 255 255
0.4750022800228397 0.2414049880689297 1.6329939744449000 255 255 255
0.6983834872621809 0.1836242905064172 1.3411108059399892 255 255 255
0.5686779301445737 0.2532046611537123 1.7122267055094880 255 255 255
0.6139875459583370 0.2476192039591379 1.6718372540123014 255 255 255
0.4443656650706482 0.2387654898714146 1.5362409104177113 255 255 255
0.6448809262046431 0.2259775551862306 1.4974781971278495 255 255 255
0.6327367777141977 0.2324177388460957 1.5131052991628802 255 255 255
0.1151942788207086 0.2618293881872267 1.4995298431088275 255 255 255
0.4703759917745360 0.2678520348446253 1.6290402714468255 255 255 255
0.5067099020497694 0.2819284882325463 1.6903038307850853 255 255 255
0.6664368780265143 0.2451883033711353 1.5369064404359556 255 255 255
0.7942391633443113 0.3087962157481972 2.0030490872649382 255 255 255
0.5693003190079101 0.3039183692468472 1.7648448421891276 255 255 255
0.7040755838530565 0.2170552344214264 1.3326510672270990 255 255 255
0.1426063443539614 0.2415916827854873 1.2948289650689842 255 255 255
0.1672860248082967 0.2407688252881075 1.2842718201350845 255 255 255
0.6336375647599712 0.2699344116806348 1.5779652261830188 255 255 255
0.3928953293949369 0.2966727833998763 1.6084721125049615 255 255 255
0.6011280452402276 0.2893283366594872 1.6075959877958521 255 255 255
0.6491193404844166 0.2874273639880162 1.5317076678076182 255 255 255
0.1258307061779919 0.2928839436729060 1.4511514061885862 255 255 255
0.3767871171232806 0.3300965052831575 1.5911030802726154 255 255 255
0.0825247925782779 0.3354888726424557 1.5143504871116669 255 255 255
0.6118925608441413 0.3263422632284885 1.6242397381062021 255 255 255
0.6480425477054375 0.3121013613405819 1.5576166169220860 255 255 255
0.3229631865581739 0.3526742119300879 1.5930548291801518 255 255 255
0.6803053846370670 0.3379659120780393 1.5895329990791176 255 255 255
0.1066759566424635 0.3461590162358054 1.4820305139622429 255 255 255
0.1255323224706439 0.3618622810122101 1.5125876673437806 255 255 255
0.1515311243335531 0.3241682808719052 1.3705388394842455 255 255 255
0.3811360568615296 0.3660708845120365 1.5713310365115944 255 255 255
0.1276063478880501 0.3408116324994094 1.4150373429463092 255 255 255
0.6399568168099186 0.3371688226742861 1.5020417856198367 255 255 255
0.6880173419476655 0.3158105095362322 1.3872985213122930 255 255 255
0.1824572788398723 0.3496286466758947 1.4160762319204989 255 255 255
0.3371192038682410 0.3917705758451892 1.5948114537297351 255 255 255
0.6239462703487966 0.3732002407956320 1.5660736306638501 255 255 255
0.1328786573734744 0.3626957041609321 1.4082940774547514 255 255 255
0.0690502528874415 0.3746784587604235 1.4421983232092155 255 255 255
0.6672799275128400 0.3695298561777043 1.5115065063182145 255 255 255
0.6027419563521412 0.4080090148075713 1.6772548134317526 255 255 255
0.5688507547742527 0.3735698435628885 1.5475242853092679 255 255 255
0.2822480253514491 0.3942284643103700 1.5386190013675467 255 255 255
0.6090593169351576 0.3828187222556890 1.5645890469308177 255 255 255
0.5432439435079311 0.5152435423354359 1.9566365263101124 255 255 255
0.6183289360915075 0.4020296333889427 1.5711590591314970 255 255 255
0.0982565152946953 0.3924388327586554 1.4317734094491639 255 255 255
0.1926428000996133 0.3943762141839817 1.4688738249169053 255 255 255
0.6279837216542555 0.4118057337092604 1.5693694919372214 255 255 255
0.5927766522610551 0.4420287757551660 1.6712828142011491 255 255 255
0.6232019052412748 0.4203715804872590 1.6096427087623355 255 255 255
0.6720228553404164 0.3770674310433771 1.4388808523653431 255 255 255
0.6439055170375354 0.4413497015525231 1.6334833055375511 255 255 255
0.6263660098312067 0.4430677185993113 1.6264401255594023 255 255 255
0.2877489043663045 0.4765868112632951 1.6518899230471549 255 255 255
0.6057856991104447 0.4583532367500802 1.6376355959028170 255 255 255
0.6546633437485907 0.4183045264138519 1.5069919142644372 255 255 255
0.5713921606792317 0.5271397936003753 1.8357671629561569 255 255 255
0.6838588642937715 0.3968320764936693 1.4197471420802761 255 255 255
0.5783206713346269 0.5023432306687556 1.7341972591874331 255 255 255
0.6481416358794022 0.4580804636512433 1.6175910935332258 255 255 255
0.6951471759051375 0.3910100508612334 1.3883307413104000 255 255 255
0.5698952240075918 0.5273194308353366 1.7856405882177560 255 255 255
0.4949728500873307 0.5598100611077192 1.8413415353294202 255 255 255
0.6305243587713902 0.4473379340663777 1.5235465044574008 255 255 255
0.6013562535409307 0.5019688249367908 1.6615893386063274 255 255 255
0.6402360431040486 0.4960499698143508 1.6272272996524513 255 255 255
0.6749070274898510 0.4404291937436793 1.4709960511101319 255 255 255
0.5202983247539824 0.6030017305481664 1.9263885187228713 255 255 255
0.6393705346324599 0.4935788030343728 1.5950923636974568 255 255 255
0.7007960870195344 0.4120159403837889 1.3601591450701267 255 255 255
0.6007741006852669 0.5175089604378507 1.6237213720138124 255 255 255
0.5597166469485373 0.5336766738869003 1.6644622614636595 255 255 255
0.6353257733476684 0.5238498994151874 1.6276550129559066 255 255 255
0.6322104459583922 0.4833196228313778 1.5331623991784273 255 255 255
0.7197465959081356 0.4494426718317780 1.3870935578431667 255 255 255
0.5281711615432539 0.6263327444861326 1.8606271592714405 255 255 255
0.5591486889274451 0.5932317400256971 1.7486593280325089 255 255 255
0.7079082868759176 0.4420948092185731 1.3459805823251985 255 255 255
0.6736813612421044 0.4784314786303705 1.4403335674054052 255 255 255
0.6273518935310834 0.5326204760918781 1.5732953201667017 255 255 255
0.6471495193099046 0.5139084633636603 1.5337935156731950 255 255 255
0.6886044215748311 0.4674388132852699 1.3853440637500281 255 255 255
0.6722259261360253 0.4999142010182005 1.4623085811431848 255 255 255
0.4971514283513703 0.7168188980203783 2.0102338404259270 255 255 255
0.6143686163567829 0.5964689664013215 1.7049450674330380 255 255 255
0.6768137183879289 0.4997321911591320 1.4418972618384343 255 255 255
0.5553457713564364 0.6480482268441918 1.8200924606847027 255 255 255
0.6996432638438707 0.4779095683973309 1.3855005878889450 255 255 255
0.6830334142195016 0.4827861982236960 1.3829067794512127 255 255 255
0.5505473028818607 0.6627269173019186 1.8085153027561334 255 255 255
0.6827114901633211 0.4904427213105639 1.3696591733648753 255 255 255
0.5993188566377188 0.5961051478858875 1.6230764548353267 255 255 255
0.6274697166769624 0.6848693970668518 1.8276586152151433 255 255 255
0.6631100496780683 0.5452022194413358 1.4731601895995599 255 255 255
0.6057677295227706 0.6410576576474126 1.6631707931724635 255 255 255
0.5667831527150539 0.6942807144258215 1.7588550585570950 255 255 255
0.6568543099333428 0.5861940785080405 1.5105118089907830 255 255 255
0.5915727646271784 0.6617158232859948 1.6883862604220627 255 255 255
0.6468814497464450 0.6089583263180476 1.5263156228852393 255 255 255
0.6137573579301454 -0.5734813735270993 1.6810097507223176 255 255 255
0.4658282888432810 -0.5751172888645152 1.9742195206210911 255 255 255
0.5413943154094543 -0.5070853788918170 1.7813047659958769 255 255 255
0.5817145752679623 -0.4664547613335302 1.6559961211522887 255 255 255
-0.6062805874447219 -0.2703142803851158 1.2068356764395736 255 255 255
-0.6330358970804941 -0.2501031300509385 1.1840951557719397 255 255 255
-0.3325470610494645 -0.2762601749465830 1.2978314367960293 255 255 255
-0.5031730600520046 -0.1943672036197654 1.0592474045023403 255 255 255
0.3595552603281045 -0.3546446850095243 1.6343249972931100 255 255 255
0.3864897769141541 -0.3276732353668971 1.6086691965338922 255 255 255
-0.5041967931234673 -0.1605413440991802 1.0632799609848522 255 255 255
-0.4651773984738189 -0.1381511215887535 1.0260193913374041 255 255 255
0.2233872172099770 -0.2481791751378495 1.5545274942846343 255 255 255
-0.3733493585700210 -0.1560359945946955 1.1624580404277500 255 255 255
0.6664155301391567 -0.2539730716213031 1.5142541280293613 255 255 255
-0.4396317113201192 -0.1300465905240239 1.1119132233052815 255 255 255
-0.1310910985956097 -0.1611180986711444 1.2226243413502043 255 255 255
-0.2388538503781129 -0.1411280767667053 1.2038436966438155 255 255 255
-0.4888616698962543 -0.1035648588685251 1.0396369843963051 255 255 255
0.5436713812474243 -0.2128145871918838 1.5757289219515067 255 255 255
-0.4725940005449099 -0.0928159163361515 1.0388708285936679 255 255 255
-0.2410573639934066 -0.1222629224438685 1.2099838666795595 255 255 255
-0.1329523046791253 -0.1322386235518242 1.2671821838936930 255 255 255
0.5530968847916297 -0.1800409323494973 1.4978782732348677 255 255 255
-0.4443795106059168 -0.0901793360909427 1.0634998989105764 255 255 255
-0.3125940349562171 -0.0947673064164895 1.1445994080355804 255 255 255
0.6316680294160929 -0.1661984891280127 1.4726935159600356 255 255 255
-0.1307737775395194 -0.1028904195668242 1.1718693164640763 255 255 255
-0.2480824964160471 -0.0954567041887335 1.1705646689359976 255 255 255
-0.0346497136320022 -0.1005354189789910 1.1465758427758921 255 255 255
-0.4460705450149046 -0.0679468808170078 1.0697531362246238 255 255 255
0.2688382956666776 -0.1241214318419085 1.3681033888076954 255 255 255
0.6576689576236150 -0.1489260955084415 1.4727748818339201 255 255 255
-0.4303628231504261 -0.0632430668643436 1.0683287172643596 255 255 255
0.4494785329258901 -0.1289680918280972 1.4073004776486431 255 255 255
0.5500835811242004 -0.1292727506195987 1.4782082396844787 255 255 255
0.3079355390445705 -0.1202851008662486 1.3729888141818520 255 255 255
-0.0427096125631391 -0.0773480823765113 1.1607490145958015 255 255 255
-0.3295692393935975 -0.0667319389403037 1.1810388037648369 255 255 255
-0.4265776299344017 -0.0588729643343105 1.1388103646108576 255 255 255
-0.3798562688321641 -0.0601653526815817 1.1389026181058315 255 255 255
-0.5361825061947735 -0.0352094268261939 1.1134967619753839 255 255 255
-0.0839228055119532 -0.0660751574606991 1.1495093840101156 255 255 255
0.6611594424200787 -0.1133218107718193 1.5154191821811769 255 255 255
-0.0140500100405129 -0.0562922822372196 1.1419800071791979 255 255 255
-0.2578558827783112 -0.0463336803736777 1.3212135495721160 255 255 255
0.4397707628090850 -0.0821282101768729 1.4047743142205733 255 255 255
-0.5196861232075533 -0.0127715921074146 1.0843234531038861 255 255 255
-0.4442028385466725 -0.0183871250868559 1.1553174443996688 255 255 255
-0.2440814558154775 -0.0402614496683478 1.3494257233064733 255 255 255
-0.2200727550447120 -0.0410526493854335 1.3892229450160201 255 255 255
-0.0346753141996333 -0.0331309978003076 1.1244273694498945 255 255 255
-0.0002800307833938 -0.0369940384312192 1.1929255370255263 255 255 255
0.5596949649788165 -0.0654337028662922 1.4263113140267920 255 255 255
-0.3228018455372980 -0.0139987185409883 1.2110202515296540 255 255 255
0.0491755184119459 -0.0294106651521690 1.1266352446494459 255 255 255
0.6454688128508892 -0.0624057750582611 1.4521696192281106 255 255 255
0.1753569175996510 -0.0316264040710046 1.2954378221517351 255 255 255
0.3428301878782283 -0.0410570009327596 1.3747410570553018 255 255 255
-0.4985522614518273 0.0114220668965903 1.1506607845277566 255 255 255
0.0433789673800192 -0.0108413529794477 1.1649152402946401 255 255 255
0.4346564096641871 -0.0282870256328409 1.3993520529486083 255 255 255
0.5727849604509901 -0.0346411535223070 1.4283670105426369 255 255 255
0.4160231285304244 -0.0159631533419468 1.4177813391489453 255 255 255
0.1828551595994452 -0.0008082818397787 1.2911141337358591 255 255 255
0.0782059781674142 0.0058246857314949 1.1486109718286479 255 255 255
0.5418586467542871 -0.0141463414520820 1.4374234535977481 255 255 255
0.4360980334749154 0.0000665990569504 1.3975060964252266 255 255 255
0.5227398402044328 -0.0020493003906388 1.4582428563122638 255 255 255
0.0202856135239548 0.0288919669896595 1.1528296462013703 255 255 255
0.6239023031964085 0.0082440473644546 1.4395033162989641 255 255 255
0.5190541844763464 0.0165312205770963 1.4889208737644701 255 255 255
0.5619360040810996 0.0182173487896751 1.4372666367753686 255 255 255
0.3587419357046712 0.0310101319456570 1.3911793319200523 255 255 255
-0.0888175339138647 0.0502376890873974 1.3901360691292897 255 255 255
0.1454826083408635 0.0342648451985394 1.1758666152623576 255 255 255
0.4574101754943654 0.0382193123947071 1.4102027181450243 255 255 255
0.5473564551536421 0.0365498596675417 1.4558089472197482 255 255 255
-0.4799421543933839 0.0771466633849976 1.1981934669852581 255 255 255
0.4755498260217870 0.0421320590652589 1.4093189109485209 255 255 255
-0.0930090508273242 0.0701591125252455 1.4094291287376972 255 255 255
0.1418849180868200 0.0500628647887613 1.1648093312022234 255 255 255
0.3513829142999265 0.0509900073998054 1.3972330808349789 255 255 255
0.3994809471957392 0.0566490165988009 1.4563909007123501 255 255 255
0.0984128482273511 0.0609665308822420 1.1618104821208446 255 255 255
0.2305687290318587 0.0596192143536286 1.2560518830215652 255 255 255
0.5491978060103652 0.0561546611770445 1.4390515653196985 255 255 255
0.1434213351149877 0.0657968469150431 1.1687347185006089 255 255 255
0.1287816817823039 0.0673247399237962 1.1665463854321487 255 255 255
0.6253738905623519 0.0559250190999676 1.4529732797088546 255 255 255
0.6817163922401663 0.0553313248724769 1.3895599159046630 255 255 255
0.2859211931045821 0.0764402595114198 1.3349899476091085 255 255 255
0.3987483308881224 0.0751624190749476 1.4353554840669223 255 255 255
0.5423789806324095 0.0748638232272547 1.4709474168517427 255 255 255
0.4572732241995432 0.1270051046854500 1.4404714870261528 255 255 255
0.5022202780473357 0.1349930395745463 1.5019296781594706 255 255 255
0.6513563114526294 0.1237371014638509 1.5192832342373874 255 255 255
0.4122415445281676 0.1370315781866230 1.4456499121383366 255 255 255
0.6894430903116674 0.1176668410193660 1.3784141251704201 255 255 255
0.3130440154954471 0.1609832595862773 1.4925375533513410 255 255 255
0.2160139271358129 0.1453321358787809 1.2221036453974059 255 255 255
0.1836794577721308 0.1478039625096254 1.2209796957617294 255 255 255
0.5204702421908430 0.1923922384180455 1.6678248452766324 255 255 255
0.5422410961456331 0.1832566646051451 1.5490186257699410 255 255 255
0.6425192760157197 0.1833093861349830 1.5140881090086964 255 255 255
0.3900780888500516 0.2087124028813255 1.5668984927413425 255 255 255
0.6254533117223648 0.1967978388057603 1.5227358754091960 255 255 255
0.6556679460658018 0.1977635104519706 1.4928752542238495 255 255 255
0.3272828934026362 0.2231417117014100 1.5607754164477581 255 255 255
0.5350532888874437 0.2565254344400322 1.6952525156549780 255 255 255
0.1702437839373890 0.2169014988218103 1.2614996042593107 255 255 255
0.5562776720487971 0.2813628688050785 1.7155326214591688 255 255 255
0.4277439172504852 0.2832192054943662 1.5852551215758683 255 255 255
0.4608780889532814 0.3057046235148990 1.6117040636048734 255 255 255
0.2968789942397090 0.2888929111310683 1.4912192633615753 255 255 255
0.3817393629526281 0.3158966505565841 1.6377914650180356 255 255 255
0.1718283276006844 0.2605968028692702 1.2765402645573538 255 255 255
0.3516253040360674 0.3273710634469233 1.6191434253456736 255 255 255
0.1175916831786885 0.3137325342610129 1.4687480189332562 255 255 255
0.4734413430134581 0.3175399069052686 1.3560214619381221 255 255 255
0.6777647933126643 0.3597436413789277 1.6643925773765509 255 255 255
0.3154924222162632 0.3861817813083012 1.5991623949762943 255 255 255
0.6165351162210182 0.3666750651351238 1.5924950604864638 255 255 255
0.4370438024034601 0.4072510952769691 1.6807022754848318 255 255 255
0.5693782695215036 0.4239974187261344 1.7351330334090902 255 255 255
0.1645804770633026 0.3587883711619147 1.3563941105650839 255 255 255
0.2610484974788336 0.4032148997302537 1.5423927324530049 255 255 255
0.0907634204893073 0.4108356832385247 1.5199094949385792 255 255 255
0.5812497408077357 0.4988112295646325 1.9313194358531802 255 255 255
0.6077563097528433 0.4186946662418043 1.6167008104323917 255 255 255
0.5308250110393173 0.5026113071232897 1.8904957680892727 255 255 255
0.2586303675469012 0.4260723015908568 1.5414152583277363 255 255 255
0.5811615580873755 0.4972838194798188 1.8440126682078366 255 255 255
0.5013856043010039 0.5114714565047219 1.8223742615884264 255 255 255
0.6826613218189312 0.4627313241103028 1.5578675720160957 255 255 255
0.6363439165195162 0.4665447334069472 1.5256678612011030 255 255 255
0.5850378410889102 0.5720494855271608 1.6962440138883235 255 255 255
0.5659693529296687 0.6628365956507535 1.7420523062880136 255 255 255
0.5511954267435469 0.7947867021548440 2.0227581867151163 255 255 255
0.6313071878371481 -0.5564409479802165 1.7108352471357116 255 255 255
0.4552813940286212 -0.5852644612405464 2.0316432032109297 255 255 255
-0.5666389762917685 -0.2747647202150495 1.2527953756712660 255 255 255
-0.2104339344905169 -0.2066804019170917 1.3063000900387800 255 255 255
-0.4414337707095464 -0.1470821160820673 1.1212364060822670 255 255 255
0.2068282365549154 -0.2575730490257135 1.6233020386795818 255 255 255
-0.4395585563561292 -0.1253694744835466 1.0735834611721167 255 255 255
-0.1093429757040774 -0.1491855193944514 1.1647635122017916 255 255 255
-0.1960226998249966 -0.1506638981721338 1.2794820961534070 255 255 255
-0.1501434946576684 -0.1240235915493955 1.2114064247087466 255 255 255
-0.2831118060946213 -0.1022252821095369 1.1506409665492550 255 255 255
-0.1829569023582854 -0.1027559303461466 1.2922611483581639 255 255 255
-0.2881524155251045 -0.0790835339596755 1.1555158098281531 255 255 255
-0.4592408694005236 -0.0454297372704545 1.0422924209748232 255 255 255
0.0972610471562509 -0.0719620153174702 1.2464022605157479 255 255 255
-0.0283490812977579 -0.0604292209154546 1.1146292269124649 255 255 255
0.6272426775096074 -0.0936646628551961 1.4646448539805021 255 255 255
-0.0637640763822431 -0.0444516008367263 1.1280328976457386 255 255 255
0.1074788616331941 -0.0499504213389776 1.2350710372209346 255 255 255
-0.1672584672869671 -0.0469880667550820 1.3716059241025573 255 255 255
0.0326316936408049 -0.0362452376220807 1.1369205037210437 255 255 255
-0.3503389424999547 -0.0133545700577517 1.2220257151240888 255 255 255
-0.2554165817945658 -0.0142450370283452 1.3502627592876504 255 255 255
0.4359156037833364 -0.0396701745131529 1.3912295547819404 255 255 255
0.4696641461817394 -0.0437287474607406 1.3925727672074906 255 255 255
0.4149664993170967 -0.0404470572328314 1.3988625647628150 255 255 255
0.5469737424476353 -0.0432043694502151 1.4335712219953258 255 255 255
-0.0007063309622424 -0.0036652036903171 1.1184115003314279 255 255 255
0.5752619392334781 -0.0345880380144071 1.4349195197769502 255 255 255
0.1497373284572998 0.0041512468451378 1.2407610819671455 255 255 255
0.4890861988867148 -0.0137043639401421 1.3890881943242430 255 255 255
0.6177187795775081 -0.0116525429288991 1.4446016025015547 255 255 255
0.0714361426635210 0.0181091343167757 1.1498904621396668 255 255 255
0.1500500905115734 0.0152792950376998 1.1873896789507354 255 255 255
0.0541622601023447 0.0224814407593860 1.1501183874147241 255 255 255
0.3438530258670546 0.0142953576773319 1.3970762306678559 255 255 255
-0.4968707144236930 0.0520716691095459 1.0994772574163336 255 255 255
0.1376002930998066 0.0228054167509659 1.1839114992813660 255 255 255
0.0932092407666085 0.0305096614589797 1.1517909822789931 255 255 255
0.4186105725887467 0.0186475706207047 1.4064604637995470 255 255 255
0.1590597630284053 0.0292553344250440 1.1833695003616398 255 255 255
0.1313007630281720 0.0384849421499110 1.1594864822817934 255 255 255
0.0645267575761381 0.0556317015242794 1.1565765861849211 255 255 255
0.2649274569283896 0.0544493412728009 1.3370938910465167 255 255 255
0.3117516550364085 0.0623562458379074 1.3878836923033384 255 255 255
0.4433062073054757 0.0591533798296167 1.4131246369065469 255 255 255
0.4954912679925490 0.0626090178496995 1.4442021508279435 255 255 255
0.4182936848929274 0.0630316771103750 1.4168741587507581 255 255 255
0.5890092005241712 0.0749521161528413 1.4675505911112092 255 255 255
0.1154626158898842 0.0809318124551237 1.1782886977538736 255 255 255
0.0889831137057833 0.0846315727286833 1.1816933039242572 255 255 255
0.6652430963617101 0.0818859281577540 1.4252973642743851 255 255 255
0.4212813093538291 0.1004310763807547 1.4338128264427448 255 255 255
0.2338696622617739 0.1122460714404668 1.2289037554642601 255 255 255
0.5520965766043059 0.1534023835436408 1.5114627837664174 255 255 255
0.4929374852119539 0.1953010393565516 1.7369601309800193 255 255 255
0.1211169820150744 0.1543052969040137 1.2044129927790876 255 255 255
0.1769952938532738 0.1637871240646640 1.2305759962318670 255 255 255
0.6684893909283639 0.2444038243019878 1.8319382273428861 255 255 255
0.5734281999681036 0.2822106741816174 1.7079883135822935 255 255 255
0.1427703604010830 0.2755521907077601 1.4963146965687910 255 255 255
0.7078138872732278 0.2541506841247448 1.6286225168912745 255 255 255
0.7055661568797413 0.2502340813214696 1.5138123505000116 255 255 255
0.6371635103109479 0.2914289348447012 1.7352629078262891 255 255 255
0.1386198248252302 0.2613814703189198 1.4470235793498938 255 255 255
0.1559109074176344 0.3054829740953295 1.3290975017176305 255 255 255
0.4277115648330158 0.3681593988387947 1.5309876541615726 255 255 255
0.3432660082405530 0.3940021602743147 1.6034463106774925 255 255 255
0.5916633205875385 0.4032733774486259 1.6511977207281587 255 255 255
0.2255248641293790 0.3748394127231534 1.4524756349607781 255 255 255
0.5955374434431864 0.4432918024821759 1.7566316024737501 255 255 255
0.5548089038573039 0.4818378704394072 1.7705539904825764 255 255 255
0.6294700133133132 0.4485531415109342 1.6394311860898412 255 255 255
0.6690266176643292 0.3905459602164368 1.4301802476193908 255 255 255
0.6839830762942936 0.3909123314157890 1.4083635998155015 255 255 255
0.5001130357330855 0.5563718506174713 1.8956235324260393 255 255 255
0.6051976918710080 0.4911900315849646 1.6929506754563837 255 255 255
0.5507663922874969 0.5035956092128163 1.7121171188714046 255 255 255
0.5649545034136256 0.5406983002250909 1.6909773678902318 255 255 255
0.5662449427410284 0.6018637882323005 1.7789818054936108 255 255 255
0.5557639156315224 0.6414984308297872 1.8172360922044335 255 255 255
0.6728669138728016 0.5242456598731832 1.4692776207780069 255 255 255
0.5116880055155942 -0.4539659726393923 1.5028414335254887 255 255 255
-0.5405594063167765 -0.2880001719554920 1.1681150453321538 255 255 255
0.6257790375928457 -0.5033861349310829 1.7815912318313945 255 255 255
0.6555411009602942 -0.4106852046419232 1.5165841567509331 255 255 255
-0.5153619091349404 -0.2855176430286517 1.2318127932705891 255 255 255
-0.3846830696363063 -0.2760270933620563 1.2578813139662626 255 255 255
-0.3768301177341004 -0.2684657919209985 1.2754183353163602 255 255 255
-0.6179575195009135 -0.2380165757646831 1.2339743823742988 255 255 255
0.2856505258552524 -0.3360348146458241 1.6541781612237427 255 255 255
-0.4853395722838567 -0.1602424440125933 0.9834218055448964 255 255 255
0.2436736003489451 -0.3176048944494980 1.6203446181271177 255 255 255
-0.4584170134961003 -0.1768616268401667 1.1468734331866755 255 255 255
0.3253001190374928 -0.2820466277955181 1.6045513818083306 255 255 255
-0.2170802610242451 -0.1778405163408160 1.2260402268694917 255 255 255
0.2604337459506444 -0.2539383699801547 1.5618379471638069 255 255 255
0.5367230937727094 -0.2610151115285596 1.5592186834743891 255 255 255
-0.3985844728214759 -0.1372105046158643 1.1455670075624063 255 255 255
-0.2234082715267697 -0.1598609813624333 1.2651004463510809 255 255 255
0.3460654840249563 -0.2037908628923312 1.4271656256619969 255 255 255
-0.2421550897284017 -0.1449424977197810 1.2276504734941924 255 255 255
-0.3502250290633305 -0.1320811235112727 1.1565574300520785 255 255 255
-0.1905098148088429 -0.1486678668116595 1.2696766021248429 255 255 255
-0.4212819742430179 -0.1085337664394996 1.0776510227063052 255 255 255
-0.1254283144535033 -0.1274262222963015 1.2233523006749591 255 255 255
0.5186598547255609 -0.1909956515946339 1.4829395732377231 255 255 255
-0.2381727040278209 -0.1207755516506451 1.2077289840043544 255 255 255
-0.5056755134504426 -0.0807223160592019 1.0285252103658955 255 255 255
-0.4386524057781813 -0.0862060921169700 1.0489082272077912 255 255 255
0.4714242872802349 -0.2022964694004833 1.6171811908192200 255 255 255
-0.1866138018856819 -0.1152511447719446 1.2194990312076068 255 255 255
-0.4077419725368937 -0.0839601457251408 1.0892572317284606 255 255 255
-0.1622837817243047 -0.1106954077216188 1.2085504284808539 255 255 255
0.4003957488715241 -0.1632803532233630 1.5901488221991826 255 255 255
-0.2491908341059969 -0.0969884900764227 1.1798666724828186 255 255 255
-0.1254797072458722 -0.0978638083862830 1.1388980613557580 255 255 255
0.4523781803112512 -0.1500391440973227 1.5260851875604715 255 255 255
0.5470198882472084 -0.1631157607515206 1.4780722250608787 255 255 255
-0.3247942529539491 -0.0670615093900317 1.1747595694449731 255 255 255
-0.4202392692272528 -0.0576022161226665 1.1238315737273590 255 255 255
0.3551182552188255 -0.1171433997256737 1.3917192585580191 255 255 255
-0.1277432918208530 -0.0867353343974742 1.2370682807263635 255 255 255
0.1169012959348506 -0.0862586938490335 1.2390727339296901 255 255 255
0.3804905780266812 -0.1076962072211310 1.3827632455355907 255 255 255
0.3244849537865946 -0.1036636568825615 1.3963968400857982 255 255 255
-0.1959432147136896 -0.0773418578871327 1.2739411101497455 255 255 255
-0.0645660990091789 -0.0721519882034751 1.1782458307042261 255 255 255
-0.0806475394438633 -0.0644068973745924 1.1407997094549884 255 255 255
0.4770524694458547 -0.1056367077858119 1.4228564021895516 255 255 255
-0.2898127783927291 -0.0565135546533892 1.1804573171738089 255 255 255
0.5903630239128371 -0.0976957117510998 1.3571478484426234 255 255 255
-0.3113138555441728 -0.0491518640489198 1.1826500118497665 255 255 255
0.0015206952368765 -0.0557560841683466 1.1138271831732589 255 255 255
0.6067044095080006 -0.1059408991731810 1.4350295017509125 255 255 255
-0.4271091604050429 -0.0380613528047856 1.1408555374749993 255 255 255
-0.1979315596210109 -0.0610148599214386 1.3118309682460090 255 255 255
-0.1027166258443943 -0.0522394531408408 1.1441143052682030 255 255 255
-0.2599413783898095 -0.0449052054239977 1.3123430556391542 255 255 255
0.4414817091654628 -0.0811153694570174 1.4066309142211899 255 255 255
0.6446988989691774 -0.0920345346412011 1.4509609589988448 255 255 255
0.2007238110917038 -0.0633909652289059 1.3088402202612366 255 255 255
-0.4438880044325144 -0.0201425495611663 1.1551427635999716 255 255 255
0.1037224795528724 -0.0490607745299721 1.1937661204977721 255 255 255
-0.2118390615126664 -0.0413610173973595 1.2950741973833364 255 255 255
-0.0367666267831534 -0.0357187176914201 1.1269120050019512 255 255 255
-0.0013902012321307 -0.0381569047979388 1.1942827758624750 255 255 255
-0.0623395063465703 -0.0297899289538388 1.1269743020093999 255 255 255
0.2558468109402581 -0.0481455391738620 1.3358581873886630 255 255 255
0.3056464585173432 -0.0462126497943272 1.3945103768717468 255 255 255
0.0896550720058333 -0.0333926575430814 1.1769735407208302 255 255 255
0.6443008383220779 -0.0661946641614909 1.4467867337784852 255 255 255
0.3419051125597266 -0.0441198905209241 1.3728327233380415 255 255 255
0.6146864915453897 -0.0600239815870075 1.4388201788313626 255 255 255
-0.0537494309190576 -0.0151409064426751 1.1357667565183944 255 255 255
-0.1516887277812812 -0.0032742777956397 1.2673372853122162 255 255 255
0.4411383055865451 -0.0330094887738964 1.4098885604510916 255 255 255
-0.2845238881332819 0.0056780268746712 1.3622923362562054 255 255 255
0.3377495952436906 -0.0155309412391642 1.3745481708288332 255 255 255
0.4171695963954742 -0.0185379041164912 1.4187332732822968 255 255 255
0.3057227934015577 -0.0137688598897604 1.3591935828769603 255 255 255
0.5029502903835865 -0.0224499747071403 1.3998925805391211 255 255 255
0.0753029368048447 0.0059378796135221 1.1614050343760691 255 255 255
0.2577132622897568 -0.0080551427407834 1.3300018640442111 255 255 255
0.3819874426951920 -0.0090082934616660 1.3813509669138930 255 255 255
0.1857830490416689 0.0017335546218472 1.2832370447878301 255 255 255
-0.3248207125759623 0.0325851786692978 1.3454113275727166 255 255 255
0.5436187048640647 -0.0103903890152348 1.4377746155454401 255 255 255
-0.2985509235629143 0.0313584205624036 1.3562802409493415 255 255 255
0.2390475717489501 0.0053171932089302 1.3279376812374490 255 255 255
0.5255585944256855 -0.0038844642843806 1.4653400414133264 255 255 255
-0.5118253483358725 0.0443271328816310 1.1035938618593231 255 255 255
-0.4726504756012991 0.0482055397008466 1.2384520664885157 255 255 255
0.6625727513328975 0.0105292250930196 1.4539266068129351 255 255 255
0.3837135563978337 0.0130121014938224 1.4071271394591014 255 255 255
0.6306401565635409 0.0066188136820978 1.4516475707260603 255 255 255
0.5114475419142726 0.0209855641325209 1.4484509913014960 255 255 255
0.2368986310399935 0.0300431286377708 1.3153898461854818 255 255 255
0.5623316119320285 0.0187361224171153 1.4394280164455835 255 255 255
-0.5320907092580459 0.0671276449483310 1.1268591285401908 255 255 255
0.2990944956162775 0.0337437963498448 1.3484754073086620 255 255 255
-0.5380396815440217 0.0732061986040149 1.1934025532253605 255 255 255
0.3502801972626876 0.0366202037014485 1.3784311949580925 255 255 255
-0.4832045477051635 0.0765378225421039 1.2018524538875801 255 255 255
-0.0929494991313800 0.0690075465481730 1.4533049136134510 255 255 255
0.0994742693055344 0.0556151383879170 1.1701229661354553 255 255 255
0.2000681239443105 0.0539869633309257 1.2268757016994347 255 255 255
0.5613343071736976 0.0578138349667328 1.4652817945667913 255 255 255
-0.5057922932730835 0.0960315541131939 1.1817652250680137 255 255 255
-0.4618388844069953 0.0976809313882286 1.1859997099419899 255 255 255
0.1463616496214098 0.0667152455033942 1.1755045574119538 255 255 255
0.2984174570501569 0.0781005736968821 1.3765785771909276 255 255 255
0.6313304700632064 0.0663184992183005 1.4730629082296272 255 255 255
0.3977005737983381 0.0788180541397382 1.4303444952572524 255 255 255
0.5384976425216245 0.0742216554333093 1.4787004984016636 255 255 255
0.5867014245879606 0.0718292516789511 1.4623389334010024 255 255 255
0.1688466442342880 0.1023469608125851 1.1928949462981027 255 255 255
0.4000886799725346 0.1154141962911171 1.4383095010770448 255 255 255
0.5754686480038281 0.1066386143677946 1.4766695880340162 255 255 255
0.4284916022037817 0.1167345150018941 1.4362774917476608 255 255 255
0.5549733901530238 0.1172825553764539 1.4834022809527210 255 255 255
0.3811040509048199 0.1226516853724025 1.4644765468138867 255 255 255
0.3308905607492978 0.1303581596940562 1.4316456793522994 255 255 255
0.5134095626097090 0.1345255094431945 1.5213211115999463 255 255 255
0.6416292858976492 0.1074574898416466 1.4777574993998688 255 255 255
0.4119673658203350 0.1403719171956868 1.4458331954058368 255 255 255
0.3371649834669356 0.1502886474774710 1.4790896803142048 255 255 255
0.4796165805242701 0.1571452077605361 1.4820459195500642 255 255 255
0.1260537632226297 0.1501017112448640 1.2377500718216303 255 255 255
0.6171982548907063 0.1753851581675023 1.5675134173251779 255 255 255
0.5095456267972668 0.2056104985959662 1.6516545126778608 255 255 255
0.5493478173689582 0.1870896465085669 1.5701892340249697 255 255 255
0.4007661833702083 0.1852144297878641 1.4798580456712516 255 255 255
0.6375093313764721 0.2053536655058731 1.5531420969022822 255 255 255
0.2866785471093309 0.1923356909167745 1.3642707292335123 255 255 255
0.5381678073567850 0.2557455501258146 1.7076861758808388 255 255 255
0.5286795308406395 0.2943680019424809 1.7691858584676177 255 255 255
0.5840474150761833 0.2911550923044856 1.7812917400649142 255 255 255
0.3660637333400474 0.2872350403602792 1.6663575390243470 255 255 255
0.4285080946015832 0.2798156717743952 1.5832999455788235 255 255 255
0.1102138354684731 0.2793300480055468 1.4346754954524337 255 255 255
0.4639243362264043 0.2971101540453271 1.6050975108278234 255 255 255
0.3756381781558120 0.3100110858359691 1.6046727910789707 255 255 255
0.3291938546992495 0.3309514026177193 1.6719163298654716 255 255 255
0.1514283986957316 0.2676340969851886 1.3044624661232804 255 255 255
0.3535960172776185 0.3303946527858756 1.6147299030246856 255 255 255
0.6087145706436969 0.3288034036090479 1.6513532250567484 255 255 255
0.1360014728168440 0.2853885736481624 1.3398963649852909 255 255 255
0.1732126714847751 0.2998190991854433 1.4015091290206769 255 255 255
0.4675985407477793 0.3006422816742010 1.4240404859869851 255 255 255
0.3055886143578583 0.3789453737659800 1.5663385628568427 255 255 255
0.6185702950378844 0.3707067937319527 1.6057907845140231 255 255 255
0.6550952165672973 0.4350434534687544 1.4866866561992020 255 255 255
0.6094353324061490 0.5197803641589414 1.7017501280788250 255 255 255
0.6000310103486781 0.5496997857167224 1.6726780156208856 255 255 255
0.5358715057364188 0.6459146220753138 1.8970650320947720 255 255 255
0.6594699516198564 0.5052619655426206 1.4998732781516673 255 255 255
-0.5131307243792436 -0.2898781466250258 1.2330217623001596 255 255 255
-0.3693988931469981 -0.2620209739900096 1.2622964252133591 255 255 255
-0.3605216832235406 -0.2465129171719268 1.2411155934402325 255 255 255
-0.2482218954951992 -0.2667176050834495 1.3330349700257038 255 255 255
0.4521009731510034 -0.3398695475592996 1.6304450130333115 255 255 255
0.2462846370786821 -0.3176537815035534 1.6085211280975655 255 255 255
0.2667519878555960 -0.2569582178072025 1.5645378738401254 255 255 255
-0.3523679342981167 -0.1326383283689191 1.1412315341568886 255 255 255
-0.2595673727382448 -0.1439825233563995 1.3505661225358436 255 255 255
-0.1046996729817971 -0.1179485539136320 1.1447531247553113 255 255 255
-0.3132679309786424 -0.0955069085806575 1.1536785190188301 255 255 255
-0.3306361585527044 -0.0786909180873706 1.1919102531157455 255 255 255
-0.4182553113331497 -0.0647149456582763 1.1344836135594032 255 255 255
-0.2722112073711621 -0.0803762706506803 1.3744547394454594 255 255 255
-0.1315856106957599 -0.0785394307541000 1.2275833516789618 255 255 255
0.5616728738496554 -0.1128534380568374 1.6745437987743959 255 255 255
-0.4284766921871468 -0.0303744281442017 1.1405107357487603 255 255 255
0.4098625297445036 -0.0838394245639149 1.4671480819093881 255 255 255
0.4283617302497921 -0.0764330015395676 1.3725258369039166 255 255 255
-0.2396053547979023 -0.0373782721675060 1.3691566768896470 255 255 255
-0.2852044234104590 0.0009686906451608 1.3583073376296133 255 255 255
0.4452005393134851 -0.0342828343658208 1.4050017344143124 255 255 255
0.3645688828887905 -0.0276183233606457 1.3911396258167805 255 255 255
0.0690133119272350 -0.0011444808298453 1.1762720408144960 255 255 255
0.4091405396547774 -0.0167156699311995 1.4263540160564565 255 255 255
0.3293161809173333 -0.0092622915221470 1.3580137976899171 255 255 255
