ply
format ascii 1.0
element vertex 685
property double x
property double y
property double z
property uchar red
property uchar green
property uchar blue
end_header
-0.0144963765756802 0.0343589440066606 1.5829503427955927 255 255 255
0.3961515401001566 0.2577277845523328 1.7864115630145097 255 255 255
0.0167698817034000 0.3422387365691441 1.6793925416886144 255 255 255
-0.1046860165849475 -0.0068048300517877 1.2146911241387559 255 255 255
-0.0205777658349143 0.0498260155495218 1.2605136556606096 255 255 255
0.1190266213605513 0.3098474652746928 1.3787250834442759 255 255 255
-0.0801243429985769 0.0397753201768653 1.2544566238535251 255 255 255
-0.1272655981388679 -0.0129259654379904 1.2308870027800922 255 255 255
-0.0453261251906711 0.0633645750946245 1.2907740607532920 255 255 255
-0.0903795809582597 0.0450778062925322 1.2793665048190903 255 255 255
-0.1668013437441228 -0.0361983397213793 1.2472493400953921 255 255 255
-0.4807163557368621 -0.0013945158166264 1.2323809107314510 255 255 255
-0.0607482659253416 0.0740388292361641 1.3528093753582937 255 255 255
-0.5266010310827278 0.0606613321013987 1.2405067129049390 255 255 255
-0.3711906335830456 0.0183542958360989 1.2846717488098822 255 255 255
-0.0465333009725138 0.0716487505439240 1.3841521608525085 255 255 255
-0.1576666697862546 -0.1286067472336538 1.3310601326123539 255 255 255
-0.3844451431311910 0.0238736199044009 1.3129815772035693 255 255 255
-0.0362111302909847 0.0769855861140966 1.4185029486307903 255 255 255
-0.1000426400341407 0.0553379471741079 1.4022601519156794 255 255 255
-0.3559905257257422 0.0208172767671468 1.3343758360100741 255 255 255
0.0394031435916529 0.4197657086632870 1.5194241373075690 255 255 255
0.0511064896465528 0.0991860033787281 1.4654496440615581 255 255 255
0.0824451253794681 0.1008316823747370 1.5019996570986758 255 255 255
-0.1964638871953853 -0.0484720022979647 1.4484453739023333 255 255 255
-0.1062992547883451 0.0184596735809859 1.5427585704113649 255 255 255
-0.0565672012807946 0.0323325112215958 1.5595720574644834 255 255 255
-0.0849165442076767 0.0109015459766545 1.5844397600538931 255 255 255
-0.0222666239523726 0.1162290941358260 1.6809910668993406 255 255 255
-0.0304975854521709 0.1733537454663326 1.7793547451412950 255 255 255
-0.0076751912352018 0.0401600533399393 1.2455479519531973 255 255 255
-0.0721588787612732 0.0523196036980997 1.2750983627011601 255 255 255
-0.0191477324001296 0.0790294257831966 1.3262560076088985 255 255 255
0.1178389544682764 0.3112017505533463 1.4348141619133834 255 255 255
-0.1831067676978147 -0.0778700419142389 1.2617667719609940 255 255 255
-0.0036760299706219 0.0978527019057437 1.3732895153520837 255 255 255
-0.1447907999125253 0.0097376543504242 1.3354518408018818 255 255 255
-0.2540435746663302 -0.0646278926610783 1.3240992665978228 255 255 255
-0.4205427954736096 0.0155889191540650 1.3025756903646906 255 255 255
-0.1567408471378574 -0.0419256882607141 1.3781012373641806 255 255 255
-0.1165200596815159 0.0516576851442096 1.3999104166529537 255 255 255
-0.0143686126952885 0.0782173182635865 1.4385011681903881 255 255 255
-0.1554212265557544 0.0109090121972738 1.4063632146673473 255 255 255
0.0620420141692527 0.4063584180801610 1.5498490057616729 255 255 255
-0.1173092237000729 0.0360175577105025 1.4519832157369192 255 255 255
-0.0520014767775930 0.0565127287735654 1.5320874396829751 255 255 255
0.0485197537220180 0.3813296874951060 1.6208800576362581 255 255 255
-0.1891503112331777 -0.0557122571973442 1.5225403894589868 255 255 255
0.0736932696626427 0.3540593893183382 1.6482288107784728 255 255 255
-0.1259866110977508 -0.0025101239904117 1.5638204562542724 255 255 255
0.0262712628409764 0.0499075974752028 1.6210209760048853 255 255 255
-0.1416251741457588 -0.0498993565310533 1.5783961603892771 255 255 255
-0.0967948321904537 0.0853367884890228 1.6595752103613932 255 255 255
0.3670053137596035 0.1632340960088173 1.8520517509518091 255 255 255
0.0011656631695660 0.2685458121235819 1.7568309171242613 255 255 255
-0.2000047518211202 -0.1082968732145590 1.2172108970064206 255 255 255
-0.3533030510017247 -0.0126063072016643 1.2545471817838307 255 255 255
-0.2565546329001500 -0.0724783222784860 1.2690481314497080 255 255 255
-0.4227296598413477 0.0228368978903307 1.3048933351546506 255 255 255
0.0146507691353698 0.0731822722896204 1.4463028066167209 255 255 255
0.0394367693299853 0.0692459078618580 1.4670665672391365 255 255 255
0.0477110168841238 0.3491573589346559 1.5595643286508496 255 255 255
0.0676527376817532 0.3895166015344152 1.5784622760401847 255 255 255
0.0533037270223679 0.0802492536548992 1.2992637969120233 255 255 255
-0.0672812825800437 0.0688458888117977 1.3079454958577326 255 255 255
-0.0363289104734280 0.0664473426166998 1.3138029801019484 255 255 255
-0.1406498400002237 -0.0005576216733707 1.3335735010081358 255 255 255
-0.0139808670460234 0.0773095808496742 1.4380171906955335 255 255 255
-0.0866383737945261 0.0466192474691555 1.4743908942751986 255 255 255
-0.1499649783295817 0.0129226761363247 1.4776666837020418 255 255 255
-0.0294071463649440 0.0694092965969575 1.5990658409588880 255 255 255
0.3783302024189338 0.2098276815493293 1.8128608550352969 255 255 255
-0.0880928342166264 0.0614362605517588 1.4274282901415076 255 255 255
0.0269035354800416 0.0393150600650754 1.5812799408164329 255 255 255
-0.0914073478711103 0.0708426181252012 1.4204910219851341 255 255 255
0.0351455781093671 0.0545798917957413 1.4751177493896135 255 255 255
0.7887429560966804 -0.2084280556914068 1.1661519995173468 255 255 255
0.7963214034148346 -0.2334472803394827 1.2028093180748096 255 255 255
0.7858494948505251 -0.3077969167912764 1.2004113615777088 255 255 255
0.8224289889290084 -0.5121612945745031 1.1694581085802715 255 255 255
0.0205226148109264 0.0120141278716606 1.1722174227869055 255 255 255
0.0824210217804918 0.1004700826335605 1.1996434972694916 255 255 255
0.0345092106169415 0.0361371305827466 1.1932689222876662 255 255 255
0.7628916333852203 -0.3781864804730606 1.2666834155339570 255 255 255
0.0282491081383659 0.0423165112659409 1.2237808804602317 255 255 255
-0.0197160826636379 0.0457321285476382 1.2361636685018098 255 255 255
0.0376603861121201 0.0783915139021172 1.2641495762615818 255 255 255
0.0961183272609036 0.0895216026097399 1.2938446721331487 255 255 255
-0.0816029817507337 0.0420369964750168 1.2549658708582749 255 255 255
-0.1422210749249155 -0.0279147814330611 1.2402250559920254 255 255 255
-0.4534424165058302 -0.0350151592553336 1.1757186492327101 255 255 255
-0.5057778047143685 0.0926308400288298 1.1779303876903058 255 255 255
-0.3266239053227540 -0.0920930544902630 1.2003767199296327 255 255 255
-0.1689681264846544 -0.0244619346608927 1.2490012184968871 255 255 255
-0.4107096816857839 -0.0300819908306249 1.1968431736124687 255 255 255
-0.3979821152633694 0.0007868566445037 1.2019490284176719 255 255 255
-0.5180087655970331 0.0806576450509305 1.1957343482896441 255 255 255
-0.4635631063979454 0.0033311444105844 1.2028964170334784 255 255 255
-0.1661673724259614 -0.0109000027978810 1.2833311863778485 255 255 255
-0.4488458789781330 -0.0077711138255056 1.2369580158184033 255 255 255
-0.1867392046848936 -0.0708075133766558 1.2918084042084679 255 255 255
0.5995246658745598 0.1266585458041975 1.4998719678310315 255 255 255
-0.3391754060023207 -0.0033048525360900 1.2691275084558145 255 255 255
-0.4106613574011809 0.0143170243470056 1.2570167008424769 255 255 255
-0.4858139868911870 -0.0088090612311538 1.2366362224539524 255 255 255
0.1349048935746971 0.4418224741572684 1.4469253133564444 255 255 255
-0.1051941906538051 0.0561313946980795 1.3719999099123743 255 255 255
0.0906491433324261 0.1065543556741687 1.4558641095277525 255 255 255
0.1076825429813632 0.4645934087818912 1.4732012500680862 255 255 255
0.0876710326295801 0.1101215728065267 1.4677225014034219 255 255 255
-0.1865701247699020 -0.0718375757676804 1.4148831129840251 255 255 255
0.5353727376229039 0.2279473064249008 1.6098985234751177 255 255 255
0.0208218581256542 0.0835388087521226 1.4865128562095673 255 255 255
-0.0548316550439952 0.0566174535543482 1.4998808464002180 255 255 255
0.0219445603692248 0.0671888877872876 1.5282914930867828 255 255 255
0.0641206836922531 0.3439114837511067 1.5419647039679061 255 255 255
0.0645013411715400 0.4021525191257928 1.5498826790954414 255 255 255
0.0219358392472065 0.0582948871880289 1.6320749253527584 255 255 255
-0.0215828390756643 0.0170770225846860 1.2482409305248483 255 255 255
-0.0746925141172526 0.0542682922549190 1.2805161230652684 255 255 255
-0.0902655275613681 0.0654917977234000 1.3260520011612260 255 255 255
-0.3864835833813841 0.0143058550676185 1.2712474361061852 255 255 255
0.0879008005147843 0.0858150469026041 1.4156263828814444 255 255 255
0.0166733424824319 0.0843536548886179 1.4069885893921672 255 255 255
0.1584400567887524 0.4536125899191344 1.4544263065648864 255 255 255
0.0881070730261570 0.0993652082450497 1.4511543450262983 255 255 255
-0.1045847576208084 0.0334979923803406 1.5123043359554396 255 255 255
-0.1704216836628581 -0.0167089966824696 1.5364819453926863 255 255 255
0.0620710200998804 0.0776624912547106 1.2743184512301624 255 255 255
-0.0789594578025054 0.0322589229649645 1.2637586870373589 255 255 255
0.1010621490016051 0.2958306988565637 1.3670790220030276 255 255 255
-0.1050686530519430 0.0519291292554303 1.3229200476820211 255 255 255
-0.0469056548835639 0.0820236539843725 1.3564543791150681 255 255 255
-0.4782442843528923 0.0125435633401667 1.2520230292329246 255 255 255
0.1025515910852389 0.1036911502847752 1.4337842464368651 255 255 255
0.0872339572889079 0.0953559636827634 1.4322357827953276 255 255 255
-0.0282761013478663 0.0804266275662519 1.4044938352256777 255 255 255
-0.1810865120975349 -0.0802663459304530 1.3652692398632984 255 255 255
0.1019833356035316 0.1130396223608439 1.4503945387396651 255 255 255
-0.1807244900504371 -0.0335455416558276 1.5098161423394096 255 255 255
-0.0607840269338362 0.0557778986168314 1.6323238528344157 255 255 255
-0.4451135951804799 -0.0261041526785277 1.1934620879057987 255 255 255
-0.4284131559324767 -0.0310594351888203 1.1983173218503582 255 255 255
0.0974958384221588 0.1057152538118226 1.3475550494796105 255 255 255
0.0852691100288783 0.1020901716793131 1.3615098215926309 255 255 255
-0.1374448271678000 0.0251734583929263 1.3528393007208415 255 255 255
-0.3882094694764524 0.0220056994238848 1.2916000658189895 255 255 255
0.0129503633626882 0.0768264960805183 1.4507506711412792 255 255 255
0.0077626741525187 0.0761180780298711 1.4668297895288316 255 255 255
0.0035155474066593 0.0715642035057027 1.5036792163070647 255 255 255
-0.0454521587071329 0.0284674954275692 1.6249221431104484 255 255 255
-0.1788170510691509 -0.1087065311761296 1.2631676060090702 255 255 255
0.0444750438751652 0.0186441176587977 1.4072881129580304 255 255 255
-0.0233344831568104 0.0605450084190804 1.5004363602483080 255 255 255
0.7088942046190834 -0.1292986095294555 1.3430430356909462 255 255 255
0.0699640205599935 0.0857918005076660 1.1948941902717765 255 255 255
0.0910951551502055 0.1097732325079305 1.2101091478107693 255 255 255
0.7194467695841712 -0.2700904979768234 1.3670278167754848 255 255 255
-0.1186433733448169 -0.0299722389704602 1.2031447513338998 255 255 255
-0.1466827654861201 -0.0465623319629234 1.2017306727947694 255 255 255
-0.1169539409670997 0.0071371946989073 1.2298655892711687 255 255 255
-0.4809108069993903 0.0408978602602331 1.1328596638601505 255 255 255
-0.0198179510128916 0.0632521808576809 1.2773083989360094 255 255 255
-0.2963458593628869 -0.0778855787033156 1.2107909708377380 255 255 255
-0.0466769626600636 0.0679573412455908 1.2804739925597330 255 255 255
-0.2866745352175841 -0.0831251450017294 1.2242460459336388 255 255 255
-0.0608240824276826 0.0646157927113467 1.2887950626682314 255 255 255
-0.0042713370497127 0.0793658013476927 1.3090104475351527 255 255 255
-0.0397437788831105 0.0764199213492548 1.3043193971060878 255 255 255
0.6122331028556040 0.1401103602452158 1.4907529948685998 255 255 255
-0.1031105728844710 0.0487288738778785 1.2931781273001515 255 255 255
0.4175129817719627 0.1456018952089570 1.4380851558927206 255 255 255
-0.4531396746613817 -0.0155076152246704 1.1963732117963852 255 255 255
-0.0971395986835815 0.0586880508157949 1.3023435931766565 255 255 255
0.6052737676730101 0.1657009540089364 1.5051796378166467 255 255 255
-0.2759288229227627 -0.0835366096899667 1.2732595849404953 255 255 255
-0.1181295765177846 0.0419473355498914 1.3224397183028493 255 255 255
-0.4493147707937128 0.0218781245326497 1.2174570412018266 255 255 255
0.4135310374331737 0.2095786595081364 1.4648728337148642 255 255 255
0.0492184865065681 0.0765985746852279 1.3700479306692510 255 255 255
-0.0419755242358491 0.0787550797596027 1.3445973686318380 255 255 255
0.5685679673669655 0.1858005201650468 1.5213602126757171 255 255 255
0.5475975436477287 0.2020159592923353 1.5252211195418914 255 255 255
0.5283611707538666 0.2111379901283992 1.5291625461168434 255 255 255
0.5525122495457531 0.2134075663592614 1.5400020115612534 255 255 255
0.0943102908661162 0.0927235819512816 1.4185258851625431 255 255 255
-0.4747390065392014 0.0188695517542549 1.2560938546075964 255 255 255
-0.4339934286315884 0.0147985607808152 1.2697054354466655 255 255 255
-0.4503813912573427 0.0149116595958511 1.2682485359008369 255 255 255
0.3823255562858198 0.2352218649436372 1.4974539053167113 255 255 255
0.1622716827256751 0.4059817777424690 1.4132363512060457 255 255 255
0.5212990927897923 0.2125150377704576 1.5529827307982731 255 255 255
0.5440795679218587 0.2297768269999403 1.5584951523796264 255 255 255
-0.3355272043428761 0.0102751511705503 1.3157515444729577 255 255 255
0.1010911420273751 0.1170211602319203 1.4472753336346604 255 255 255
0.3322913614363821 0.2628340550221426 1.5034399943955616 255 255 255
-0.1784173213202509 -0.0853118802204396 1.3981896259219042 255 255 255
0.3915517295358715 0.2795735226278212 1.5248533284741950 255 255 255
0.5261280247496246 0.2444776354952589 1.5928419851646831 255 255 255
0.3701412638199089 0.3017521363770052 1.5415654756818646 255 255 255
0.5249419501322219 0.2560668197585030 1.5981212608411997 255 255 255
0.0725459434677508 0.3878984116946440 1.5186383867285178 255 255 255
-0.0178434088281701 0.0282392545866467 1.2165940631771646 255 255 255
-0.1295987309043727 0.0146834102760779 1.2441171846318553 255 255 255
-0.3343718167137532 -0.0459546346258569 1.1941310490947779 255 255 255
-0.4358994806668774 -0.0552435682142137 1.1721455221237445 255 255 255
-0.0055857193114231 0.0660918826871747 1.2981747541715076 255 255 255
-0.4463932027207059 -0.0264391733752899 1.1912285020316136 255 255 255
0.1427869297251286 0.3333075211146171 1.3552906132861233 255 255 255
-0.3286599223966477 -0.0316151938551739 1.2438087357358094 255 255 255
-0.2597212845332322 -0.0851377451517401 1.2669210231939931 255 255 255
-0.4389715061504051 0.0053243947171084 1.2274789209410868 255 255 255
0.0455400974006814 0.0812937378655553 1.3657149603940932 255 255 255
0.3723704582336295 0.1702761288343633 1.4582156450953172 255 255 255
-0.3833611662067093 0.0039123135745403 1.2489594787450415 255 255 255
0.3974167210950305 0.2273204858760844 1.4907710607203306 255 255 255
0.4440123787715110 0.2348446935725552 1.5114165519603733 255 255 255
0.4879520466980143 0.2092226464251182 1.5420566548423249 255 255 255
0.3715970268237067 0.3228430594326331 1.5621440523883012 255 255 255
-0.0201047675162920 0.0509451166381569 1.2595986856259767 255 255 255
0.0114418720702040 0.0663904180528708 1.2955705281169567 255 255 255
0.0879791125694310 0.0927414714253298 1.3189137085822786 255 255 255
-0.0467884887653877 0.0709701490870506 1.2916484183902435 255 255 255
-0.0804312581739259 0.0601409975778029 1.2941322578374967 255 255 255
-0.1165569043055148 0.0478952634564785 1.2909844355023161 255 255 255
-0.4088191882234666 0.0099937791798675 1.2568256590884836 255 255 255
0.0726481507338228 0.0689757578677041 1.4355892828240469 255 255 255
0.0771411694898782 0.0848271645403216 1.4601551945182614 255 255 255
-0.0612478364487790 0.0350396385285562 1.2407356356711352 255 255 255
-0.0329901605010777 0.0396420689050397 1.2488660454610354 255 255 255
0.0081119238412237 0.1048612150303623 1.2719096921363779 255 255 255
-0.1288301694774036 0.0174772380895439 1.2600627957455377 255 255 255
-0.0484209427771196 0.0340823164406347 1.3102702613880153 255 255 255
-0.2602656888643156 -0.0852736798820397 1.2691485265779603 255 255 255
-0.1641521613530765 -0.0524686631420794 1.3037033954300952 255 255 255
-0.3861873329751934 0.0050827486642808 1.2497919201906880 255 255 255
0.0690610426079684 0.1038571557588961 1.3961765086248448 255 255 255
-0.3410939596903938 0.0077789934774294 1.2916324150018641 255 255 255
-0.0198140661711746 0.0801068334845691 1.3849056520798988 255 255 255
0.3580802157819669 0.3179560261218230 1.5556201174283171 255 255 255
0.0426821589590186 0.0597877803877352 1.3348682488579460 255 255 255
0.0791391427427910 0.0559555284992269 1.3642839403902185 255 255 255
0.0111234787900826 0.0377995630351455 1.2591385453074446 255 255 255
-0.0641666508968401 0.0483839707647187 1.2722400888045311 255 255 255
0.0202648056130443 0.0683579897150722 1.2886634214168400 255 255 255
-0.3243274329500017 -0.0231432714306049 1.2260332960889617 255 255 255
0.0379068286491962 0.0824525899760878 1.4635964163501312 255 255 255
0.7737640446636894 -0.6066173533856550 1.2350657810891312 255 255 255
0.8005840463900858 -0.2163621889784591 1.1418997483581721 255 255 255
0.0298255177116780 0.0382249984899537 1.1576664215391699 255 255 255
-0.4657993907380756 -0.0348419437864056 1.1219105772332274 255 255 255
-0.0419753530014182 0.0200944529850712 1.1713842882423133 255 255 255
-0.0542131051866183 0.0104408015266615 1.1749243542426895 255 255 255
0.0113251728397736 0.0445725359931630 1.1742049509466044 255 255 255
0.6661463163362142 -0.2213793637571341 1.3688066012424889 255 255 255
-0.3833296835030591 -0.0717655660390432 1.1741274371018682 255 255 255
-0.2934020918455870 -0.0782886901893994 1.1933143597401690 255 255 255
0.6928776314600593 -0.2761749935075988 1.4113842365910247 255 255 255
-0.4713442740061109 0.0327014178992358 1.1290787304342644 255 255 255
0.0815404866155868 0.0133153455340018 1.2348889173769682 255 255 255
-0.1721461486286039 -0.0527835613309673 1.2191238950157386 255 255 255
-0.0608565548756596 0.0163823766562817 1.2042814957579995 255 255 255
-0.0780066465676124 0.0064375293295845 1.2086619863967218 255 255 255
-0.0378752445000721 0.0324100735967596 1.2075522945598778 255 255 255
-0.0822133681716941 0.0255994772823946 1.2141989044476613 255 255 255
-0.1596973384327745 -0.0060201571820243 1.2230480511618549 255 255 255
-0.2933777683742151 -0.0846829447315132 1.2406694632298894 255 255 255
-0.1481360389825665 0.0606345672930282 1.1842409921179193 255 255 255
-0.1385597461079207 -0.0166736552990140 1.2355156250465547 255 255 255
-0.0923935460743350 0.0155280376422378 1.2273323558259417 255 255 255
-0.1829644779288558 -0.0406467855076046 1.2501402820170193 255 255 255
-0.0754987728771292 0.0242123620433918 1.2351507560111665 255 255 255
-0.1195612051750620 0.0129324190872170 1.2431898826143732 255 255 255
0.0630070722673024 0.1058848657097940 1.2356589583735276 255 255 255
-0.0886458061666019 0.0307775294395380 1.2499770450845018 255 255 255
0.0526388990913031 0.0998675013742084 1.2398994981070326 255 255 255
-0.4064126429441067 -0.0158517575527107 1.2252489765366057 255 255 255
-0.1012813126677069 0.0288675105642936 1.2541256227550299 255 255 255
-0.1247114179839191 0.0215642699836148 1.2574386876239381 255 255 255
-0.3842314165438447 -0.0163071119325431 1.2437671497933986 255 255 255
-0.0655643595685944 0.0513098302602061 1.2654291855554320 255 255 255
-0.0315933758915368 0.0524573914646486 1.2730582537009156 255 255 255
-0.3914822815172125 0.0018453723851359 1.2438353035434417 255 255 255
0.1449841432952554 0.1659635255941020 1.2481518295835985 255 255 255
-0.1267994394357265 0.0286479919150920 1.2759213410279124 255 255 255
-0.3966475955118193 0.0034307814420018 1.2594112152047523 255 255 255
-0.1302434359885790 0.0251320277781578 1.2959898476729896 255 255 255
0.6724508070042524 0.1064214909536635 1.3852380234235182 255 255 255
-0.2143171744524155 -0.0713698479371273 1.3288245717415501 255 255 255
-0.0239312138351129 0.0207428184090672 1.3405615679505702 255 255 255
-0.4035223682260863 0.0029454070572426 1.2734195997827435 255 255 255
-0.0226755269637026 0.0787300799830677 1.2959506157621650 255 255 255
-0.0679032913463054 0.0635353789153936 1.2976532446386488 255 255 255
-0.1248606534614935 0.0316008858053929 1.3132952809764447 255 255 255
0.3443194861745606 0.0428566211008421 1.3834568580162447 255 255 255
0.6549597404102558 0.0152165558463026 1.4502435097215947 255 255 255
-0.5286590368276373 0.0722679598531181 1.2303662632593928 255 255 255
0.4048573186182933 0.0250529241780260 1.4073167705024927 255 255 255
-0.1036445194332231 0.0574933427581736 1.3210222849477680 255 255 255
-0.1255872342723396 0.0380822167979932 1.3381360586248621 255 255 255
-0.0937097258883052 0.0618166852862892 1.3449969996360460 255 255 255
0.1516179743853202 0.2473722478846733 1.2851496939198113 255 255 255
-0.0599033529978329 0.0765441780776540 1.3538911580999184 255 255 255
-0.1572252413308427 0.0077074337045102 1.3819236906441561 255 255 255
0.0236687651568939 0.0835660628996508 1.3702507192100593 255 255 255
0.4542240483488212 0.1285540173441461 1.4366700740802076 255 255 255
0.5895425346447878 0.1197062467034477 1.4734278416516053 255 255 255
-0.0380683710588467 0.0793441823810561 1.3915901836311415 255 255 255
-0.0899480746070951 0.0323148883035747 1.4239176671729650 255 255 255
-0.1045289397996039 0.0560496105539725 1.4172995233490409 255 255 255
0.0594397163952840 0.0830195808773289 1.4267500521215877 255 255 255
0.5662694090854078 0.1516407625621853 1.4835321557829890 255 255 255
0.0214818095592503 0.0845603491046430 1.4289019493176227 255 255 255
0.1519368530669150 0.3040000496486558 1.3164541248660377 255 255 255
0.5735941435953749 0.1620076684563481 1.4917292844927050 255 255 255
0.1426584125740470 0.3044797834915527 1.3244756327804901 255 255 255
0.3974953899918434 0.1831766591373250 1.4522367064849850 255 255 255
0.5580813125877920 0.1726613649463305 1.4960254931241230 255 255 255
0.0694216156784428 0.1052083842724901 1.4561111668322642 255 255 255
0.6117546566603586 0.1827797147823825 1.5087815447771535 255 255 255
-0.0083220020762182 0.0527605288697169 1.4849175800511381 255 255 255
0.1608413333167957 0.3345547766626885 1.3494586222973468 255 255 255
0.6107929875909920 0.1892152039752399 1.5398973132808753 255 255 255
0.0813526786630609 0.1120368937964205 1.4986276372496345 255 255 255
0.1184523928010980 0.3154732759759262 1.3655534069907673 255 255 255
0.1242588823021486 0.3256765178761659 1.3645722418044752 255 255 255
0.4491344469050559 0.2269815202336126 1.5051698856365194 255 255 255
0.0751236284295836 0.1070634133511709 1.5296698351124880 255 255 255
0.3580575578373132 0.2623064779134493 1.5064185473970801 255 255 255
0.5916008698759349 0.2326581321714508 1.5864124887929723 255 255 255
0.1276808453627606 0.3736852559699643 1.3882796218351601 255 255 255
0.6065729803251212 0.2476909369759982 1.6170369181698818 255 255 255
-0.0421132627890895 0.0883056498121555 1.6469187912196606 255 255 255
0.0910748270824737 0.3493021462542600 1.4635160772614475 255 255 255
0.0771911205751004 0.3043535841285078 1.5018903873228413 255 255 255
-0.0454783244270070 0.0996055307448484 1.6640514971466591 255 255 255
-0.0382867578243368 0.1130705721318610 1.6678557792943494 255 255 255
-0.0677829777943149 0.1124815044175133 1.6849712551049283 255 255 255
-0.4206853463018115 -0.1183406634719712 1.0894505611322101 255 255 255
-0.3188833682026967 -0.0764515130959770 1.1873021473613468 255 255 255
0.7007834834870240 -0.2593689408130906 1.4060588607633635 255 255 255
-0.3342294232368532 -0.0755350145369107 1.1951711209299987 255 255 255
0.0976166130741889 0.1059254672011306 1.1982220255076581 255 255 255
0.7240582106581824 -0.1811911186479055 1.4136679133521770 255 255 255
-0.4193525498625739 -0.0117914928721008 1.1863926281131192 255 255 255
-0.3176048335256593 -0.0776172496458619 1.2339406938479778 255 255 255
-0.0633087466778060 0.0382164425915066 1.2381072598190213 255 255 255
-0.3571450270311963 -0.0374819695351078 1.2305311760306497 255 255 255
-0.4195820430333680 -0.0014151392872670 1.2331486142525101 255 255 255
-0.1127111923878790 0.0374857190658742 1.2807121123687055 255 255 255
0.0468931089826123 0.0609922707187586 1.3336279216811566 255 255 255
0.5442980043865603 0.0803392487256665 1.4782757423562545 255 255 255
0.3894571943824401 0.1333894425132894 1.4313295305137221 255 255 255
-0.4675764899312693 -0.0281477216486539 1.3858595488258956 255 255 255
0.5440647376030344 0.1313743056878612 1.4759992908243518 255 255 255
0.5240288443366085 0.1468276551404459 1.4849108398605133 255 255 255
0.1946275020994112 0.3140643247069024 1.3419233149784107 255 255 255
0.4485543008726865 0.1894446601136256 1.4850191376940376 255 255 255
0.3565612228572603 0.2076917071090039 1.4845309699971845 255 255 255
0.3471996173866105 0.2614430387931361 1.4586723877412717 255 255 255
0.3766532579962729 0.2219628250070078 1.5175404841388476 255 255 255
0.1753663045929043 0.3685362520212829 1.3854915400325718 255 255 255
0.1589098722115269 0.3812664549349116 1.3840366461278109 255 255 255
0.0421886008467010 0.0769866095664980 1.6237740346015630 255 255 255
0.1243069092856889 0.3923249291259258 1.4189443414876908 255 255 255
-0.0120500637054876 0.1355130143328714 1.6987132247282342 255 255 255
0.8364671050836359 -0.6678044768721861 1.2335113318592426 255 255 255
0.7034353901686031 -0.0308413806896169 1.3227132962361601 255 255 255
0.6898129873357560 -0.0963622833750364 1.3590134672680512 255 255 255
0.0111391928182913 0.0750019660377273 1.2120051220667034 255 255 255
-0.1042400390413458 -0.0077979907543757 1.2308551425782273 255 255 255
-0.0952495289357513 0.0245561710098247 1.2405648952258810 255 255 255
0.0044871956326221 0.0690570151444475 1.2363175830411068 255 255 255
-0.1196334389487107 0.0124415523220139 1.2442393368419262 255 255 255
-0.1541100445558554 -0.0183040304765692 1.2610947419858591 255 255 255
-0.1395443910824272 0.0194514242642337 1.2473177307356411 255 255 255
-0.1133838439781824 0.0219416562865353 1.2564531951648532 255 255 255
-0.1006212171982852 0.0283785036952457 1.2535839264633222 255 255 255
-0.0790989937563186 0.0477437091655565 1.2680831289709906 255 255 255
-0.4454054819015135 0.0020202600640901 1.2407980384119350 255 255 255
-0.1463905795918605 0.0225885997694876 1.3108801072152301 255 255 255
0.6657261357008111 0.0058965798760476 1.4547354694749024 255 255 255
0.6228903330859554 0.1355288383879050 1.4721217733060701 255 255 255
0.1076638055374664 0.0963520740655797 1.4162605575867275 255 255 255
0.1499772253913018 0.3230307553403620 1.3868898383823776 255 255 255
0.1289024897738641 0.4083127426068022 1.3792692104811775 255 255 255
-0.3073244318328515 -0.1010126378105248 1.1556590159900586 255 255 255
-0.4509390190773362 -0.0329139600296231 1.1730455426263580 255 255 255
0.0287828990405930 0.0633258355569619 1.2451055885520013 255 255 255
0.0468651243197516 0.0757449153067261 1.2527052635464242 255 255 255
-0.2408870211827934 -0.0900656714016039 1.2915591761880005 255 255 255
-0.0729426909261022 0.0513096403820710 1.2774433574645456 255 255 255
-0.1145914562481801 0.0374069338334491 1.2810211712608151 255 255 255
0.0321864920395402 0.0603932757831437 1.3015911733685035 255 255 255
-0.0498206291930526 0.0748612713110856 1.3089527593700678 255 255 255
0.1696125926334089 0.2014201666505503 1.2742269309927119 255 255 255
0.1199737677980520 0.1591514484280579 1.3281793964955824 255 255 255
0.5335800664349346 0.0721581702126168 1.4944681334771448 255 255 255
0.4570297736159934 0.1334739280941685 1.4590394237562290 255 255 255
-0.0360121342761932 0.0843225388390258 1.4259760104722465 255 255 255
0.1545126965344601 0.3096956656132478 1.3225898268940703 255 255 255
0.3719641628308238 0.1725215464429570 1.4560529259859103 255 255 255
0.4465018823996464 0.1881438613449508 1.4821029233748462 255 255 255
0.3212002067574820 0.1958406153205182 1.4630221376083470 255 255 255
0.5207465540009611 0.1782115032147533 1.5103437080007631 255 255 255
0.0723931180550024 0.1147744840173256 1.4737854649596394 255 255 255
0.3902727508676412 0.1939527864144760 1.4809478621933025 255 255 255
0.4659235416846572 0.2377177632238265 1.5111232135344796 255 255 255
0.3649407429146477 0.2437717261187255 1.4915687868491065 255 255 255
0.1463464272896287 0.3657256213916353 1.3810079697507807 255 255 255
0.0527832957285837 0.0646830665811362 1.5961824942170517 255 255 255
0.1213654249609680 0.3347226219972180 1.4139603801192402 255 255 255
0.0804438120842530 0.0960790465800905 1.6422801312032520 255 255 255
-0.0045335874158859 0.1119001521357731 1.6599132135884909 255 255 255
-0.3552382773610381 -0.0210084423366571 1.2285085158250679 255 255 255
-0.3974598635278123 -0.0464379783847547 1.2368765177108505 255 255 255
-0.0208685874616086 0.0759462445428069 1.2904196166040680 255 255 255
0.4425337987976856 0.1426603946560147 1.4429169641959441 255 255 255
0.1301643978124760 0.3084248419762984 1.3485968932177632 255 255 255
0.1089054046143448 0.2961709341526191 1.3797408065643506 255 255 255
-0.4633159395880812 -0.0413216535233188 1.0667839810045001 255 255 255
-0.2813706245201293 -0.0775886424777681 1.1889903188980937 255 255 255
0.0718152389474063 0.0686946384693034 1.1720145147987899 255 255 255
0.6746618620207508 -0.3094525618637139 1.4560022380016548 255 255 255
0.0619103761094651 0.0785761357082760 1.1768634912481448 255 255 255
0.0956698185768040 0.0868148032414899 1.1779560460917091 255 255 255
-0.1171365213467533 0.0042913814638327 1.2318939986720012 255 255 255
0.5743682344342725 -0.2666878814649258 1.4528590028850716 255 255 255
-0.1083615633479286 0.0361682045087644 1.2608662435590625 255 255 255
0.4290852358100195 0.0191856228159471 1.3937664970550012 255 255 255
0.1495174032712466 0.2066818996563320 1.2575130236424337 255 255 255
0.6523550195681690 0.1314185652139796 1.4135414279745451 255 255 255
0.4259739930479514 0.1723545388817521 1.4482352516189576 255 255 255
0.6235045242894198 0.1931486078678889 1.4787449649137632 255 255 255
0.6163402443956427 0.2371402389886991 1.4883071084380417 255 255 255
-0.4128811165220026 -0.0366659332743549 1.1997250636804107 255 255 255
-0.0599250807540277 0.0513886052891697 1.2527236612159935 255 255 255
0.1675467090333685 0.1606349640343398 1.2225186563330397 255 255 255
0.5855822398260543 0.0609801391391606 1.4503940080214075 255 255 255
0.6217845526651422 0.0873224368528022 1.4734515343804773 255 255 255
0.3821826190730027 0.2051901309905277 1.4672508379121754 255 255 255
0.5803918789127652 0.2026838737626346 1.5266474707851756 255 255 255
0.5718426180092284 0.4776350415593301 1.5377191878080654 255 255 255
-0.4466529986816390 -0.0506639358714315 1.1600115011659706 255 255 255
-0.4240923861775708 -0.0127679200756327 1.2126731075945414 255 255 255
0.6772958332280995 -0.2339527489601483 1.4240715233096004 255 255 255
-0.0647315155087269 0.0570793002287565 1.3025890694996667 255 255 255
-0.0020676042412556 0.0863617439861341 1.3954618343243237 255 255 255
0.5973968811930931 0.0741408580125380 1.4476310382992985 255 255 255
0.3958794520636157 0.1845622936226161 1.4498515852642282 255 255 255
0.1813993742174426 0.3195975218394567 1.3390988403731006 255 255 255
-0.4151764992728728 -0.0688691556054044 1.1719347959812054 255 255 255
-0.4434491087022809 0.0149382894430938 1.3707536740820956 255 255 255
-0.3871129918324575 0.0095982340973208 1.3989326836474545 255 255 255
0.3882976377069061 0.1309102630456952 1.4313065809286420 255 255 255
0.6100103852109707 0.1604921615023933 1.5106782694664422 255 255 255
0.6256411037252102 0.2270435569723804 1.4644597481236019 255 255 255
0.0435637218252549 0.0820004186306134 1.6171458499284488 255 255 255
0.5773038696347170 0.3885712719509841 1.5572387714928948 255 255 255
-0.4870290404283890 -0.0121213317342461 1.3372286561655471 255 255 255
-0.0651514311622143 0.1237797323365985 1.7704132823374528 255 255 255
0.6175878971027194 -0.3931673002620549 1.6344516819210433 255 255 255
-0.4585238271391273 -0.0835548532738042 0.9995683263183266 255 255 255
-0.4737471374479763 -0.0794059170616841 1.0206020879692550 255 255 255
-0.4243651937543586 -0.0859303761192530 1.0723415606682125 255 255 255
-0.1733985076819598 -0.1220277712921660 1.2507927710961282 255 255 255
-0.4589972746538508 -0.0833185287448099 1.1152385583092213 255 255 255
-0.1317100754078019 -0.0771565178265524 1.2473597600129611 255 255 255
-0.4677843027256057 -0.0423147124903311 1.0721592819619634 255 255 255
-0.1499566029347598 -0.0519028378661814 1.1811526466198703 255 255 255
-0.1562212546932141 -0.0435896746939216 1.1654497455411923 255 255 255
-0.1388308409312277 -0.0403172629500200 1.1660013356564365 255 255 255
-0.1347603974905429 -0.0293578259404680 1.1901018486955381 255 255 255
-0.1296537410117958 -0.0120991091561005 1.1833476287154172 255 255 255
-0.1231724396996968 -0.0229890315559814 1.2466329995101884 255 255 255
-0.1407283180749491 -0.0131871072707740 1.2400381274165151 255 255 255
-0.0806802466271646 0.0058922108164027 1.1964647339863892 255 255 255
-0.3157321661711134 0.0117453184397632 1.2461240256615378 255 255 255
-0.0262849427298745 0.0198221391738420 1.1363462647738309 255 255 255
0.0247927449864309 0.0229201609723885 1.1309079295684723 255 255 255
-0.1374353139731892 0.0082465568449317 1.2914769122171483 255 255 255
0.0468469651883120 0.0507648015457445 1.1472842272051806 255 255 255
0.3524586914751631 0.0317142311456596 1.3847988702476839 255 255 255
0.0461259616313882 0.0592070584186774 1.1692829050586637 255 255 255
0.5464282728386208 0.0421189208875991 1.4247908486035787 255 255 255
0.6204187078881482 0.0514200001350447 1.4367412746139758 255 255 255
0.0640297542559710 0.0880318067129207 1.1841146605652728 255 255 255
0.3763444259195474 0.0733386914996751 1.4126663094693765 255 255 255
0.0949076259209290 0.1249983769841007 1.2322363188323531 255 255 255
-3.5909865186251992 -0.6496540478570009 25.7872558096153419 255 255 255
0.6280643909822959 0.1137868124275959 1.4979847324950031 255 255 255
0.4297443633060041 0.1273019107862320 1.4498607896122433 255 255 255
-3.9746505936615582 -0.4177879991938266 28.7081272369009923 255 255 255
0.1309783357680618 0.1585612384209252 1.2263018152876053 255 255 255
0.1969087023423124 0.1573728172439800 1.2101087331131155 255 255 255
-4.2295846335067688 0.2595067104387556 43.1391514438804151 255 255 255
0.0766069453748514 0.2213980110747854 1.4688333895642163 255 255 255
0.6066699184219940 0.2338939158408599 1.5614349797773870 255 255 255
0.0791263523857194 0.2309564342585990 1.1900910418451798 255 255 255
0.3357525460640892 0.2685448969451431 1.5137748382004381 255 255 255
0.1697472297084937 0.2751790624429613 1.2829674472787467 255 255 255
0.3169877619347745 0.3337673293610733 1.6635455174771758 255 255 255
0.3281651157480806 0.3770766438282218 1.6293082359467081 255 255 255
0.5442048715061046 0.3931082762169186 1.5653214003062428 255 255 255
0.6107321188054156 0.5403605362790348 1.5826412144205180 255 255 255
-0.4644931292604065 -0.2534258658063782 1.1680862895333726 255 255 255
-0.2800413163718096 -0.2594559719089841 1.2371164206567447 255 255 255
0.3240929380618163 -0.3179996559451185 1.6444524796129496 255 255 255
-0.1117851061693123 -0.1444443907469529 1.2503565585096110 255 255 255
-0.1405391477538942 -0.0706591263871321 1.1512141356468348 255 255 255
-0.3223594217878602 -0.0877708234221924 1.3220973149582176 255 255 255
-0.4731703884605553 -0.0173699493171988 1.0659245732151650 255 255 255
-0.0162643151075004 -0.0279066564145230 1.1369233230737668 255 255 255
-0.1172198907588875 -0.0161221824577204 1.1680287197333596 255 255 255
-0.4657052708598481 0.0305610822355672 1.0062904376440041 255 255 255
0.5937823233788109 -0.0566795835442834 1.4403365457414687 255 255 255
0.6040659405959519 -0.0301948749637529 1.4226195173795058 255 255 255
-0.4978954389761497 0.0375574891954222 1.0768732110495525 255 255 255
0.0672000894861299 0.0314935287913650 1.1411086577372327 255 255 255
-0.3037395551072846 0.0219935270292048 1.3550888173885922 255 255 255
0.3751073321134135 0.0332113585144237 1.3931000528093245 255 255 255
0.5986983833201238 0.0530088515661408 1.4358128510559955 255 255 255
0.6097259647147905 0.0912943543306197 1.4544734605417384 255 255 255
0.3274601359447619 0.1075160043641606 1.4139876212029518 255 255 255
0.5360625365529033 0.1089630552448910 1.4331548584428178 255 255 255
-3.5703835441223397 -0.6556408041239280 28.3895820361105251 255 255 255
-3.3681064334413477 -0.4282057366583078 31.3622999725401002 255 255 255
0.3216643176173883 0.1425667502557459 1.4280884793602482 255 255 255
0.1531206361069434 0.1516901323446884 1.2127161309552088 255 255 255
0.5491912611947585 0.1652496694209561 1.4856244447252003 255 255 255
0.4620356265559591 0.1741298877275748 1.4697273758615412 255 255 255
0.3698438133362962 0.1745186451619067 1.4580406700150186 255 255 255
0.1492393196078024 0.1869257616544761 1.2466806829146733 255 255 255
0.0625851331604985 0.2008642218318435 1.5146363256206856 255 255 255
0.3223527403326873 0.1974940172388508 1.4643948896157781 255 255 255
0.0857927700487594 0.2045917679905975 1.4493194936919689 255 255 255
-9.9347197609523352 1.0246247780930120 24.3938633921019239 255 255 255
0.1636258024235610 0.2105859943072035 1.2568833657189633 255 255 255
0.0679923559533738 0.2407609119636736 1.4993397865317601 255 255 255
0.1266851862102818 0.3773469125938148 1.3922466106439351 255 255 255
-0.4247077770729279 -0.0644274851954516 1.0230592455771343 255 255 255
-0.3753532820807117 -0.0625459523437023 1.1266603781268223 255 255 255
-0.5924130700456185 -0.0389874301391149 1.1607174698233023 255 255 255
0.4401862987753136 -0.0223204780494945 1.3806414016492354 255 255 255
0.0804297308782282 0.0324553813607572 1.1406351844918159 255 255 255
0.2993081064099765 0.0013286048665318 1.3530956412568467 255 255 255
0.1359015872067182 0.1403879982338736 1.2059366353715248 255 255 255
-5.1000208423382878 0.6416168293644972 48.8693284611202472 255 255 255
0.2173914268936379 0.3920044095328462 1.5144225363262800 255 255 255
-0.4786495472644278 -0.1002535987988084 0.9716258938204787 255 255 255
-0.4094986161971792 -0.1402148933151184 1.0970370361323278 255 255 255
-0.3826090619990659 -0.1360692792909010 1.1122718108971836 255 255 255
-0.2330812218018616 -0.1436733724444703 1.2014113874610759 255 255 255
0.6517166767366681 -0.2659647752681195 1.6147095806042173 255 255 255
0.5194623032057484 -0.1838818511110641 1.5577604694627378 255 255 255
0.5390000692848298 -0.0841094813007897 1.4252754336276174 255 255 255
-0.2431637597789071 -0.0495219162361315 1.3648348236182499 255 255 255
-0.1694407241376635 0.0030137075051208 1.3348754996618244 255 255 255
-0.0296930817721506 0.0377370428828543 1.2065439471322261 255 255 255
0.5444382751313356 0.1086062005207678 1.4444282636769359 255 255 255
0.4448270662660973 0.1447195971997881 1.4431149003356920 255 255 255
-7.8923793241332074 0.8963461020851889 19.3152447314694271 255 255 255
-2.1966109630378190 1.6124142522695040 27.2749662400790456 255 255 255
0.1305070416799056 0.3854618523485434 1.4416294297318870 255 255 255
0.5456220141554876 0.4275377553514806 1.7347830659757886 255 255 255
-0.4113179439619257 -0.1413627493238315 1.0948513227967234 255 255 255
0.2677754865531245 0.0083971254945962 1.3456039705685714 255 255 255
0.5257145941601760 0.4341076492332006 1.8121708211409302 255 255 255
0.1354871250816848 -0.0197671819387352 1.2137457401977259 255 255 255
-0.1718943235680817 -0.0080877648977832 1.3792285745256037 255 255 255
-0.3170577146876741 -0.0002155109250771 1.3437360382555137 255 255 255
-0.4621656778303582 -0.0781574025663061 1.0827739529473148 255 255 255
-0.3396513998652338 -0.0840498654231572 1.1664412190649360 255 255 255
-0.1989999278251712 -0.1201061046475258 1.2510805816961039 255 255 255
-0.4839406952123512 -0.0210206230719112 1.0626073417176254 255 255 255
-0.3020572517140871 -0.0569337085123802 1.2378907836971458 255 255 255
-0.4630975309411752 0.0043730152722149 1.0982144843814254 255 255 255
-0.4347792233316797 -0.0213105368486391 1.1768427582415573 255 255 255
-0.1002042375142311 -0.0035163098428914 1.1875629619283490 255 255 255
0.0164790450912193 0.0332388744318841 1.1536733293760693 255 255 255
-0.1042905300444335 0.0180144533179159 1.2247531044648285 255 255 255
-0.5101220513119625 0.0409777730525208 1.1436166535874968 255 255 255
0.5287874030291101 -0.0087731661478391 1.4234834106958583 255 255 255
0.1155192333131832 0.1300969565473211 1.2079999995772592 255 255 255
0.2035444592441085 0.1902727229551616 1.2620888693278918 255 255 255
0.1706395356850139 0.2021339968730267 1.2463343018934170 255 255 255
0.6164857472255041 0.1711997452538185 1.5535156504041168 255 255 255
0.3788058609020841 0.1842339670586588 1.5044785351489545 255 255 255
0.1373718665509964 0.2433701556124665 1.2730740991433529 255 255 255
0.6216927241532181 0.2156548336212600 1.6334359982051025 255 255 255
0.1757884670237434 0.3287105615227682 1.3551913951078978 255 255 255
0.1408275217816680 0.3489633878483157 1.3634683025346661 255 255 255
0.1416939825756016 0.3917046435673993 1.3887496779881281 255 255 255
0.1506933480956427 0.4215995699885209 1.4448565921274301 255 255 255
0.5088593147544656 0.4732483932514024 1.8309362789597317 255 255 255
0.5678565760434388 0.4866916524138081 1.7405280819735578 255 255 255
0.4505963296890993 0.5950804420252033 1.9113686014149784 255 255 255
0.6452192076815384 -0.3579575319156446 1.4677104016310223 255 255 255
-0.1924275238497334 -0.2502403811390897 1.2743837043522597 255 255 255
-0.4116544515029013 -0.0584616534266494 1.1580128770723919 255 255 255
-0.3925586413970146 -0.0609113764152694 1.1698490856549606 255 255 255
0.6132540894461156 0.1568786752733604 1.5119829166282666 255 255 255
0.1488094877915772 0.2066506699253306 1.2575864472636007 255 255 255
0.5109133095294387 0.2008159802590531 1.5091978514931323 255 255 255
0.1602537779140483 0.2707976416576094 1.2882083347941080 255 255 255
0.5128938202365961 0.4088447648690232 1.7304702293278154 255 255 255
-0.4749246939188086 0.0088877897817907 1.0867914168956800 255 255 255
0.5935294086963936 0.1402231258231562 1.4578920943224527 255 255 255
0.5494083338244313 0.2122775078381894 1.5296391711478314 255 255 255
0.1535331580387206 0.4729168091405462 1.4900452286843022 255 255 255
0.5525418244645979 0.5108837245437334 1.6111592207105541 255 255 255
0.5326015707573137 0.0606121319774400 1.4440066192178633 255 255 255
0.1826767202809060 0.2206648754957326 1.2465917511271378 255 255 255
0.5916532712747719 0.1959869158837041 1.5457240061313424 255 255 255
0.4992141082654719 0.4404458158780020 1.7725024117213153 255 255 255
-0.0001877083621290 0.1415035738052745 1.6611055982648457 255 255 255
0.1564744427677856 0.4420561790684717 1.4572666563961643 255 255 255
-0.0896548564654233 0.0838787202419548 1.8874752485643249 255 255 255
0.0371433878759942 0.2174179637270219 1.6153406176547831 255 255 255
-0.0787532457502544 0.0756655347300346 1.9061423972293470 255 255 255
-0.0719376283005852 0.0973651625549541 1.8056893856518670 255 255 255
-0.0774834631659707 0.0557080081402648 1.8840689945336795 255 255 255
0.1187934707647084 0.2255587305265812 1.5287642415971761 255 255 255
-0.0774864330823925 0.0691124959007442 1.8095733383544879 255 255 255
0.1122541415331535 0.2482911101099419 1.4657810528180575 255 255 255
-0.1274092325967574 0.0751443678307648 1.7319535934973953 255 255 255
0.0668122265301748 0.1694707341578677 1.5707962221836707 255 255 255
0.1701265912548931 0.2653786060303740 1.3729488980300839 255 255 255
-0.0853404262711593 0.0546824730048665 1.7525414492195635 255 255 255
-0.0922593868426898 0.0158983857381426 1.8588675380563549 255 255 255
0.0610961541192147 0.1500923655815199 1.5660706734803966 255 255 255
-0.1010704031309799 0.0520505939707224 1.7126377514194158 255 255 255
-0.0979056938976339 0.0115349622064617 1.8054670705064892 255 255 255
-0.0955924366855668 0.0001823531969420 1.7937567993977801 255 255 255
-0.0917493112143094 0.0046259836486183 1.7773922997521623 255 255 255
-0.0835359634214613 -0.0346916195026995 1.8714410729865880 255 255 255
-0.1205922214568084 0.0046963490851296 1.7184099348891146 255 255 255
-0.1216082420443777 0.0071939200258725 1.6845063382740160 255 255 255
-0.0889268672923554 -0.0142769777131176 1.6540206797490709 255 255 255
-0.0912849161258509 -0.0389910570519782 1.7060463018412029 255 255 255
-0.5051088237604592 -0.0671819100536786 1.4134274904210578 255 255 255
-0.1780679983529918 -0.0657658928117876 1.6156516679449116 255 255 255
-0.5411771455437095 -0.0833302557126634 1.4006749018246298 255 255 255
-0.6804517168080110 -0.1119622157282721 1.4003525439156372 255 255 255
-0.2230110916559863 -0.1070183343805977 1.6115506490689637 255 255 255
-0.2499838369032141 -0.1038612353793091 1.5484303431189388 255 255 255
-0.2568882064420885 -0.1350090409524210 1.6030827081349721 255 255 255
-0.2243828474422057 -0.1204442045752237 1.4716566519639658 255 255 255
-0.2326474539909024 -0.1584894104816386 1.6545450410277571 255 255 255
-0.2451755976956636 -0.1123415482186911 1.4707694024269313 255 255 255
-0.2736673944645680 -0.1484170625021410 1.5469348704808514 255 255 255
-0.2717349858740832 -0.1442876420454479 1.5327714809105601 255 255 255
-0.6484768420720144 -0.1148161878135021 1.2488305114546228 255 255 255
-0.2678957203998313 -0.1595914683865242 1.5625168664988347 255 255 255
-0.2670422888939728 -0.1384063827625047 1.4766969258459963 255 255 255
-0.2742782011440854 -0.1627874326387039 1.5494400216972810 255 255 255
-0.2756583341663770 -0.1652694202088029 1.5353175244002020 255 255 255
-0.6511516120239693 -0.1261195718153772 1.2556708133748404 255 255 255
-0.2224246445901547 -0.2036317967922187 1.6901958356939975 255 255 255
-0.2412682843710497 -0.2070451740940655 1.6824558074817062 255 255 255
-0.2752353227270481 -0.1566532125064710 1.4702942577862548 255 255 255
-0.2800988520395676 -0.1777195597068947 1.5399116000763877 255 255 255
-0.2787023353251110 -0.1787087365930437 1.5255245966168880 255 255 255
-0.2854761389429770 -0.1882889313727937 1.5460124385108978 255 255 255
-0.2803359909842072 -0.2074711163598303 1.6197530908726956 255 255 255
-0.2596088801385847 -0.1803756998642643 1.5024091526737091 255 255 255
-0.2908243036688608 -0.1760009155166296 1.4516163662323149 255 255 255
-0.2872284223320706 -0.1929719393916281 1.5188588605842765 255 255 255
-0.5534406644823584 -0.1154074021888645 1.0990359852254259 255 255 255
-0.2850951444959350 -0.2063482544895255 1.5334764258215725 255 255 255
-0.2899054786412578 -0.2091032455473143 1.5082158868002360 255 255 255
-0.2910704816721725 -0.2186721246032859 1.5272936284961289 255 255 255
0.0985901288064143 0.3826927628368790 1.4075226288817755 255 255 255
0.1627618199364189 0.3833928713789582 1.4222063787550578 255 255 255
-0.0841370640430021 0.1055565851958357 1.8197734977055147 255 255 255
-0.0702676398145317 0.1016835517706372 1.8427214590282295 255 255 255
-0.1035529140968065 0.0960531898995386 1.7285937217425129 255 255 255
0.1971253245020277 0.3125316065762049 1.3256070535538509 255 255 255
0.0831252739117264 0.1822260960129121 1.5280036451357852 255 255 255
0.0749284671531153 0.1567464636844354 1.5490533235129367 255 255 255
-0.1270441965541650 0.0511610043875216 1.6623953455480716 255 255 255
0.1294414471145210 0.1850378595177179 1.4484534700396778 255 255 255
-0.0968904542500257 -0.0258025577504052 1.8528046326494645 255 255 255
-0.1016602702730975 -0.0154989002249565 1.7205587289041560 255 255 255
-0.0882044175520693 -0.0186329844138020 1.6411162054093711 255 255 255
