ply
format ascii 1.0
element vertex 685
property double x
property double y
property double z
property uchar red
property uchar green
property uchar blue
end_header
-0.0877814414617498 0.0576771667307477 1.2807901186340140 255 255 255
-0.3571531601734949 -0.0146422685739006 1.2308832163683170 255 255 255
-0.2861015724165040 -0.0865415450156005 1.2334809769389208 255 255 255
-0.4775911343076510 0.0077957240201983 1.2252161951325080 255 255 255
-0.0452337064907946 0.0830940448680924 1.3566011877534643 255 255 255
-0.0593228110253615 0.0716029170446929 1.3566750407657198 255 255 255
-0.5071444901977201 0.0420919997428952 1.2398208643254738 255 255 255
-0.4274314370512066 0.0271341777357012 1.2624127000205787 255 255 255
-0.4006113216032828 0.0285078790453878 1.2776450887528370 255 255 255
-0.3640578047671234 0.0214257264397791 1.2848948495552681 255 255 255
0.0961050368983879 0.4434786152861826 1.4919257840892206 255 255 255
-0.4480190045260116 0.0312552764079223 1.2724340652012818 255 255 255
-0.1700265174928821 0.0174075834182576 1.3642272876218271 255 255 255
-0.1230132972487364 0.0544813547023468 1.3841582185783778 255 255 255
-0.1869167758326315 -0.0044450814092513 1.3622311173849946 255 255 255
0.0137060861773256 0.0826143910688975 1.4317381730657774 255 255 255
0.0303158699043332 0.0899044335351127 1.4466076775776957 255 255 255
0.0853330877772354 0.4232050055249810 1.5240353868198395 255 255 255
-0.5922891767923043 0.0669767662762142 1.2879275885117190 255 255 255
0.0290456561753789 0.0902048995232212 1.4787049386049504 255 255 255
-0.3913240097409083 0.0294173767397437 1.3519265478166023 255 255 255
-0.0723227294136741 0.0653659153701577 1.4601376451355159 255 255 255
-0.0036139567136013 0.0726368898079004 1.4950595486988592 255 255 255
0.0264428225382372 0.0452559863123412 1.5865678962118361 255 255 255
-0.0233701391931985 0.0401085403027777 1.5726160735582904 255 255 255
0.4002351742925144 0.2567915188204994 1.7725083289645820 255 255 255
0.0257026822970282 0.3465918320184561 1.6660555541911533 255 255 255
-0.1148990135151900 -0.0101393129781139 1.2019459204677683 255 255 255
-0.0275650033577524 0.0446559497789363 1.2463980497428846 255 255 255
0.1263695739952063 0.3079036878090411 1.3589533046546536 255 255 255
-0.0881724609101551 0.0383494342444566 1.2403373103295168 255 255 255
-0.1384305186706900 -0.0120838667728490 1.2186113735955517 255 255 255
-0.0534549028094438 0.0652859495997428 1.2764516556271712 255 255 255
-0.0986005844530270 0.0461887103017107 1.2650882820711944 255 255 255
-0.1792160374440407 -0.0331037775700446 1.2357992781167906 255 255 255
-0.4915449862468792 0.0086483578209623 1.2200035292781535 255 255 255
-0.0675402036714739 0.0757561819922057 1.3387153482571041 255 255 255
-0.5342689850101757 0.0751694725955991 1.2269238064772268 255 255 255
-0.3809511897742199 0.0242236256607615 1.2717970118972350 255 255 255
-0.0547208509234995 0.0798004403556672 1.3712660544489839 255 255 255
-0.3942022606483490 0.0305600325438787 1.2994125553545528 255 255 255
-0.0431526230237406 0.0803688099300634 1.4051586531090599 255 255 255
-0.1084529374566727 0.0605256935207132 1.3892773768424520 255 255 255
-0.3662301382767560 0.0294689016017157 1.3219456797801643 255 255 255
0.0458248872808207 0.1010559293107666 1.4520906647661775 255 255 255
0.0773441273132160 0.1027935558539427 1.4889864584726400 255 255 255
-0.2096916534328924 -0.0402369293275321 1.4385984332815307 255 255 255
-0.1169832676299477 0.0288622458100990 1.5317186912288918 255 255 255
-0.0663997904293472 0.0414878897087163 1.5484000295097913 255 255 255
-0.0954091516823019 0.0184465743841197 1.5745498810355820 255 255 255
-0.0278405964071300 0.1272162888562602 1.6692407329353087 255 255 255
-0.0321596423306027 0.1834073546744386 1.7699624674759358 255 255 255
-0.0148318306752602 0.0343568799046533 1.2315533419127382 255 255 255
-0.0807568649383651 0.0543379075366698 1.2608386860446927 255 255 255
-0.0251080637998028 0.0773340643425267 1.3117611034209822 255 255 255
0.1254914153719924 0.3095017535821341 1.4162579626912359 255 255 255
-0.1975391813606145 -0.0729070953946726 1.2516226988413570 255 255 255
-0.0059440218817431 0.0828217923359953 1.3600231311843956 255 255 255
-0.1553789043824238 0.0145783390859988 1.3231283074107176 255 255 255
-0.2678496577082928 -0.0585022219397415 1.3137423147988740 255 255 255
-0.4304889166201291 0.0284626304632901 1.2903545535399834 255 255 255
-0.1255353205920288 0.0580459124041659 1.3869083504995885 255 255 255
-0.0210632484560036 0.0814420360021436 1.4252677525817630 255 255 255
-0.1660523990494608 0.0172721269057926 1.3945047835263435 255 255 255
0.0736443647928967 0.4115946158515358 1.5311766680813101 255 255 255
-0.1268923950303723 0.0431136186328100 1.4400444432232729 255 255 255
-0.0598074356148780 0.0623180823432617 1.5208715878755656 255 255 255
0.0609166959553231 0.3825849482497318 1.6065037910326370 255 255 255
-0.2034535035830347 -0.0420917977399383 1.5127898840837293 255 255 255
0.0820645512621815 0.3611499073052375 1.6320780194583207 255 255 255
-0.1373859928897876 0.0077501193162675 1.5538297643519570 255 255 255
0.0161774440131096 0.0597666083691366 1.6101237805626665 255 255 255
-0.1552558342986988 -0.0387353604490524 1.5695411766699179 255 255 255
-0.1043164545083337 0.0983556189358485 1.6481423197032161 255 255 255
0.3645911463770075 0.1654181107846688 1.8397084113567190 255 255 255
0.0037690017705981 0.2803156864481381 1.7434675023132182 255 255 255
-0.2155594041023486 -0.1038652456248278 1.2079615064213804 255 255 255
-0.3644308210476389 -0.0031593898834631 1.2428347678699048 255 255 255
-0.2706097426571237 -0.0648512153191657 1.2589016805027406 255 255 255
-0.4318697137333259 0.0276386974291842 1.2907186893005240 255 255 255
0.0078878052787339 0.0756103360332204 1.4333179913127354 255 255 255
0.0324148034681549 0.0717835558048266 1.4543845620084750 255 255 255
0.0558557181549241 0.3546454559421882 1.5422131995488164 255 255 255
0.0782595519893372 0.3951880842014842 1.5606105487350015 255 255 255
0.0476941017474029 0.0762029418143782 1.2847112271160943 255 255 255
-0.0739547206357510 0.0684904066528124 1.2934759667313998 255 255 255
-0.0442692477875888 0.0686138970344606 1.2996355576945031 255 255 255
-0.1517168283623801 0.0042276345277987 1.3215102739838536 255 255 255
-0.0208094920315183 0.0805675867635914 1.4248684653817569 255 255 255
-0.0956436906267902 0.0538371735855133 1.4622538029713790 255 255 255
-0.1609030888956436 0.0227716259749806 1.4662646902128074 255 255 255
-0.0361959719625411 0.0793001093095978 1.5851176809437888 255 255 255
0.3791580316251391 0.2102452403898300 1.7997964946950924 255 255 255
-0.0959870682681370 0.0662131405321236 1.4145204239774229 255 255 255
0.0178173561409628 0.0460903652688420 1.5701939063233383 255 255 255
-0.0990470040605970 0.0762121135064423 1.4073077209249578 255 255 255
0.0272841111223150 0.0575823268675314 1.4628434034230009 255 255 255
0.7622024583757318 -0.2373956005152695 1.1617531238107628 255 255 255
0.7673083781991092 -0.2606485853914194 1.1991113773021982 255 255 255
0.7513413693488938 -0.3327189173656133 1.1990405976003777 255 255 255
0.7472292646252510 -0.4891072861108914 1.1745796684313246 255 255 255
0.0126936554624972 0.0014172626019040 1.1588022622491752 255 255 255
0.0804156184242875 0.0877482922448614 1.1836758735061015 255 255 255
0.0280948296344120 0.0252174206011944 1.1792870853702662 255 255 255
0.7227514684519942 -0.3972578671267921 1.2666762396598725 255 255 255
0.0217786765621255 0.0333326430703624 1.2098370125040903 255 255 255
-0.0265054592435988 0.0392428430996839 1.2221456662600148 255 255 255
0.0330616000970011 0.0703534237834177 1.2495294375106227 255 255 255
0.0923958004040246 0.0811216022073050 1.2792944160483828 255 255 255
-0.0894901833527471 0.0391150183695384 1.2408840146757956 255 255 255
-0.4649443943946231 -0.0226796449084442 1.1631789870738847 255 255 255
-0.5143661661307948 0.0949962138174385 1.1622485276353753 255 255 255
-0.3409193275411431 -0.0894868858328615 1.1904091952538860 255 255 255
-0.1799809003350905 -0.0348057961787179 1.2350831662431794 255 255 255
-0.4085015540632925 0.0039564644644107 1.1892786595039444 255 255 255
-0.5271135170909340 0.0847784002669717 1.1807342600126589 255 255 255
-0.4745141478576387 0.0100332201861833 1.1900983723219887 255 255 255
-0.1776457983646825 -0.0081131617887176 1.2713033427623157 255 255 255
-0.4604348566300082 -0.0001701009679374 1.2251473765697454 255 255 255
-0.2011653689839356 -0.0664927382634111 1.2816547637608988 255 255 255
0.5935791868372239 0.1137692879421107 1.4852657940473211 255 255 255
-0.3506320136904597 0.0032080617358646 1.2570946929506301 255 255 255
-0.4213742458122524 0.0211657857863998 1.2442704759643213 255 255 255
-0.4973905673815297 0.0003842560337697 1.2247918563905944 255 255 255
0.1517368709140900 0.4389558728107452 1.4260285805417621 255 255 255
-0.1136480428861947 0.0601757882376510 1.3587413411521367 255 255 255
0.0856659012582138 0.1079415689814966 1.4420499303966960 255 255 255
0.1274144902227398 0.4597730211136810 1.4540826804004874 255 255 255
0.0827154309556721 0.1122799359151332 1.4538666941628922 255 255 255
-0.2009994162840620 -0.0555739678457540 1.4050310741273608 255 255 255
0.0136191119079554 0.0885662032226989 1.4734452673530671 255 255 255
-0.0632212004284569 0.0632205421507112 1.4877411694812759 255 255 255
0.0130209887673480 0.0769882673340748 1.5150350796302567 255 255 255
0.0734167296532538 0.3454325159615828 1.5255426316072249 255 255 255
0.0756046582204786 0.4086548051695406 1.5309454210353801 255 255 255
0.0118081163268396 0.0702118830125351 1.6199413654198356 255 255 255
-0.0302869685248010 0.0120088025461634 1.2352301327514712 255 255 255
-0.0820649193550652 0.0527128103913813 1.2661853000952925 255 255 255
-0.0976615716079367 0.0659899017652570 1.3122384005476659 255 255 255
-0.3972649236973284 0.0221911165407078 1.2587724555674356 255 255 255
0.0820851338929789 0.0856058711575860 1.4019783897831657 255 255 255
0.0104100499587255 0.0857762896904948 1.3933620789880801 255 255 255
0.1790040383849085 0.4457034449461894 1.4350855453320466 255 255 255
0.0831715353277338 0.0996721144604720 1.4375826625545254 255 255 255
-0.1142912043551955 0.0412498270883484 1.5012324457198294 255 255 255
-0.1830410033357487 -0.0053680167223409 1.5262916914145817 255 255 255
0.0574391748460259 0.0711692733364502 1.2594746886927171 255 255 255
-0.0874493689693937 0.0311759298108573 1.2494513534122658 255 255 255
0.1105748477430193 0.2864932687698695 1.3487724383431769 255 255 255
-0.1131340141019854 0.0538032671319962 1.3090515670785274 255 255 255
-0.0532348329453514 0.0823085755780399 1.3425337881013018 255 255 255
-0.4891412280478427 0.0216721043684422 1.2396049508896556 255 255 255
0.0980478508838568 0.1029280564455090 1.4199338035197107 255 255 255
0.0821723959576317 0.0950672619391813 1.4185517968081318 255 255 255
-0.0347876369471118 0.0830395783408855 1.3907919851509920 255 255 255
-0.1959460172035931 -0.0744929711555344 1.3555117073040142 255 255 255
0.0979047537512969 0.1128598146996166 1.4365005123444687 255 255 255
-0.1940595863194530 -0.0227818922825196 1.4998351651296007 255 255 255
-0.0698162204887884 0.0668114770513316 1.6212584407694719 255 255 255
-0.4564042280854066 -0.0157824054304445 1.1814612389676986 255 255 255
-0.4405953160220071 -0.0253502475043199 1.1869557425277988 255 255 255
0.0941001550277715 0.1001487711213652 1.3330761037698855 255 255 255
0.0812613073719589 0.0981809572297369 1.3471278890793643 255 255 255
-0.1475795172787669 0.0301184619197141 1.3401935215486735 255 255 255
-0.3983525582805620 0.0287967096915977 1.2791029287356399 255 255 255
0.0056607320584266 0.0809433219405611 1.4376140167530334 255 255 255
0.0002665691019554 0.0811235150724773 1.4536252846181623 255 255 255
-0.0037594145134325 0.0764211109077747 1.4912501726588849 255 255 255
-0.0557949859916924 0.0388459116456192 1.6143253972349028 255 255 255
-0.1943896846625275 -0.1067215281424393 1.2536655483776751 255 255 255
0.0342282707813940 0.0216705822949083 1.3949824659101555 255 255 255
-0.0313396033940702 0.0661701044090661 1.4882165239392859 255 255 255
0.6882847205408855 -0.1528199295344940 1.3378633358368828 255 255 255
0.0671773101132178 0.0731310068235157 1.1796128903674579 255 255 255
0.0897130693199558 0.0958620508556565 1.1946141870184963 255 255 255
0.6865538399532333 -0.2870956440985290 1.3654680707576485 255 255 255
-0.1300198854615252 -0.0336021300654253 1.1915611176768979 255 255 255
-0.1589385217434982 -0.0499847583323441 1.1909055786760852 255 255 255
-0.1267398189118489 0.0044296489690338 1.2171099922883892 255 255 255
-0.4908879644773343 0.0435684621636291 1.1184891761506088 255 255 255
-0.0262309825350373 0.0581304186630261 1.2634716722837593 255 255 255
-0.3101996835085376 -0.0716833535116405 1.2003751796708544 255 255 255
-0.0529888705503325 0.0642139376981449 1.2663779013783691 255 255 255
-0.3009079054421127 -0.0765923793748967 1.2140655193020953 255 255 255
-0.0677497249790257 0.0619156633221653 1.2748361421542547 255 255 255
-0.0098222058919857 0.0756044211694848 1.2948919113030908 255 255 255
-0.0459664231648642 0.0735141747289362 1.2902292946182243 255 255 255
0.6131573611103631 0.1179317667174651 1.4797471381920944 255 255 255
-0.1109995636221619 0.0492469690345773 1.2789105719729505 255 255 255
0.4187422583919193 0.1291423336642929 1.4257670244701213 255 255 255
-0.4652980872431927 -0.0098864245799963 1.1848205900324540 255 255 255
-0.1047304899403685 0.0577401166670051 1.2887666281905028 255 255 255
0.6051504762410620 0.1483667572495140 1.4915167577646269 255 255 255
-0.2906373697901780 -0.0749351885260648 1.2631553159489719 255 255 255
-0.1269818933413997 0.0445748190436399 1.3085412668075582 255 255 255
0.4172377615604603 0.1972412205989935 1.4495826858616661 255 255 255
0.0432665623446481 0.0744824214819101 1.3565113014865531 255 255 255
-0.0485294195225066 0.0779749670038575 1.3308376499562735 255 255 255
0.5695002261349096 0.1705966021807202 1.5070530643098434 255 255 255
0.5311069947825795 0.1974452135085658 1.5143259975830761 255 255 255
0.5552233594986108 0.1993688765442930 1.5251534466574943 255 255 255
0.0890971692038987 0.0913547598846881 1.4050363204202851 255 255 255
-0.4859165066408261 0.0281737917134676 1.2436317322190278 255 255 255
-0.4437710575903100 0.0288008553546001 1.2558895534364138 255 255 255
-0.4614794886322380 0.0244843425726102 1.2554168058252981 255 255 255
0.3870357888415452 0.2256301961091569 1.4816089443192115 255 255 255
0.1778729642140719 0.4005313000446949 1.3923909789073481 255 255 255
0.5233452993784217 0.2006983137113510 1.5378191406795092 255 255 255
0.5476556116758620 0.2168009880097181 1.5433357188529060 255 255 255
-0.3470507822856197 0.0184758492121397 1.3037640934148889 255 255 255
0.0970060309899196 0.1166994117834994 1.4333545136604813 255 255 255
0.3386276538199254 0.2551792052836170 1.4870628813957623 255 255 255
-0.1948283090661277 -0.0763347020912178 1.3892575838484083 255 255 255
0.3990345369839468 0.2703829171060038 1.5084093317063296 255 255 255
0.5299143467716000 0.2339212901204794 1.5772511415873536 255 255 255
0.3787454578937423 0.2940840699896730 1.5247548367805330 255 255 255
0.5296481728086299 0.2455360082298020 1.5824894903259843 255 255 255
0.0838379691854920 0.3903439136043991 1.4999877472166046 255 255 255
-0.0252404428439637 0.0202205920083255 1.2033612988414839 255 255 255
-0.1391261885179900 0.0121691031378042 1.2314614051596924 255 255 255
-0.3472538638464400 -0.0434098131632999 1.1833699068345578 255 255 255
-0.4491590361613544 -0.0500918390620687 1.1615957779513773 255 255 255
-0.0117227524558677 0.0634502931059751 1.2835704576238696 255 255 255
-0.4575382834513570 -0.0155242314734715 1.1786839360122658 255 255 255
0.1541352134704835 0.3259653168506231 1.3349333203620277 255 255 255
-0.3408536892971237 -0.0218381495383041 1.2311980343931728 255 255 255
-0.2749143721807460 -0.0802932890164973 1.2576306961542640 255 255 255
-0.4500753423809565 0.0126988175836564 1.2146064369518634 255 255 255
0.0398863120079098 0.0790008843019031 1.3520272006429841 255 255 255
0.3745230164334439 0.1568278436169004 1.4451130889578856 255 255 255
-0.3937068928683204 0.0147230557453813 1.2356056009276959 255 255 255
0.4018480553381795 0.2166907851107963 1.4752161490726909 255 255 255
0.4487615693962337 0.2232482226419906 1.4959381410339638 255 255 255
0.4902832813425463 0.1976210739182640 1.5273117672955470 255 255 255
0.3813343037042327 0.3159421721831071 1.5451065283042213 255 255 255
-0.0268137241415989 0.0453114801760467 1.2458957674843760 255 255 255
0.0054885949535660 0.0615281645333384 1.2817282266403542 255 255 255
0.0840714451457086 0.0863797677438164 1.3045785591356349 255 255 255
-0.0530722344329901 0.0678594551141342 1.2775357535470804 255 255 255
-0.0876875941795705 0.0583906482640643 1.2803495970788334 255 255 255
-0.1247750029242247 0.0473040514731691 1.2775360739206241 255 255 255
-0.4194093626760387 0.0211567198013414 1.2433814154840452 255 255 255
0.0657992652405446 0.0677469966065496 1.4235822186805605 255 255 255
0.0707673343356145 0.0861169045317632 1.4472182976488175 255 255 255
-0.0692214375335983 0.0299978490739640 1.2273592480535602 255 255 255
-0.0403322507910688 0.0340286316334093 1.2353977137362742 255 255 255
-0.1383876258746611 0.0157428588222210 1.2474435415173029 255 255 255
-0.0569460126301877 0.0320200261429419 1.2976239749640748 255 255 255
-0.2754901582533233 -0.0803151258748232 1.2598780596843344 255 255 255
-0.1778930603942276 -0.0488992552405182 1.2932102919393140 255 255 255
-0.3964725648390597 0.0160690547654072 1.2363797086041382 255 255 255
0.0645413728013591 0.1023673578161790 1.3820198416631373 255 255 255
-0.3520730886902549 0.0179529429461698 1.2784648986881872 255 255 255
-0.0264478087571748 0.0814508758485679 1.3707919174974605 255 255 255
0.3674506126668041 0.3113977764635159 1.5385334187408641 255 255 255
0.0362064098315650 0.0560438779238839 1.3212540630072951 255 255 255
0.0723514669467200 0.0524696288097863 1.3514782444947626 255 255 255
0.0040032594076339 0.0312056619525421 1.2459096780658057 255 255 255
-0.0716325675131857 0.0449399795617993 1.2586892945291464 255 255 255
0.0146075602024325 0.0628111791090937 1.2747099547763010 255 255 255
-0.3365499511826694 -0.0198289020131639 1.2147389393196573 255 255 255
0.0309849968707089 0.0855654289335823 1.4505150161889213 255 255 255
0.7211309581754423 -0.6272542100884358 1.2506451448502207 255 255 255
0.7790470543181792 -0.2534087835398552 1.1418909928909673 255 255 255
0.0248235150955685 0.0191194862270883 1.1478972933572533 255 255 255
-0.4754862092170292 -0.0217038432850266 1.1050976320965322 255 255 255
-0.0496565902837032 0.0108264489816270 1.1578675256747504 255 255 255
-0.0625897262500648 0.0022493229729968 1.1615809565432591 255 255 255
0.0056517050394405 0.0323459020348254 1.1604332702239910 255 255 255
0.6566420626509805 -0.2693691552117474 1.3856406105224719 255 255 255
-0.3950158484760454 -0.0588110289385386 1.1594531492730458 255 255 255
-0.3065336845617255 -0.0700987342223614 1.1804753214542689 255 255 255
0.6805549453221812 -0.3256458743967794 1.4331323539239895 255 255 255
-0.4772098730694760 0.0479940928684035 1.1077179136990258 255 255 255
-0.0693435134147610 0.0099277342176563 1.1909620358698751 255 255 255
-0.0871283227946489 0.0028202796364124 1.1943728700965881 255 255 255
-0.0452953853021842 0.0247401448637117 1.1939428298130181 255 255 255
-0.0905447683747597 0.0207846005168047 1.2003362613114426 255 255 255
-0.1701639690525845 -0.0050777165541659 1.2089959318153432 255 255 255
-0.3073006879199914 -0.0742785273771457 1.2283568432524905 255 255 255
-0.1496715873065329 -0.0171905404343911 1.2230201277644170 255 255 255
-0.1014873343862459 0.0118746704500000 1.2139742846101129 255 255 255
-0.0840837233455103 0.0199349167951343 1.2217687236417283 255 255 255
-0.1290860290967573 0.0127756226786899 1.2287776439248523 255 255 255
0.0608146040989242 0.0983790534799013 1.2185053501919316 255 255 255
-0.0974064217343707 0.0308628861363093 1.2339510276576315 255 255 255
0.0498419316240339 0.0891522688177385 1.2250242598360153 255 255 255
-0.4154740911816925 0.0011186799495771 1.2071907277071818 255 255 255
-0.1100622365592386 0.0284852834197862 1.2391541747199737 255 255 255
-0.1340803120881693 0.0213224158591173 1.2435881634284032 255 255 255
-0.3939305670549140 -0.0002863441486964 1.2265121616221584 255 255 255
-0.0728917511021908 0.0495663707981624 1.2501496683379980 255 255 255
-0.0387625343472807 0.0500831065107786 1.2575530342396446 255 255 255
-0.4023419074659972 0.0119400853887247 1.2304820374587304 255 255 255
0.1474535370196889 0.1519706352304288 1.2313741083710954 255 255 255
-0.1360301233416916 0.0294992608894197 1.2618483810795953 255 255 255
-0.4074996102076746 0.0156301799921989 1.2450114145857483 255 255 255
-0.1399109415112760 0.0267915624626281 1.2825387221727436 255 255 255
0.6720085091390278 0.0791727165426192 1.3728947948919317 255 255 255
-0.2295196024983983 -0.0635651134033487 1.3179852075477008 255 255 255
-0.4122757017696818 0.0215415763522713 1.2548577227657920 255 255 255
-0.0284785800908501 0.0745533280726050 1.2818346885751326 255 255 255
-0.0750874389805035 0.0619333471963793 1.2834458117404950 255 255 255
-0.1341664851754492 0.0347197951593851 1.2989956733426837 255 255 255
0.3419537516491900 0.0213347933294037 1.3794683378455856 255 255 255
0.6557135729636431 -0.0206985067568423 1.4539780228004373 255 255 255
-0.5377927990177439 0.0836251600779452 1.2140402200518718 255 255 255
0.4022474771141775 0.0009570307100470 1.4057328071778195 255 255 255
-0.1115215370254989 0.0602029148402635 1.3059243547353983 255 255 255
-0.1350415983404491 0.0414091740311011 1.3247433092140410 255 255 255
-0.1015937525962320 0.0652153410801410 1.3300816482396018 255 255 255
0.1588222426324536 0.2348553143560615 1.2665504607276052 255 255 255
-0.0669386126313701 0.0786422247464638 1.3387320835200280 255 255 255
-0.1688996213520203 0.0151627404738839 1.3690545618274228 255 255 255
0.0179517029880413 0.0798179764131185 1.3583870133954421 255 255 255
0.4575306332589420 0.1058539629677369 1.4304742702607471 255 255 255
0.5942138150125016 0.0911519262624356 1.4706024350830027 255 255 255
-0.0452932200597266 0.0830818185944992 1.3773370815299739 255 255 255
-0.1004085048651499 0.0361883273319436 1.4138589843225193 255 255 255
-0.1137102349156151 0.0627264075131712 1.4035407057924765 255 255 255
0.0529853717037377 0.0842530824004888 1.4127702428950120 255 255 255
0.5719530747939040 0.1257277982334258 1.4785810831344401 255 255 255
0.0147353931738314 0.0873375638629992 1.4147159505444467 255 255 255
0.1610882057201930 0.2963537869761691 1.2933339375042079 255 255 255
0.5798203246656951 0.1363558312660998 1.4864461612213475 255 255 255
0.1515952790479869 0.2975433311360586 1.3015018843947117 255 255 255
0.4044346966496392 0.1625895950493180 1.4454417691404784 255 255 255
0.5643787002765136 0.1484738470537592 1.4897578749870390 255 255 255
0.0639576847790582 0.1071617079690367 1.4419237111274230 255 255 255
0.6199668533203938 0.1559508186986706 1.5038126686150466 255 255 255
-0.0174569316215383 0.0545971456099408 1.4768571080031541 255 255 255
0.1713496113672630 0.3286071929904893 1.3254699158971774 255 255 255
0.6182819135181312 0.1645764755012779 1.5344082251140685 255 255 255
0.0765871998226703 0.1108327214811032 1.4892412732595584 255 255 255
0.1269991601246777 0.3117044456942516 1.3425449125361395 255 255 255
0.1334867129038579 0.3217924603247010 1.3410995904408669 255 255 255
0.4563923753580496 0.2101494769252097 1.4944693679419878 255 255 255
0.0687381991369452 0.1118407069199076 1.5163008473417012 255 255 255
0.3658176749339173 0.2508973701768808 1.4926970248633293 255 255 255
0.6005323954347074 0.2118761982095136 1.5794037504700438 255 255 255
0.1392779355544121 0.3716375715416032 1.3628198876709654 255 255 255
0.6158288996671087 0.2282396517645446 1.6095109676324275 255 255 255
-0.0517539882830793 0.1022255584999093 1.6346274368702978 255 255 255
0.0997154871642201 0.3514736007199500 1.4404131434246197 255 255 255
0.0830263220292619 0.3078987593270618 1.4827894827310928 255 255 255
-0.0545662654102510 0.1109948706542360 1.6567746552312876 255 255 255
-0.0468230588406152 0.1276702203590744 1.6550003384863812 255 255 255
-0.0771354591076337 0.1292389677901624 1.6716608698367250 255 255 255
-0.4352262943272764 -0.1153494250885266 1.0794470408523762 255 255 255
-0.3326139418884628 -0.0723933089312515 1.1760563552306584 255 255 255
0.6893609706328666 -0.3085817538129025 1.4264268455331319 255 255 255
-0.3480498468945731 -0.0706612295730153 1.1839657836652189 255 255 255
0.0965191599146197 0.0907672457379058 1.1830827193594979 255 255 255
0.7183070977099224 -0.2307381315616317 1.4312206898322082 255 255 255
-0.4343626432707366 -0.0093447529069459 1.1741153674294458 255 255 255
-0.3308485878694521 -0.0658464781048963 1.2207289799539434 255 255 255
-0.0709760790568464 0.0338904468251122 1.2236357405789429 255 255 255
-0.3680006349218391 -0.0234491595039121 1.2145742726672248 255 255 255
-0.4309155335552604 0.0069546042881976 1.2195978378441172 255 255 255
-0.1211601008780767 0.0386740164485220 1.2658719152262670 255 255 255
0.0407466606498008 0.0540811171659668 1.3225185039341569 255 255 255
0.5461625872714022 0.0530940548814880 1.4774043413247184 255 255 255
0.3937631022398733 0.1111496547595204 1.4265613748626649 255 255 255
-0.4777598743019017 -0.0010175492958892 1.3682375903993700 255 255 255
0.5483843833213402 0.1057876246050719 1.4717035234286697 255 255 255
0.5286655903622322 0.1231045383749356 1.4795907716471053 255 255 255
0.2048540170126007 0.3053410587454283 1.3197003625805208 255 255 255
0.4543485538036969 0.1705375431724256 1.4764345464251163 255 255 255
0.3620136143873905 0.1936480298087296 1.4740227662788719 255 255 255
0.3551018145953395 0.2492107733632909 1.4430740956991215 255 255 255
0.3827784701382512 0.2084799435012068 1.5073736682041277 255 255 255
0.1876010177723329 0.3638163980849334 1.3610320531207594 255 255 255
0.1714831564223129 0.3777835541511091 1.3583634978506958 255 255 255
0.0333707136304434 0.0824817681933233 1.6177778302187766 255 255 255
0.1364766558680245 0.3919572276594450 1.3932186679458358 255 255 255
-0.0192171492086120 0.1471212173859656 1.6908540902600577 255 255 255
0.7777515839262205 -0.6875522790187870 1.2516543191143450 255 255 255
0.7067556121483427 -0.0783803914017895 1.3283336309348748 255 255 255
0.6882174268328517 -0.1431814146920428 1.3690926474310567 255 255 255
0.0066452226370575 0.0649469782173903 1.1972611632697461 255 255 255
-0.1039539567728075 0.0231224640059438 1.2258104521343107 255 255 255
-0.0007305304073062 0.0604955608469199 1.2221268953959008 255 255 255
-0.1291907133250789 0.0122891581475034 1.2298908775432331 255 255 255
-0.1656538748020985 -0.0166847417439289 1.2486845135758884 255 255 255
-0.1489531396545793 0.0203407550907488 1.2326043670491602 255 255 255
-0.1225452145575673 0.0220115255358538 1.2419122161830183 255 255 255
-0.1090773188811473 0.0279337768964108 1.2388055634766884 255 255 255
-0.0869794845549929 0.0453030696789179 1.2541180471591240 255 255 255
-0.4561317142510066 0.0154057308248713 1.2262396979189891 255 255 255
-0.1564166665995143 0.0262378896401927 1.2971210563755597 255 255 255
0.6659038550593075 -0.0303592371451390 1.4589877819025698 255 255 255
0.6332536785542534 0.1006275644749617 1.4739444256218939 255 255 255
0.1035066321933543 0.0900606804475381 1.4063117542346570 255 255 255
0.1427435509023702 0.4060651721304552 1.3525722188914364 255 255 255
-0.3217210938382545 -0.0985654347374748 1.1452275792367086 255 255 255
-0.4600298829001193 -0.0161587476572311 1.1553347669733389 255 255 255
0.0234805509207110 0.0562019052168146 1.2298659283390669 255 255 255
0.0425495491197352 0.0693932582807478 1.2369524760858679 255 255 255
-0.2560949140976541 -0.0811359584355435 1.2810294723257432 255 255 255
-0.0804831351532827 0.0504532637081668 1.2622649644995787 255 255 255
-0.1232668093897485 0.0386038792221559 1.2661636267067025 255 255 255
0.0260459798949319 0.0566499932423204 1.2870892887657011 255 255 255
-0.0560812126694051 0.0750022963770564 1.2933198065970581 255 255 255
0.1718431786908368 0.1940943001125427 1.2405125631630467 255 255 255
0.5342385613341014 0.0464585016585625 1.4937141615972152 255 255 255
0.4605402943072747 0.1113569015445790 1.4534660490753446 255 255 255
-0.0431750759928207 0.0862640815816362 1.4140640858310065 255 255 255
0.1639709572760785 0.3022265932418289 1.2994381229894667 255 255 255
0.3760373036126795 0.1559482862777847 1.4467161110680016 255 255 255
0.4522313030517607 0.1692007787258231 1.4734851478758328 255 255 255
0.3255287094181079 0.1828311723682234 1.4517317896447581 255 255 255
0.5213093434720261 0.1643372475907475 1.4963330014984106 255 255 255
0.0671978932288861 0.1175080413065309 1.4593924841244037 255 255 255
0.3951915806139887 0.1783822884412486 1.4707468994641810 255 255 255
0.4740225263124695 0.2204033891304122 1.5003509406948208 255 255 255
0.3719496040307556 0.2311324080011602 1.4784436901380855 255 255 255
0.1579095034855050 0.3623642719742874 1.3559828566232126 255 255 255
0.0426395899000796 0.0737232922051497 1.5840319509263170 255 255 255
0.1308943012582672 0.3326106991304500 1.3928786043492347 255 255 255
-0.0124695514285590 0.1215971167068875 1.6522182956989624 255 255 255
-0.3652245297147516 -0.0068182528142723 1.2113990835989430 255 255 255
-0.4081263626151044 -0.0292450160879151 1.2204576862028889 255 255 255
-0.0267173400219990 0.0712623835524291 1.2764895192917152 255 255 255
0.4488262789284654 0.1173210945914172 1.4398490250319382 255 255 255
0.1388142648919976 0.3030617016078058 1.3259483857393837 255 255 255
0.1160722707844247 0.2929183616938081 1.3580685114443656 255 255 255
-0.4752619418425135 -0.0348752321246749 1.0541621068215599 255 255 255
-0.2950825286178376 -0.0720984741649274 1.1770334869912509 255 255 255
0.0685147263669361 0.0512186716675611 1.1601101589844240 255 255 255
0.6615336559090818 -0.3567832339279475 1.4794671712767202 255 255 255
0.0594056550770451 0.0597955123257947 1.1670556490566137 255 255 255
0.0938999607273310 0.0683723802916100 1.1659080195078688 255 255 255
-0.1270118170711484 0.0037049703173454 1.2174795677314105 255 255 255
-0.1172672389779241 0.0341115076421298 1.2477728465762523 255 255 255
0.4302791807174783 -0.0116550621343192 1.3979572700026022 255 255 255
0.1550812182179227 0.1907035063685711 1.2435711776840976 255 255 255
0.6649057293439902 0.0930842161078205 1.4149182249959056 255 255 255
0.4337457030970035 0.1494041926097071 1.4441423534847646 255 255 255
0.6404540743108379 0.1581380399174362 1.4829909844877007 255 255 255
0.6326403016554729 0.2070045866471528 1.4859120334080449 255 255 255
-0.4234386449216400 -0.0212234511700446 1.1827728371581370 255 255 255
-0.0671501510328215 0.0489089114331853 1.2372157206580852 255 255 255
0.1717845985892754 0.1401728047558904 1.2112180576907481 255 255 255
0.5935553449875425 0.0238616982848663 1.4582465828114988 255 255 255
0.6301697549358072 0.0520061107979046 1.4783452194727718 255 255 255
0.3917326740785446 0.1844259653100497 1.4644070822179343 255 255 255
0.5952126483666575 0.1726870560699583 1.5303486742041834 255 255 255
0.6061759479840816 0.4553113894290592 1.5359718006606573 255 255 255
-0.4594637416817299 -0.0403528913284611 1.1481421312206408 255 255 255
-0.4352988385193848 -0.0014560606228835 1.1988712766105627 255 255 255
0.6720553728103095 -0.2856092857625536 1.4473309016435589 255 255 255
-0.0724413456184847 0.0543744680270336 1.2900665886177258 255 255 255
-0.0084286550038331 0.0876421608299299 1.3808336222952016 255 255 255
0.6037969914967305 0.0395474457057855 1.4507446657894998 255 255 255
0.4040457585250347 0.1629183351891813 1.4459386412940718 255 255 255
0.1933531245495410 0.3074753065699794 1.3240398755954084 255 255 255
-0.4272790976823488 -0.0546717286045852 1.1565812071061352 255 255 255
-0.4511733355888763 0.0404623267935849 1.3497691863716219 255 255 255
-0.3963987331883675 0.0327669561542646 1.3796032937413754 255 255 255
0.3930148103429157 0.1082775046142927 1.4281203114458316 255 255 255
0.6200211718854193 0.1302001676098525 1.5108409578609636 255 255 255
0.6450961507752619 0.1921557828636071 1.4670657958041948 255 255 255
0.0346615473243968 0.0910777362109820 1.6042822123301239 255 255 255
0.6037411156880083 0.3643733612211611 1.5562838578381208 255 255 255
-0.0733217023939789 0.1431545091260913 1.7569214234920345 255 255 255
0.5770909459755507 -0.4104407197711559 1.6231782923847613 255 255 255
-0.4858712459476752 -0.0907320580681964 1.0138168051176850 255 255 255
-0.5015300891624445 -0.0845607783451245 1.0361192473533927 255 255 255
-0.4502071398077984 -0.0906095483692995 1.0881390508609960 255 255 255
-0.1928934265401231 -0.1258911769775575 1.2620946255197474 255 255 255
-0.1485697246131213 -0.0861549780433052 1.2558236801593996 255 255 255
-0.1640711006613735 -0.0609952088410897 1.1779149032421445 255 255 255
-0.1717364352213175 -0.0557271458742335 1.1737390291095104 255 255 255
-0.1536611185483782 -0.0532775741842465 1.1738317562336267 255 255 255
-0.1474985523848639 -0.0384349099401590 1.1856994859468974 255 255 255
-0.1426882410316393 -0.0236792688508056 1.1893808272312802 255 255 255
-0.1369056146229925 -0.0262931121745464 1.2434727361335620 255 255 255
-0.1541911607586853 -0.0205221724604034 1.2448165983697779 255 255 255
-0.0898263524266105 -0.0031622070729216 1.1849268166584164 255 255 255
-0.3322049568873197 0.0145379534905848 1.2543103350901077 255 255 255
-0.0340704814811509 0.0006278798292163 1.1397538062587600 255 255 255
0.0189195854741885 0.0007212408678420 1.1335402287420941 255 255 255
-0.1497214502667693 0.0044071267151779 1.2939754744326886 255 255 255
0.0431702642017604 0.0289148271309962 1.1481779370352645 255 255 255
0.3496155432907780 0.0075954940145798 1.3790658288643942 255 255 255
0.0419545698485669 0.0411400935007529 1.1579885422379412 255 255 255
0.5497198182023397 0.0093453910508775 1.4275455957580625 255 255 255
0.6254739901344392 0.0158801400803308 1.4397199660309989 255 255 255
0.0625202324599427 0.0688468006749160 1.1827714771568989 255 255 255
0.3750263600523015 0.0503306526567559 1.4025213640554766 255 255 255
0.0957582761224001 0.1078790242555489 1.2284324860598572 255 255 255
0.6286039260454414 0.0823039048184209 1.4826505691473189 255 255 255
0.4308633167619077 0.1041448304305022 1.4353756452863025 255 255 255
0.1348383689497112 0.1400634142962462 1.2205872632725430 255 255 255
0.2027625544026428 0.1343421877213984 1.2040604905281340 255 255 255
0.0790407842631708 0.2196209563703015 1.4541368135663921 255 255 255
0.6108983394391904 0.2077088608671478 1.5363713544409443 255 255 255
0.3428979261956573 0.2552217444397094 1.4928600641233600 255 255 255
0.1803059476680454 0.2603556342296235 1.2712624093840859 255 255 255
0.3234081818413779 0.3284833180186742 1.6313424741012406 255 255 255
0.3379056283475236 0.3697990555184886 1.5971180738983701 255 255 255
0.5581766542032114 0.3719017701345613 1.5354600608147313 255 255 255
0.6289783541109399 0.5155108830227635 1.5334290711540937 255 255 255
-0.4968896932544355 -0.2513945176376787 1.1870505002676428 255 255 255
-0.3094127660171542 -0.2635158364378481 1.2550051117536420 255 255 255
0.2916197885694310 -0.3216730908854212 1.6338462046567319 255 255 255
-0.1318933262502813 -0.1558028496239920 1.2620997930974556 255 255 255
-0.1570686530856519 -0.0853206471984826 1.1607986978239409 255 255 255
-0.4872893996724073 -0.0131743842264814 1.0557367234237340 255 255 255
-0.0264592461149988 -0.0490661070963773 1.1426935699576495 255 255 255
-0.1300398916562191 -0.0293693904618562 1.1738430667445039 255 255 255
-0.4882542626471678 0.0274364997454171 1.0179712400397711 255 255 255
0.5846057159899937 -0.0905094906543245 1.4320432264920935 255 255 255
0.5981773554361500 -0.0658956781515990 1.4156793265325831 255 255 255
-0.5199123919706918 0.0406515652364891 1.0891556802967981 255 255 255
0.0631815801608748 0.0078445745841621 1.1432396324036238 255 255 255
-0.3182269273322301 0.0317686639026611 1.3563935479179070 255 255 255
0.3722347735197322 0.0084711960389183 1.3863699835177776 255 255 255
0.6037622939473406 0.0175839239277290 1.4384705409915179 255 255 255
0.6164389969478212 0.0573273668218820 1.4549309806997803 255 255 255
0.3279960949883333 0.0875454284078975 1.4040578406088406 255 255 255
0.5428970519146888 0.0784733858330730 1.4327725893416379 255 255 255
0.3236492421604108 0.1242259007195761 1.4155989899482166 255 255 255
0.1565780911666323 0.1310285816826978 1.2019380664732247 255 255 255
0.5585895657948312 0.1373510129314683 1.4830571032715656 255 255 255
0.4660639347796994 0.1506750537858458 1.4538774810524260 255 255 255
0.3733232002586631 0.1555378189237436 1.4426491405037538 255 255 255
0.1539203588801696 0.1693107899963330 1.2339750814640582 255 255 255
0.0630466839005839 0.2018515661826380 1.4992357061341841 255 255 255
0.3284203611269114 0.1818856433050177 1.4557982016132900 255 255 255
0.0876936347992171 0.2011126926098984 1.4359439591954217 255 255 255
0.1696093756723105 0.1935669323339060 1.2403620640792714 255 255 255
0.0709107131903663 0.2411472793593588 1.4818994011824080 255 255 255
0.1395418921588033 0.3716496295899399 1.3741835658289656 255 255 255
-0.4500446777328841 -0.0716330587342871 1.0374978038149727 255 255 255
-0.3973988621378201 -0.0650815640008741 1.1383230860785762 255 255 255
-0.6191978679774588 -0.0277053634495900 1.1764791515958570 255 255 255
0.4344392399773360 -0.0516885093462006 1.3747864585417477 255 255 255
0.0767836030954074 0.0081501231433328 1.1420547313483265 255 255 255
0.2943783564123128 -0.0221049645852664 1.3486361239135716 255 255 255
0.1381111063166897 0.1200070575189706 1.1945653571990837 255 255 255
0.2305582609653735 0.3865838935931050 1.4904245561508063 255 255 255
-0.4371221320300190 -0.1452414080963648 1.1143272718787016 255 255 255
-0.4092906548302285 -0.1415684046954811 1.1293287564028918 255 255 255
-0.2558780612075136 -0.1514215057863994 1.2149361140167814 255 255 255
0.6205389453745219 -0.2890518097197392 1.6015226054276923 255 255 255
0.4969830538703025 -0.2053853559654540 1.5470476631614987 255 255 255
0.5284138844509818 -0.1162110793739430 1.4192601760089680 255 255 255
-0.2606093322428251 -0.0442253931997447 1.3700165827112056 255 255 255
-0.1827658970826471 0.0033929676538613 1.3372682390854986 255 255 255
-0.0371375497908443 0.0235608763752202 1.2082342078171677 255 255 255
0.5512616148288003 0.0777103551043291 1.4439959653943140 255 255 255
0.4485877359162806 0.1202352053488039 1.4316038381361778 255 255 255
0.1435284415812055 0.3820828175123914 1.4237796183707752 255 255 255
-0.4389999968394762 -0.1464001674692052 1.1120037289729914 255 255 255
0.2630936637066134 -0.0137868522591115 1.3417385254440006 255 255 255
0.5315200822588096 0.4227332934987889 1.7626587256621631 255 255 255
0.1291680095506973 -0.0438144287461209 1.2159169681856794 255 255 255
-0.1858660323860623 -0.0048696901036469 1.3796674300226661 255 255 255
-0.3331482244930639 0.0088267797196101 1.3478090141624568 255 255 255
-0.3562356908977755 -0.0815813190996986 1.1618453234621757 255 255 255
-0.2172022718562457 -0.1222869436289623 1.2505256262332360 255 255 255
-0.4970860188945121 -0.0140225612059144 1.0494812783378062 255 255 255
-0.3173939737698568 -0.0528553845285946 1.2328312878790868 255 255 255
-0.4479547443792393 -0.0120663507758696 1.1680117275143593 255 255 255
-0.1107915084622752 -0.0130552863653563 1.1802013248102350 255 255 255
0.0103143968467297 0.0159587090152975 1.1446153474810732 255 255 255
-0.1141147050631754 0.0096432143015744 1.2187038278459725 255 255 255
-0.5200419917349400 0.0532931055388385 1.1302329357531125 255 255 255
0.5295046769746131 -0.0429721167633073 1.4293795382135230 255 255 255
0.1164345136325810 0.1118730850881729 1.1957851592740363 255 255 255
0.2094687429594903 0.1708806544601102 1.2496069463117117 255 255 255
0.1765388611728821 0.1841017223174014 1.2323471720127250 255 255 255
0.6281660780129734 0.1419035677228807 1.5554718603580817 255 255 255
0.1444877774900773 0.2291982870822559 1.2575595711152989 255 255 255
0.6347355185217217 0.1906390997083121 1.6351934703737869 255 255 255
0.1876757631317724 0.3180698357297830 1.3350842780068244 255 255 255
0.1531238152220273 0.3405626987766003 1.3467195916470622 255 255 255
0.1562156596517933 0.3851144799013829 1.3714695131196906 255 255 255
0.1664868469937138 0.4174801107017341 1.4279506534135420 255 255 255
0.5939765825705403 0.4746507783077377 1.7335096956480696 255 255 255
0.4769763856311343 0.5976067207315168 1.9009396068078488 255 255 255
0.6277491435838773 -0.4050878598199794 1.4957390010825102 255 255 255
-0.2174824673156973 -0.2533663910585487 1.2820928265944087 255 255 255
-0.4277584342336514 -0.0535044718907692 1.1531901929877850 255 255 255
-0.4078851132007047 -0.0548105582459295 1.1634145866019305 255 255 255
0.6230548518982256 0.1257508662211728 1.5113736474136388 255 255 255
0.1543004295649112 0.1904361110029958 1.2433691855774791 255 255 255
0.5220718664490122 0.1759375197107155 1.5070692043673362 255 255 255
0.1694748433327562 0.2565308446949817 1.2726214513498091 255 255 255
0.5326756515818888 0.3976053406663337 1.7244621355822576 255 255 255
-0.4865099236841747 0.0165665760628972 1.0736097400695928 255 255 255
0.6044420368655502 0.1070604418583070 1.4588406778006451 255 255 255
0.5620031433740401 0.1864265735653481 1.5282089361655469 255 255 255
0.1718569823390256 0.4714425685674523 1.4729046381306090 255 255 255
0.5819977564339734 0.4951093143915176 1.5998722159500767 255 255 255
0.5371470618367801 0.0286119274420494 1.4470673601949289 255 255 255
0.1899838677727794 0.2023010656105656 1.2321808496084086 255 255 255
0.6021041949388997 0.1695697552441945 1.5421320815281172 255 255 255
0.5198955902554915 0.4322440652990152 1.7660295465346718 255 255 255
-0.0049690490810415 0.1510585194365720 1.6541308144365436 255 255 255
-0.0899687865160843 0.0839229504995436 1.8827726952397663 255 255 255
0.0112648881341887 0.2259262813196382 1.6120350551926630 255 255 255
-0.0747839047342944 0.1009919622492436 1.7998259859279915 255 255 255
-0.0775829206764619 0.0555552725031808 1.8783396557827046 255 255 255
0.0820453103143743 0.2362352372980418 1.5271645918503212 255 255 255
-0.0820268948998246 0.0709539018436412 1.8026242750673716 255 255 255
0.0795137387273691 0.2613715424817923 1.4624806093668921 255 255 255
-0.1331398439325276 0.0779585421956450 1.7240191433761358 255 255 255
0.0384998640562277 0.1793790816008901 1.5666120786024313 255 255 255
0.1197377193366489 0.2783335488285383 1.3768780656819539 255 255 255
-0.0935685406269969 0.0576595864418883 1.7452741499587434 255 255 255
-0.0943854827020378 0.0148599054252484 1.8519458044455746 255 255 255
0.0381427100491422 0.1608829546717713 1.5593775062912663 255 255 255
-0.1215976994343078 0.0586723636908381 1.7084742851661039 255 255 255
-0.1004842341687871 0.0114739708216922 1.7969505045233360 255 255 255
-0.0999909647450059 0.0014856743035339 1.7860174430882405 255 255 255
-0.0961767061189634 0.0060083923820565 1.7692540525110783 255 255 255
-0.0818676569957570 -0.0362577722033909 1.8629325040302529 255 255 255
-0.1279161413742947 0.0071981310746712 1.7096972707463225 255 255 255
-0.1302571175410324 0.0106155330254621 1.6752113815177927 255 255 255
-0.1004428924198889 -0.0095581623051203 1.6444075408488052 255 255 255
-0.0990952202181087 -0.0360394005642160 1.6958050607045141 255 255 255
-0.5172435208936130 -0.0656052386223435 1.4028336493592664 255 255 255
-0.1932005753732048 -0.0582008463640478 1.6084983856212962 255 255 255
-0.5525193907077024 -0.0824440470502101 1.3894058977018999 255 255 255
-0.6891102379917390 -0.1149035302166505 1.3872763585527603 255 255 255
-0.2306108506426422 -0.1052519594640020 1.5995401029380893 255 255 255
-0.2603803630200973 -0.1007197151520890 1.5366290869303956 255 255 255
-0.2627168810674758 -0.1345607891193486 1.5901656553345054 255 255 255
-0.2363685018987532 -0.1602152515706355 1.6405278762423969 255 255 255
-0.2585975705428133 -0.1066175233830918 1.4588028821663053 255 255 255
-0.2819674677758651 -0.1462545284145109 1.5339101604383234 255 255 255
-0.2806393062175939 -0.1415810126099085 1.5198055939405588 255 255 255
-0.6608295166479592 -0.1119113554592553 1.2384216411418247 255 255 255
-0.2817427889839967 -0.1572509235299464 1.5515578340742857 255 255 255
-0.2784162461113669 -0.1335966866925087 1.4640325856577354 255 255 255
-0.2852017251525379 -0.1598205053186363 1.5376214431637916 255 255 255
-0.2869648575303722 -0.1619337195359165 1.5234306766052350 255 255 255
-0.6625149278588024 -0.1235640854013528 1.2442572082577881 255 255 255
-0.2237887423975283 -0.2072209859615241 1.6749193871801920 255 255 255
-0.2433423790194159 -0.2095180067796820 1.6680733357991411 255 255 255
-0.2865087967874871 -0.1516368555493219 1.4572956385484530 255 255 255
-0.2912440204134560 -0.1746076762351834 1.5279039000918408 255 255 255
-0.2902995302100237 -0.1751242421480250 1.5134792595239042 255 255 255
-0.2927463408142172 -0.1867480795580714 1.5321767104345094 255 255 255
-0.2863599755515894 -0.2084434955928442 1.6053389751956189 255 255 255
-0.3030406795945790 -0.1712747583235358 1.4382292713167337 255 255 255
-0.2954558395006214 -0.1905086608165117 1.5049683624734929 255 255 255
-0.2964115275531991 -0.2031274353933957 1.5211528195472166 255 255 255
-0.2981452466634976 -0.2064119259437326 1.4940356506492771 255 255 255
-0.2982664369675645 -0.2168258275523965 1.5128406396745129 255 255 255
0.0502456428013058 0.3920381055333726 1.4135322586716923 255 255 255
0.1223386429025894 0.3962159119179729 1.4226855666638529 255 255 255
-0.0875101917815282 0.1068181896059410 1.8137670303218927 255 255 255
-0.0738634421294161 0.1033637938504041 1.8369832769513597 255 255 255
-0.1006253471306515 0.1001674527722159 1.7186213516703783 255 255 255
0.1609331386815514 0.3294655168408203 1.3221110373272282 255 255 255
0.0506198679797252 0.1930233936826458 1.5249426321774138 255 255 255
0.0453589325067417 0.1672479687864247 1.5448099741703842 255 255 255
-0.1343692375753714 0.0547940368560169 1.6531354930409650 255 255 255
0.0896497247187166 0.1978857364741491 1.4472641902516226 255 255 255
-0.0961305783677076 -0.0269818438261514 1.8444097600838694 255 255 255
-0.1089730765412515 -0.0129032682190238 1.7111533519885680 255 255 255
-0.0994721390428839 -0.0135103320411693 1.6308765686602540 255 255 255
-0.2276864867740646 -0.0493534123231127 1.5207758412152350 255 255 255
-0.0827572452734699 -0.1130915373778261 1.7176509114241238 255 255 255
-0.2531689190697038 -0.1280374775297998 1.6062895322976578 255 255 255
-0.2527220923467833 -0.1000503592642334 1.4714193286940056 255 255 255
-0.2568015360255276 -0.0996619734109879 1.4445532281253617 255 255 255
-0.2864120385899354 -0.1723770878592034 1.5528000333158294 255 255 255
-0.2895846691742560 -0.1667776356285751 1.4645711034750015 255 255 255
0.1107356168100339 0.4073275738729121 1.4676736224467495 255 255 255
-0.0760765861058891 0.1003525010523757 1.7974582042245479 255 255 255
-0.0882908621694763 0.0811271013658060 1.8265125481300770 255 255 255
0.1178813500751670 0.2527650106186740 1.3768515773874324 255 255 255
-0.1010486692180590 0.0018020654429021 1.7861298693974534 255 255 255
-0.2839061074025221 -0.1440997408261238 1.5344753516692771 255 255 255
-0.2796223211860224 -0.1572441978129669 1.5511719482337982 255 255 255
-0.2891280885770554 -0.1601349011745622 1.5224938669913513 255 255 255
-0.2836952433471288 -0.1855121614994468 1.5837441387330011 255 255 255
-0.2924865168585323 -0.1732663628998136 1.5097853738174494 255 255 255
-0.2919172459859550 -0.1877219982313895 1.5334087791020481 255 255 255
0.1184803237197949 0.3926153758583223 1.4238908188607500 255 255 255
-0.0853340671437294 0.1095313426064302 1.8147490021905890 255 255 255
