ply
format ascii 1.0
element vertex 681
property double x
property double y
property double z
property uchar red
property uchar green
property uchar blue
end_header
-0.0919434133043354 0.0657371645249004 1.7752244338119505 255 255 255
-0.1137680635350325 0.0778435574839388 1.6632819582048088 255 255 255
-0.4599623842659061 0.0144114952926337 1.2537383707236325 255 255 255
-0.4864185161977304 -0.0075762159486619 1.2775338247367376 255 255 255
-0.5180562123050915 -0.0782552925168901 1.3972843525574965 255 255 255
-0.3984702007010867 -0.0898456764241292 1.4381074484519287 255 255 255
-0.5369157676377079 -0.1762694940421848 1.3532192128007319 255 255 255
-0.2128170667870729 -0.2022815169922892 1.6806070609850752 255 255 255
-0.1544540814644684 -0.2870456358665417 1.7187638369914442 255 255 255
-0.2760958496391304 -0.3105177541077481 1.6385726791542605 255 255 255
-0.0919635932962524 0.0392529031438457 1.7772804229382178 255 255 255
-0.3167834655568388 0.0272929388553566 1.3537368194876236 255 255 255
-0.1076150610298434 -0.0221907865175207 1.7908337365117626 255 255 255
-0.0838754563346876 -0.0120464128400601 1.6315840842044289 255 255 255
-0.1432066295159441 -0.2242029480306580 1.6708200434088492 255 255 255
-0.2008945828691036 -0.2465508063605514 1.6234103647422937 255 255 255
-0.0808298929770092 0.1149625434686241 1.7773148030759243 255 255 255
-0.0671927463526590 0.0724996767368227 1.8460235750672591 255 255 255
-0.1162259105189323 0.0770139353205586 1.6660672624559509 255 255 255
-0.0656758410322139 -0.1161039425614414 1.6660873814553594 255 255 255
-0.1555150019071478 -0.1752838048048451 1.6632757921389185 255 255 255
-0.1803841226296178 -0.2557121699909574 1.6667800536726063 255 255 255
0.3150959646998497 -0.2903464818920372 1.7555934453983084 255 255 255
-0.0814176788284461 0.0171487307992456 1.8799150332172598 255 255 255
-0.2182549347292224 -0.1701453138634511 1.6461272905246302 255 255 255
0.4848119604537643 0.4872101938225602 1.8523465701005235 255 255 255
0.1223596193248124 0.4764803577341125 1.4790931745781446 255 255 255
0.1565389835118981 0.4635625409496619 1.5128745634674527 255 255 255
0.5717778653376304 0.4981554879731414 1.6139337759261481 255 255 255
0.5616051779976983 0.4799762562532106 1.6626405829355428 255 255 255
0.5928077168525046 0.4798963174649243 1.5866908055142666 255 255 255
0.4782976735009183 0.4104583078642991 1.8195237416093917 255 255 255
0.6227755392611669 0.4824870325902700 1.5038577620233173 255 255 255
0.5300691913544772 0.4205730516375559 1.7395058959471967 255 255 255
0.6054117561515988 0.4474080473422589 1.5699219124805994 255 255 255
0.0922178861164910 0.3719939046981108 1.4998726721172106 255 255 255
0.0944901076876611 0.3560253769742085 1.5286382813118473 255 255 255
0.5841643097867015 0.4165578473444150 1.5893138567189196 255 255 255
0.5276074561522596 0.3862534153462412 1.6674576318488676 255 255 255
0.0644446448402256 0.3402042337580284 1.5705496007960804 255 255 255
1.2688044353692882 0.6671378243561730 -0.1875101770434383 255 255 255
0.5702663658211692 0.6153425800974609 -0.4179708259794350 255 255 255
0.3432738065332192 0.5458301600193848 -0.5191746581774480 255 255 255
0.1340146362728220 0.3082841245770711 1.3092106181052061 255 255 255
-0.0066232722872876 0.2312455618791280 1.7394823081000439 255 255 255
-0.0716302883985076 0.1831857318409525 1.8779983703703460 255 255 255
0.4173613454606853 0.2178490576331089 1.8440426620562949 255 255 255
0.5754350864022550 0.4338356519703068 -0.5071355286681224 255 255 255
-0.0842533248742176 0.1535551401951034 1.9200385553296251 255 255 255
0.1792619135594265 0.1755601643861475 1.2853228025451611 255 255 255
-0.1175786471821459 0.1178460281693259 1.7272422672178132 255 255 255
-0.0700645008232324 0.1170089955224006 1.7559258943509117 255 255 255
0.1379914042542255 0.1389588968882092 1.3094720597833431 255 255 255
-0.0840200053930214 0.1021298751514756 1.7656088007819801 255 255 255
0.9315992899875554 0.2114863766090009 -0.3093214404683735 255 255 255
-0.0963395723537040 0.1014765709732436 1.7550318675969909 255 255 255
-0.0786986203207530 0.0951406838929737 1.8300695346490807 255 255 255
0.1008024573286389 0.1181461664186503 1.3058057909608771 255 255 255
0.5412209884561546 0.1872106916373567 -0.6046437064323846 255 255 255
0.9497046344084663 0.1760987075541213 -0.4532507260148544 255 255 255
0.1129805229407412 0.1017682730932989 1.2898849855147565 255 255 255
0.9651877149858815 0.1648146157361312 -0.4155422359967657 255 255 255
-0.0799287206984634 0.0751052277760084 1.8693240538787526 255 255 255
-0.1022399952449608 0.0719898979846083 1.7588797192064207 255 255 255
-0.0809430625033413 0.0489049258295020 1.8673499165193366 255 255 255
-0.1134793651307429 0.0505001355836971 1.7487903883405720 255 255 255
-0.0649970972757448 0.0132442356205163 1.8750821234005848 255 255 255
-0.1563130233808566 0.0092263818568613 1.5181263917274077 255 255 255
-0.1695147357815426 0.0056759204304802 1.4431229913270236 255 255 255
-0.1137036211205870 -0.0075983234932589 1.5880779232287272 255 255 255
-0.1665075463476789 -0.0042401497551976 1.5379613419329703 255 255 255
-0.1612535088143423 -0.0033292171476939 1.5455182818350739 255 255 255
-0.1588567618664753 -0.0104123415561250 1.5805834153253446 255 255 255
-0.1722267590263764 -0.0137321758430566 1.5405376862367630 255 255 255
-0.1952688150502656 -0.0243805900013280 1.4376732608849154 255 255 255
-0.1705272515928292 -0.0236964601740898 1.5765845203459747 255 255 255
0.3562603175300360 -0.0336450181314233 1.9497017331357041 255 255 255
-0.4649752691418106 -0.0190537435589086 1.3845793878273365 255 255 255
-0.1946402890508472 -0.0387078884874987 1.5482807785191304 255 255 255
-0.5432634993084251 -0.0248872243562109 1.3535192642797946 255 255 255
-0.2152145624917566 -0.0462058243873009 1.3785479145473172 255 255 255
-0.4418044023254761 -0.0332692031775149 1.4139159517826312 255 255 255
-0.2172876533211899 -0.0533851721517323 1.4307755160308067 255 255 255
-0.4358301102523544 -0.0431889792293626 1.3765353947338230 255 255 255
-0.2121368597074497 -0.0565828070553053 1.5453348035458083 255 255 255
-0.0896702601500419 -0.0516724808169186 1.6816656237131895 255 255 255
-0.3727671415839953 -0.0643833225247958 1.4357252990433449 255 255 255
-0.1597668885575265 -0.0685896644872868 1.6357363165837093 255 255 255
-0.2300592796336950 -0.0793217768175013 1.5767326011570240 255 255 255
-0.2454354317091958 -0.0853908604008745 1.5231444936590335 255 255 255
-0.5321091947410977 -0.0769678981185987 1.3882937722277064 255 255 255
-0.5279027095812175 -0.0954121744917454 1.3758749060602162 255 255 255
-0.2523510783073836 -0.1047041285499495 1.5623532116473609 255 255 255
-0.6921625434324967 -0.0808277852572588 1.3957678915561782 255 255 255
-0.0772614067575384 -0.1194343094380626 1.6876956652406256 255 255 255
-0.2523315247769962 -0.1158885240802611 1.5887660053193322 255 255 255
-0.2958351296317392 -0.1393641217537116 1.4286008736321916 255 255 255
-0.2597138091694325 -0.1366611881824784 1.5906571584102427 255 255 255
-0.2720284369926298 -0.1619950700748126 1.5082525972045573 255 255 255
-0.2734338485340831 -0.1523531056021303 1.5434102168853805 255 255 255
-0.1043862961925446 -0.1625663383917054 1.6779121438511759 255 255 255
-0.2769257781430259 -0.1599776153080179 1.5504426056147556 255 255 255
-0.1174008651928296 -0.1803032536805597 1.7292757093989048 255 255 255
-0.1534887252680303 -0.1870241592440634 1.6779926064797466 255 255 255
-0.1572255861945741 -0.2068953978674645 1.7336580698713742 255 255 255
-0.1760324805516505 -0.2116840461637896 1.7226203988352220 255 255 255
-0.1662331759613161 -0.2160730035150946 1.7336513902503798 255 255 255
0.4439663750775487 -0.3353632576416530 1.9633284715080876 255 255 255
-0.5598890138345581 -0.2981430835572069 1.2963588064202256 255 255 255
0.5016328342517095 -0.5965966455307965 1.8151299427854872 255 255 255
0.4583926363005635 -0.5923305954315838 1.8901816982361508 255 255 255
0.1159218181515334 0.3944662328090869 1.4310906036975379 255 255 255
1.2159420331272384 0.6186392528657134 -0.1208475835474540 255 255 255
0.5314376856570954 0.4644323065403979 -0.4770157389269759 255 255 255
0.1384839149003923 0.2076803384658786 1.3589775778677240 255 255 255
0.6301513398263862 0.3494431868437898 -0.5144308403608507 255 255 255
-0.0990093305090432 0.0876083723684460 1.7609553181465603 255 255 255
-0.0923060637901494 0.0889534229340432 1.7357737040573853 255 255 255
-0.1262458534458628 0.0838369494331329 1.6810625362875280 255 255 255
-0.0728027469191503 0.0551666710932031 1.8473816966086538 255 255 255
-0.4946367670819006 0.0672701137850287 1.1993170305135303 255 255 255
0.2811883988349795 0.0279976009755193 1.9379783179596419 255 255 255
-0.1657443445186442 0.0036083812081246 1.4883269014635738 255 255 255
-0.1131867156628145 0.0016613560935587 1.7399132538030870 255 255 255
-0.1457984395702812 -0.0472803220119064 1.6254032735789534 255 255 255
0.3292797920031495 -0.1330323204559951 1.8902891877024719 255 255 255
-0.2941470455342431 -0.1189772306975918 1.4200481352488261 255 255 255
-0.2715814187319924 -0.1219491895756516 1.4869505990304570 255 255 255
-0.4921898156278761 -0.1086774473516450 1.3988236585549472 255 255 255
-0.2891772929888273 -0.1402949404585471 1.4317171746380961 255 255 255
-0.1175431484832902 -0.1521695515857257 1.6703895306053989 255 255 255
-0.1141969666655044 -0.1231209275171222 1.7228206792338678 255 255 255
-0.1069733370666640 -0.1676130270795416 1.7210959310863310 255 255 255
-0.1693413184363018 -0.1705537557737815 1.6775913944428165 255 255 255
0.1119739311857729 0.4185877296694249 1.4304586285367555 255 255 255
0.4978720069615050 0.4254497374489151 1.7557394606692138 255 255 255
0.4608013528278884 0.3916722409906386 1.7468832233564677 255 255 255
0.9745665987062452 0.5697153064853286 -0.2804808214960346 255 255 255
0.7916490999525193 0.5105594696528378 -0.4060582043367776 255 255 255
0.4147632135367683 0.4685382408778801 -0.5351317255128932 255 255 255
0.5841432898404298 0.4437793501220587 -0.4816077078448546 255 255 255
0.5334345048474222 0.4203692917925697 -0.4976746000452324 255 255 255
0.8616413319267229 0.3489363084641558 -0.3172698218199150 255 255 255
0.0420990695385842 0.0827306244732943 1.2987826081595071 255 255 255
-0.0998447687277408 0.0023003327764352 1.7894602872980760 255 255 255
-0.1487612672822362 -0.0205462990275085 1.5956406073897009 255 255 255
-0.1036029971740338 -0.0253333218859315 1.8299458863510751 255 255 255
-0.1783427973595189 -0.0341157251679505 1.5834572903861939 255 255 255
-0.2103905749067198 -0.0541463009391307 1.5724820513143969 255 255 255
-0.2021773529852542 -0.0537227775841843 1.5855977960572458 255 255 255
-0.2299756831720429 -0.0798451573335572 1.5768937964184213 255 255 255
-0.2219422419820441 -0.0777428430958112 1.5895755457112188 255 255 255
-0.2663128297117683 -0.1213613684073169 1.5479520650066010 255 255 255
-0.2116749283135065 -0.1197817265878391 1.6385558924172194 255 255 255
-0.2757936490147561 -0.1350300419622439 1.5413179171669156 255 255 255
-0.2473122188522034 -0.1314876045084027 1.6062682671330890 255 255 255
-0.2680613261999596 -0.2218686322115137 1.6445562305999701 255 255 255
-0.1526360510369663 -0.2352743123297302 1.7632612610418037 255 255 255
-0.0878032200492810 0.1650252786523304 1.8874775476465597 255 255 255
0.1624003181789374 0.2273402414928028 1.2616883322720682 255 255 255
0.1409729979606469 0.1907237668428864 1.2514785061713063 255 255 255
-0.1241353238394373 0.0614157496035534 1.7404258863835451 255 255 255
-0.4972053960052932 0.0677736878268035 1.1988734305382962 255 255 255
-0.5429247307447767 0.0553777209451817 1.1422245645845295 255 255 255
-0.4810311293458746 0.0343029059310827 1.2231799623264330 255 255 255
-0.1185414059204216 0.0308898822554710 1.7421094470889935 255 255 255
-0.0881124594967076 -0.0066715568982957 1.6272315935323034 255 255 255
-0.1789451927101272 -0.0230071560375800 1.5428359018399547 255 255 255
-0.1732489770636118 -0.0462434029282864 1.5982255446379288 255 255 255
-0.1466973622551487 -0.0491473506512892 1.6284791587584575 255 255 255
-0.2327295742601950 -0.0559196097852041 1.4999971642584000 255 255 255
-0.2089119871349045 -0.0695825997413830 1.5994965375505565 255 255 255
-0.4817918843982748 -0.0878672394964032 1.3730821837713560 255 255 255
-0.2052550367920762 -0.1224732764594266 1.6279741814364932 255 255 255
-0.0815910723389502 -0.1303313033483210 1.6836914145740849 255 255 255
-0.1505681204686527 -0.1307717047263612 1.6679738124805530 255 255 255
-0.1084521071288124 -0.1383607904638711 1.6842508916704364 255 255 255
-0.4960266461705482 -0.1312995885015454 1.4011430170350971 255 255 255
-0.2042463402305355 -0.1827181891777094 1.6386434607161788 255 255 255
-0.2654594233995062 -0.1849929095389488 1.6159553412400574 255 255 255
-0.0467573180681781 0.1311274216961040 1.7334006052313278 255 255 255
-0.5485462390852229 0.1302584129569343 1.1804449253064253 255 255 255
-0.5524959357594195 0.0869894497829482 1.1773116014959435 255 255 255
-0.1076690721526158 0.0326085222307789 1.7269105116691790 255 255 255
-0.1187527030137611 -0.0386209785088688 1.6420334193772117 255 255 255
-0.1639497676174211 -0.0934784454868624 1.5749761850767410 255 255 255
-0.2519435347819122 -0.1369402498956193 1.4831118585301093 255 255 255
-0.1014940512772037 0.0907817703241460 1.7540186270421281 255 255 255
-0.4054408250119013 0.0044806272726992 1.2477470963270823 255 255 255
-0.1139706227360965 -0.0128575067179469 1.6094388562459869 255 255 255
-0.1681652513013651 -0.0425739483119540 1.6106637079187860 255 255 255
-0.2098921396960908 -0.1164971750535331 1.6381305973531437 255 255 255
-0.0555050280706217 0.1144087634786388 1.7453704647590869 255 255 255
0.5435550730868460 0.4959420885073567 1.7257606428340653 255 255 255
0.5650283388394188 0.4777547716427444 1.6604424762645338 255 255 255
0.0999518608017179 0.4435462245825335 1.4460933942340801 255 255 255
0.6255130376817910 0.4580197019392987 1.5366505548721023 255 255 255
0.1151984237706359 0.4147002754700270 1.4865653119009548 255 255 255
0.6055078598503019 0.4322338887612394 1.5594505830334660 255 255 255
0.5486802812766350 0.4280064473577653 1.6870342645438947 255 255 255
0.6092916379178015 0.4230203460830018 1.5427739941060616 255 255 255
0.6654937767818614 0.4137564383108798 1.4525983156711970 255 255 255
0.6153948993603623 0.4136938461487424 1.5285222441825981 255 255 255
0.0718789321331701 0.3876479189865190 1.5560662521026813 255 255 255
0.4768871043368444 0.4015642431768773 1.8048605641855711 255 255 255
0.0427071928227923 0.3716096704653225 1.5927129505638538 255 255 255
0.6281814167433865 0.3890107470940756 1.5807749775980149 255 255 255
0.1503519773599236 0.3472524496930260 1.6455336395869251 255 255 255
0.1037391312664481 0.3275561369450978 1.4799414533514406 255 255 255
0.0285598616111734 0.3207982868774130 1.6383949301303213 255 255 255
0.5364566446009907 0.3235213441704941 1.7738810622126131 255 255 255
0.0273145056793535 0.3177769793837513 1.5870247353546589 255 255 255
-0.0060586472085802 0.2820235250442333 1.7536663810742672 255 255 255
1.0897543556079248 0.1124847610609840 -0.4244031879069657 255 255 255
0.1070523082566405 0.2551008664986424 1.4588805299296759 255 255 255
0.9812060196406109 0.0986358412091559 -0.4690995848131841 255 255 255
0.8750037043452363 0.0844534500172244 -0.4742527672633964 255 255 255
1.1332886871922256 0.0794290142017301 -0.3823238964638621 255 255 255
-0.0204779096537298 0.2562892315136180 1.7616892880356452 255 255 255
-0.0224154305681399 0.2516171724048420 1.7891119208441735 255 255 255
-0.0342691843328561 0.2573466758929794 1.8320578760417943 255 255 255
0.9665145944690613 0.0129571670360285 -0.4973606170316067 255 255 255
0.3986631079242307 0.2264193110854729 1.7590651490061529 255 255 255
0.9985900100301977 0.0039059935718323 -0.4880755809869788 255 255 255
-0.0376416879251021 0.2399503181298876 1.8382469409670179 255 255 255
1.0662799687680899 -0.0351341638514296 -0.4687828538412858 255 255 255
-0.0370941121343644 0.2273976623570526 1.8192293820001746 255 255 255
0.6919114571854899 -0.0664587356055003 -0.6311068065794844 255 255 255
0.0214386810200665 0.1963337765522109 1.5968212790524261 255 255 255
-0.0549928401714595 0.2313681077282459 1.9171130020653815 255 255 255
0.8382387500495961 -0.0815419200216012 -0.5922901752160755 255 255 255
-0.0479668317948018 0.2252298916964056 1.8653634803664170 255 255 255
0.6980478954890718 -0.0988086136758196 -0.6461942052915508 255 255 255
-0.0375881355257441 0.2105943231770918 1.8264959822393119 255 255 255
-0.0441270539146912 0.2200622163796537 1.8987982229143479 255 255 255
0.7490564299978980 -0.1098765196368969 -0.6217800865192677 255 255 255
-0.0489485274588618 0.2149347727095849 1.8734885000708830 255 255 255
-0.0666893975847762 0.2165366633699472 1.9009654139594552 255 255 255
0.1275343388421925 0.1236894789888074 1.2003678254876078 255 255 255
0.3482750725445821 -0.1322258747274549 -0.8082433940149120 255 255 255
0.6991724443600470 -0.1255944054381080 -0.6265397994314483 255 255 255
-0.0645639680506538 0.2034850163227713 1.8259546484862905 255 255 255
0.0110912693040487 0.1755589034279477 1.6481130454254507 255 255 255
0.3658076656863292 -0.1499108971869061 -0.7938626894940578 255 255 255
0.9361344654108015 -0.1678820903693250 -0.5966583349923306 255 255 255
0.0989466519345816 0.1070492655629057 1.1842922942979108 255 255 255
0.9868667376113303 -0.1751699955802808 -0.5650907195758430 255 255 255
0.4021523435385834 0.1701693871133844 1.9104268112236049 255 255 255
0.7941887796530617 -0.1827779914429913 -0.6387762818361755 255 255 255
0.8516596489642488 -0.1777713342795343 -0.5719331200258539 255 255 255
0.3516637444039352 0.1636295837311032 1.8782719632767539 255 255 255
0.8927292771477352 -0.2222474131137732 -0.7526345456032200 255 255 255
0.3884502588403012 0.1606734012819209 1.9131598935789123 255 255 255
0.0621308925393900 0.0804076745356064 1.1700494596132129 255 255 255
0.0715027870017658 0.0906774350447538 1.2574613396426377 255 255 255
-0.0641098620380407 0.1736431421426162 1.8084095379558016 255 255 255
-0.0444053807127360 0.1743907226655815 1.8033882103559709 255 255 255
0.3380583258192874 0.1478878961385924 1.8697223326493713 255 255 255
0.0715700295949434 0.0910386973442618 1.2576436151443025 255 255 255
0.0486564916282817 0.0719554031474221 1.2670691684384263 255 255 255
-0.0346169871380842 0.1479701287234985 1.7785999176016123 255 255 255
-0.0860223198481515 0.1703879315361367 1.9088653907307278 255 255 255
0.7451296222831069 -0.2916985035360648 -0.7041914346273834 255 255 255
0.8877480490228472 -0.2958731428431729 -0.6673790884387006 255 255 255
-0.0896210995047929 0.1657278856298887 1.8898264245042984 255 255 255
0.3952385688929881 0.1252989336976266 1.9485020176097090 255 255 255
-0.0569834541253102 0.1402993878662167 1.8123472159761553 255 255 255
-0.0751263882490755 0.1520841561449536 1.8695278128968251 255 255 255
0.3842250214487133 0.1103514978077169 1.9388936332055824 255 255 255
0.2828788275086389 0.1180718319680747 1.9282954061126785 255 255 255
-0.0741378987215886 0.1478243571274066 1.9013548697721090 255 255 255
-0.0730276193762752 0.1326612528885359 1.8206406459624920 255 255 255
-0.5288331025821470 0.0546038877397590 1.2021615824095184 255 255 255
0.3867440692138487 0.0811208096333687 1.9723678169696530 255 255 255
-0.1064438563846876 0.0965432651717816 1.7471390494858632 255 255 255
-0.3715356016572088 0.0179902915281382 1.2682859789994017 255 255 255
-0.1260165687059755 0.0595267481077117 1.6933952611646901 255 255 255
-0.1665933477953577 -0.0073857719938479 1.3559823126978772 255 255 255
-0.1657601596047634 0.0114606528444387 1.4543694913335778 255 255 255
0.4126602460830986 0.0428395641889663 1.9982796859895482 255 255 255
-0.1226432295559757 0.0210156494183655 1.5406873306408948 255 255 255
-0.1861992000788755 -0.0031688435924119 1.4086644512216264 255 255 255
0.3879328207035283 0.0324744654974783 1.9848168700601649 255 255 255
-0.1725355846683092 0.0014103317996410 1.4675972300174451 255 255 255
-0.0830237829713508 0.0616494418876304 1.8128678027269989 255 255 255
-0.1298308962895193 0.0101393967191424 1.5582743576142706 255 255 255
-0.0701558426750381 0.0479104227427645 1.8482311636482887 255 255 255
-0.1911972276962212 -0.0222885930008027 1.4544610196624301 255 255 255
-0.2189403703621031 -0.0029414105482942 1.5164159431514761 255 255 255
-0.1394703564333684 -0.0030154075791454 1.5739156956894444 255 255 255
-0.6181784592989117 0.0281795195077308 1.3709532028510107 255 255 255
-0.1908299903406516 -0.0193679659970043 1.4972977022690974 255 255 255
-0.1933167558719849 -0.0166602497247307 1.5171880741489627 255 255 255
-0.1093292788733844 -0.0072030679541363 1.6033109680730602 255 255 255
-0.5480249414024441 -0.0007101893492151 1.3323303485018270 255 255 255
-0.4552114289150320 -0.0119955933357988 1.3754491130267315 255 255 255
-0.0891481882634375 0.0390423677982195 1.8608592128709540 255 255 255
-0.5704987261214532 0.0006956896533567 1.3599187477268004 255 255 255
-0.1293312782052246 -0.0159805783618936 1.6043411600525819 255 255 255
-0.2001319674389625 -0.0387984784481656 1.4610678997305946 255 255 255
-0.4981797964933069 -0.0161805150853246 1.3745980011214087 255 255 255
-0.0948367851188469 0.0185512852382231 1.8138905591046368 255 255 255
-0.5807748173724374 -0.0100646475774923 1.3615981075617556 255 255 255
-0.5547425358103387 -0.0224165795754078 1.3492460991269659 255 255 255
-0.2876788067517696 -0.0668713339445317 1.3556198811200466 255 255 255
-0.2137015452050033 -0.0441356779964516 1.5088860721785144 255 255 255
-0.1852103382345641 -0.0353791313088024 1.5757153671223882 255 255 255
-0.0983239359760905 0.0012421837423166 1.7882610298564627 255 255 255
-0.2000277820363935 -0.0489108388413468 1.5350935338004765 255 255 255
-0.1660033558455555 -0.0364769545740275 1.6118550711919266 255 255 255
-0.6343679896699338 -0.0032209582537690 1.4075599895677571 255 255 255
-0.0998033005252168 -0.0031265814355951 1.8038920940255059 255 255 255
-0.1043059659076048 -0.0109677101012613 1.7929741093719931 255 255 255
-0.6440902850365906 -0.0063386161988697 1.4202438663958892 255 255 255
-0.2440724513764383 -0.0780548311952566 1.4428513226016721 255 255 255
-0.1055363242273385 -0.0321390094011299 1.7804770009003787 255 255 255
-0.1905117919807869 -0.0596063101782496 1.6092181951592064 255 255 255
-0.6668613362456980 -0.0162556812972929 1.4013099513279870 255 255 255
-0.2174386962168129 -0.0657401680916757 1.5811668549126578 255 255 255
-0.1792926332727484 -0.0767741495813330 1.6307652156177146 255 255 255
-0.1019263912816989 -0.0552785500600182 1.7667286655567869 255 255 255
-0.2587647836439193 -0.1044362915574086 1.4744995674837980 255 255 255
-0.2668086589040215 -0.1187057709010294 1.4655587251917808 255 255 255
-0.2754073158152283 -0.1354600248171458 1.4632461983110097 255 255 255
-0.5602094749606775 -0.0939474541292694 1.3820905581934064 255 255 255
-0.4894746201631963 -0.1030752511477609 1.4053873044725465 255 255 255
-0.2326078036121448 -0.1134671646045748 1.5979317078488773 255 255 255
-0.2813452887415646 -0.1552814881980246 1.4557490270436093 255 255 255
-0.4777880917803273 -0.1257805460413152 1.4041234776807594 255 255 255
-0.2675818840337481 -0.1332479712287717 1.5547809320262074 255 255 255
-0.6328374573409237 -0.0912610196956629 1.4187697611630450 255 255 255
-0.2441827010752922 -0.1308646228029148 1.5941970176915630 255 255 255
-0.6867093947788544 -0.0873609966906899 1.4033244015999315 255 255 255
0.4133041989916207 -0.1519515244796074 2.0270745586055789 255 255 255
0.4114743321676944 -0.1518526214715929 2.0397694304344154 255 255 255
-0.2104791059070776 -0.1368195937487018 1.6449136534426452 255 255 255
-0.5893072339391505 -0.1456614943464397 1.3477560047619086 255 255 255
-0.2481787581114621 -0.1448186136101005 1.6189149534952465 255 255 255
0.4042921206563723 -0.1797612081242198 2.0289710557892300 255 255 255
-0.1028344323935426 -0.1348103187245192 1.8167782552213936 255 255 255
-0.1349420772002790 -0.1762071009316931 1.6871334225247989 255 255 255
-0.1470723671500709 -0.1822442306972854 1.6906964358694148 255 255 255
-0.1114705685608396 -0.1671998132138625 1.7846422718522368 255 255 255
-0.1158788220877474 -0.1860311923046128 1.7451801207974484 255 255 255
-0.1977509059762761 -0.1942431616022177 1.6737095799994819 255 255 255
-0.1870563610163528 -0.1966096042903291 1.6793778365328202 255 255 255
-0.2143655029078047 -0.1981249233394796 1.6615651600793055 255 255 255
-0.2613718951577289 -0.2062409286262197 1.6382800166287146 255 255 255
-0.2487056347018217 -0.2151072663893908 1.6567353868222416 255 255 255
1.0502089422369554 -1.9445012073559427 -1.3832526552198674 255 255 255
0.4399354720065802 -0.3789757332063549 1.9492229505614098 255 255 255
0.7984292329227262 -1.9614277514066429 -1.5105063614402297 255 255 255
0.4912633855151361 -0.4454517880754102 1.8541989946751440 255 255 255
0.4438513637997098 -0.3742903025618565 1.9825434017526631 255 255 255
0.7458502329802668 -1.9655788356758090 -1.5128984199698730 255 255 255
0.9297951245655185 -2.0593972864012566 -1.4555572038544378 255 255 255
0.8312096728772016 -2.0662833886098468 -1.5199176682492734 255 255 255
0.4707666941916303 -0.4839975727345395 1.9937978284581126 255 255 255
0.1042405903390610 0.4317008029150076 1.4838565407882076 255 255 255
0.2119797795907711 0.4363237725987057 1.5284249814322375 255 255 255
0.5713260054041505 0.4352424889659663 1.6894278947343266 255 255 255
-0.0182065406095192 0.2840166994064867 1.7880934283063286 255 255 255
-0.0213779194263389 0.2618644381091143 1.8070703188452355 255 255 255
-0.0406871163864886 0.2536978579926386 1.8596351129301876 255 255 255
0.0854911210433667 0.1769681857255857 1.4402531671521921 255 255 255
-0.0521171565483567 0.2047829238357921 1.8415265385786854 255 255 255
-0.0576958142244512 0.2014470174436191 1.8850295592600337 255 255 255
0.0931537206139208 0.1010802221533682 1.2147189690031768 255 255 255
0.0923850278054362 0.0883680414204781 1.1754098097395322 255 255 255
-0.0394685281531742 0.2010591739211746 1.9329533434087525 255 255 255
-0.0731288313780280 0.1747751954581786 1.9192762538122774 255 255 255
0.3117925112375206 0.1357741516259888 1.9348469779158772 255 255 255
0.4751271122106724 0.0989145693041270 1.8910530218500141 255 255 255
-0.0869881450456200 0.1344271383146254 1.8330932596520142 255 255 255
0.2678996851134527 0.1072740983331537 1.9243888878874527 255 255 255
-0.0937699552642618 0.0504848292735837 1.4850037806155905 255 255 255
-0.1216100847846040 0.0578578061443746 1.6248113725808104 255 255 255
-0.1534933535281783 0.0239288796942129 1.4704393660020552 255 255 255
-0.1233000816392240 0.0610465829557435 1.7373466542384688 255 255 255
-0.1515379847681918 0.0067579580593520 1.5353816776772080 255 255 255
-0.0904622506885413 0.0624314282452151 1.8430517279617051 255 255 255
-0.0924510309264517 0.0102984612677735 1.7990464950206475 255 255 255
-0.6239163304502829 0.0057929088145540 1.3999741530545080 255 255 255
-0.3140187569534076 -0.0675786001011997 1.3359079816035526 255 255 255
-0.0857536637237382 0.0079602725313885 1.8496998999899434 255 255 255
-0.1529792914846422 -0.0413618599413995 1.6133442535969482 255 255 255
-0.4051235433998951 -0.0488709402933008 1.4167264029827304 255 255 255
-0.2570748840371991 -0.0886531369616711 1.4082675304382954 255 255 255
-0.6096098187225508 -0.0336325979559719 1.4052506337964621 255 255 255
-0.0743274628679529 -0.0753280264133800 1.6868361156991261 255 255 255
-0.5428939240534821 -0.1106447322140602 1.3698329568809715 255 255 255
-0.2341885542109472 -0.1490925226937981 1.6292588566986552 255 255 255
-0.1663680673803540 -0.1635143197579247 1.6607892050927924 255 255 255
-0.1116243511730066 -0.1683195911482160 1.6908967051367247 255 255 255
-0.1914223320748882 -0.1769829651698875 1.6602303800163698 255 255 255
-0.2175074332971323 -0.1787237240620314 1.6503598877187631 255 255 255
-0.1791970476462491 -0.1964384147577748 1.6962871217566522 255 255 255
0.4073969559804120 -0.3798552252687756 2.0251878163206189 255 255 255
0.5988398018223953 0.4162233541145423 1.5806961590019915 255 255 255
0.5771086019182787 0.4022980213611195 1.6192542405098027 255 255 255
-0.0097935793393810 0.2832212339793659 1.7577250882933864 255 255 255
-0.0219097428544888 0.2409600870343923 1.8038545289640222 255 255 255
0.9957842643991623 -0.0268391584491290 -0.5521306421920453 255 255 255
0.1235096120913153 0.1723939742258209 1.3655401497994151 255 255 255
0.2087707601123423 0.1580398205945836 1.2544747543412544 255 255 255
0.6425132040757651 -0.0581207413110913 -0.5736314640369309 255 255 255
-0.0493242632384306 0.2202809938384677 1.8698773178465153 255 255 255
0.4062410486746212 0.1792748682457826 1.9045250522721557 255 255 255
-0.0696946642977708 0.1866426783216073 1.8969906090498549 255 255 255
-0.0780701249217078 0.1713778682775515 1.9066109340969681 255 255 255
-0.5379275125081325 0.0636424203097013 1.2143022447507450 255 255 255
-0.0748477339803610 0.1091873161454173 1.8447447492861007 255 255 255
-0.5168398949286589 0.0434004536632059 1.2093689359773967 255 255 255
-0.1734925762454780 0.0027031000636754 1.4531578580752731 255 255 255
-0.1384934028796528 0.0107507455919675 1.5464122889640208 255 255 255
-0.3546922131775254 -0.0190527565962212 1.3484641886657389 255 255 255
-0.1773045899287307 -0.0107992456399482 1.5275475696022334 255 255 255
-0.1897364736157103 -0.0226842822567334 1.4930275107948956 255 255 255
-0.2011446679162746 -0.0310654505832591 1.5581521088568291 255 255 255
-0.5411396543007555 -0.0293791989080326 1.3441297659939373 255 255 255
-0.1978316046773421 -0.0448388516064313 1.5741479692889391 255 255 255
-0.0996256965530683 -0.0091383539347667 1.7735752220175180 255 255 255
-0.5132962876397217 -0.0648347866236271 1.3313521763096563 255 255 255
-0.0827698142811599 -0.0235009206212925 1.8230429899792466 255 255 255
-0.2485676198578401 -0.0886158486194912 1.4569932968769059 255 255 255
-0.2372682006288015 -0.0833648441354185 1.5621941242673367 255 255 255
-0.2603117961139958 -0.1239422091391351 1.5278375860651898 255 255 255
-0.5132827607587783 -0.1208231836973384 1.3983634600453829 255 255 255
-0.2800615318475072 -0.1607109098378234 1.5938459111414143 255 255 255
-0.2485954127658673 -0.1772989145757004 1.6313144514971460 255 255 255
-0.2029800689385463 -0.1871841960313019 1.6631599854321992 255 255 255
-0.2407869413213221 -0.2082345699076330 1.6126248390941218 255 255 255
-0.1562643458698488 -0.2088990660551505 1.7332575181840360 255 255 255
-0.1508610741872775 -0.2091047123301202 1.7511298241372126 255 255 255
0.3614923573149483 -0.2875518245039512 2.0232795006667081 255 255 255
0.4152809383989652 -0.3309279854374819 2.0403733637377353 255 255 255
-0.0407718840687458 0.2326158703111450 1.8612456182480406 255 255 255
-0.0602227628496744 0.2039514930881004 1.8873417728582007 255 255 255
0.1072811030660305 0.0987596611551519 1.2166055003756144 255 255 255
0.0259433102194520 0.0582283228313667 1.1685158549455787 255 255 255
-0.0756586712962072 0.1501281825962037 1.9045175541408625 255 255 255
-0.4688085130663735 0.0749156352998618 1.2021052071237786 255 255 255
0.2494872436778951 0.0576374183577643 1.9405801719099118 255 255 255
-0.1701176349311417 0.0054276865019940 1.4274142500200095 255 255 255
-0.1690033957081380 -0.0210535543024623 1.6269072828603401 255 255 255
-0.6162430046780296 -0.0136818337265205 1.4114265772023513 255 255 255
-0.5926636562855766 -0.0498218941148712 1.3550066959652958 255 255 255
-0.3187890225942790 -0.1013969859799902 1.4148995571347136 255 255 255
-0.5625899434965759 -0.0531668827822110 1.3820550929690762 255 255 255
-0.1992434037709038 -0.0920936505676372 1.6058850848128476 255 255 255
-0.6083297857897157 -0.0560659257415514 1.4063731643644188 255 255 255
-0.0878610493718885 -0.0840763876371735 1.7315263054003012 255 255 255
-0.4447724828219259 -0.0986793576045447 1.4123031310546139 255 255 255
-0.2233435413561242 -0.0914106895787651 1.6029468575045482 255 255 255
-0.2535842862290936 -0.1137345733557932 1.5597165700980797 255 255 255
-0.5324723088114945 -0.1074437171384294 1.3767081672507298 255 255 255
-0.1128784387639993 -0.1438452886403949 1.7061330097789860 255 255 255
-0.1817457731718142 -0.1353220998935107 1.6379809066641886 255 255 255
-0.1215622377550973 -0.1576727209985064 1.6740953763958015 255 255 255
0.3922926665553303 -0.2292106405635286 1.8729794037637300 255 255 255
-0.2524917295694096 -0.1611036686816741 1.6306324862167338 255 255 255
-0.1460273353826801 -0.1790339412808205 1.6675990750109249 255 255 255
-0.1850846438024071 -0.1695344543759290 1.6539165184861331 255 255 255
-0.6311576414688510 -0.2214840727568413 1.3145438535267895 255 255 255
-0.2397094696379212 -0.2135735821559518 1.6686016346300343 255 255 255
0.4227988191034045 -0.3487510121650870 2.0082449576030026 255 255 255
-0.0603487426599502 0.1963988963011341 1.9120299540510373 255 255 255
0.0134018931326261 0.0638529557886366 1.1734633071546963 255 255 255
-0.1491718018905890 -0.1809681098750056 1.6604195326248063 255 255 255
-0.1734584093235006 -0.0280287795148107 1.5860644218467084 255 255 255
-0.1887728577522144 -0.1088158349325169 1.4348354036411886 255 255 255
-0.2055179892686001 -0.1293225620269760 1.5513245598317702 255 255 255
-0.3262889384722867 0.0075900613280866 1.3016703433480421 255 255 255
-0.1222009877007678 -0.0233513619415342 1.6187457533440943 255 255 255
-0.1192819849683793 -0.0450957540173099 1.6413116085722290 255 255 255
-0.1460892490220767 -0.0626354456329249 1.6057028262819069 255 255 255
-0.3568931399609047 0.0236495460036781 1.2370417594057777 255 255 255
-0.3275258510445970 -0.0049427675955442 1.3066203446645701 255 255 255
0.5541007583916138 0.4845857909410018 1.6545252635641097 255 255 255
0.1141991090381210 0.4584729946176607 1.4322807360584564 255 255 255
0.6343323283585383 0.4264182628076957 1.4880913562189055 255 255 255
0.5792538354405754 0.4490464037367237 1.6403125769223181 255 255 255
0.1144881949120834 0.4300461949727821 1.5222339709918393 255 255 255
0.5831883667989448 0.3996352670994355 1.6155455671032330 255 255 255
0.2220605415533032 0.4022031994348517 1.5193000051146190 255 255 255
0.6129300057571142 0.3778692856075897 1.5609448860111395 255 255 255
0.0621628322435003 0.4012510947015429 1.5121671751166135 255 255 255
0.0646874545440522 0.3911028956368166 1.5616633920936482 255 255 255
0.0681713790532930 0.3797566535882242 1.5395976767078210 255 255 255
0.1306247935463093 0.3222705041705303 1.3405452743605497 255 255 255
0.1373206928713971 0.3186408730967508 1.3968122868583166 255 255 255
0.0734506382938037 0.3611221055494021 1.5508847886597492 255 255 255
0.1245034985846456 0.3096459588321174 1.4028478723062192 255 255 255
0.0449744668068377 0.3718715048307202 1.6362137439861189 255 255 255
0.1345834349735514 0.2741287340113489 1.3594521514314803 255 255 255
1.3163067012719014 -0.3225441313730733 -0.5034679746052404 255 255 255
1.3599687020639339 -0.3318762369929831 -0.5067368193338805 255 255 255
1.3932609379982290 -0.3136603536442961 -0.4390873112108560 255 255 255
0.1209530673298023 0.2853442212775061 1.3860728095520449 255 255 255
0.9768972734861370 -0.3200557163658958 -0.5863907784327753 255 255 255
0.0349571270620701 0.3402432918213387 1.5864589591779992 255 255 255
0.0595965719421440 0.3293682840390524 1.5777775341109985 255 255 255
1.2052790266089306 -0.3300465826846048 -0.4657591416970391 255 255 255
0.1307751125991558 0.2482567622316523 1.3072007961309187 255 255 255
0.4085261874343402 0.3006924622059339 1.6495522723289571 255 255 255
0.8043064389325826 -0.3628399668498392 -0.6910464882164837 255 255 255
0.8207063918890674 -0.3560188575080239 -0.6605693839268971 255 255 255
0.0284191204793144 0.3459187641334669 1.6678905359050917 255 255 255
1.4532857166728543 -0.4011777092042187 -0.4594279154435937 255 255 255
0.0313664559136269 0.3438063340918251 1.7010809125487285 255 255 255
0.3546179866737467 0.2893542887839565 1.6601777929086772 255 255 255
0.0203899756804625 0.3392361966372708 1.6838546858730401 255 255 255
0.0345215112390018 0.3330362245059046 1.6872100534673409 255 255 255
0.3705835938594766 -0.4347750242436413 -0.9085304742386479 255 255 255
0.5901768606138519 -0.4676769625402362 -0.9043059336983666 255 255 255
1.2195580144785523 -0.4331118848013003 -0.4782438714911257 255 255 255
0.4236384386499726 -0.4338015664140151 -0.8435825663370415 255 255 255
0.1104072276312248 0.2191649173477970 1.3370888951345556 255 255 255
0.1271694869057416 0.1957608721801335 1.2832645575992336 255 255 255
1.0851835447161859 -0.4810589593623177 -0.5907051694206221 255 255 255
0.5049943289454335 -0.5199198452854417 -0.9868681451873355 255 255 255
0.0173808375566778 0.3163217495682992 1.6801117963432972 255 255 255
0.4273161590439307 0.2605009477253224 1.7072033861733562 255 255 255
0.4124785555927112 -0.4917863192927434 -0.9022178740772101 255 255 255
0.4015144279008144 0.2556231227048116 1.6861281449522771 255 255 255
1.2329936293139394 -0.5358905980055674 -0.5982607677684539 255 255 255
0.0096825257352959 0.3166627694994056 1.7019951598404772 255 255 255
1.3070283426840990 -0.5373180393077147 -0.5599994292393192 255 255 255
0.1045728525327980 0.1918803130221852 1.3403029904645454 255 255 255
1.0516799933042789 -0.5264063852001525 -0.6055019796415785 255 255 255
-0.0131649286158728 0.3094261101899563 1.6952209342276461 255 255 255
0.0326574198803702 0.3054173497754684 1.7185489947191817 255 255 255
0.4286580032217087 0.2425872632875971 1.7115528300944152 255 255 255
0.0122879233065969 0.2989946456425343 1.6894898956791824 255 255 255
0.0367774987345774 0.2645646128902935 1.5968987509940733 255 255 255
1.0267767012994600 -0.6159792727445927 -0.7510735492999544 255 255 255
0.1187336995109429 0.1659637672226508 1.3500955400002546 255 255 255
0.0402672235753391 0.2447773468624892 1.5678033215003040 255 255 255
0.5028816338295686 -0.6457271010581610 -1.0575041622393009 255 255 255
0.4871517093606852 -0.6010760099965643 -0.9381533994399119 255 255 255
0.8396472310139375 -0.6036010846090417 -0.7487775001092245 255 255 255
-0.0475928449204497 -0.5614737756186411 -1.0289227567677099 255 255 255
1.0335302606774956 -0.6684977652887000 -0.7787787613374407 255 255 255
0.1154063854015204 0.1601082712223885 1.3657034282938953 255 255 255
0.3542098557404145 -0.6196273801670062 -0.9593887334371752 255 255 255
0.1113692577813803 0.1476163691413606 1.3474882227416156 255 255 255
0.0101256399037524 0.2619191690844526 1.6539568932933704 255 255 255
0.4968425715455759 -0.6619236722546881 -0.9897451605012766 255 255 255
1.0915000453375152 -0.6958972803656491 -0.7797741574187728 255 255 255
0.2973274901615195 -0.6405770224123541 -0.9972212819013299 255 255 255
0.7654637941505892 -0.6941266254778617 -0.8731419144627054 255 255 255
0.1321901407112992 0.1439633345194046 1.3814327150114458 255 255 255
0.1060843090068587 0.1624985554149125 1.4265347468313945 255 255 255
1.0134511510332926 -0.7124808968786899 -0.7739386384932736 255 255 255
0.1109368317534798 0.1279139101403998 1.3336864594973006 255 255 255
0.1356779769896683 0.0869542772796279 1.2398722694310091 255 255 255
0.1133825892042210 0.1157120260674646 1.3126468343853734 255 255 255
0.4548924856956555 0.2386902916445678 1.8556211029466478 255 255 255
1.2155748657012868 -0.7599623222209875 -0.7415527501894638 255 255 255
0.0751670707849920 0.2742676225354491 1.7905809451627197 255 255 255
0.3851881656044254 0.2299904763005282 1.8174644689411219 255 255 255
0.0996091488643071 0.1521133516224817 1.4338636203995814 255 255 255
0.9759857630615006 -0.7389137152916052 -0.7530322832016986 255 255 255
-0.0194994812763394 0.2879213900598940 1.7857834345782011 255 255 255
0.1009408190178953 0.1023779662773396 1.3026919622145618 255 255 255
0.9090202646989233 -0.7523792514970100 -0.7800845054782855 255 255 255
0.1024873666080534 0.1489358460154588 1.4517984911807615 255 255 255
-0.0073620245019941 0.2601194156670821 1.7195659924459905 255 255 255
0.0534383205900291 0.0660577239957744 1.1868128286741715 255 255 255
0.1330160866879240 0.1176932284998501 1.3825348938861655 255 255 255
0.4040700271024301 0.1866241078626622 1.7531834275641287 255 255 255
0.7525479750973536 -0.7876837247068090 -0.9279826075287605 255 255 255
0.0900764193560044 0.0935939315439460 1.3022661110396743 255 255 255
0.1052782828691141 0.0961718488941549 1.3172534154766411 255 255 255
0.1210926327722549 0.1107555594954331 1.3606876086472164 255 255 255
0.0556019682899037 0.0749923453229866 1.2387293415625924 255 255 255
0.0569795180595584 0.0827679858449942 1.2600669600313512 255 255 255
0.4381177603083337 0.2200002673008012 1.9000403164666717 255 255 255
0.7533686674033147 -0.8333920810957656 -0.9538172490783157 255 255 255
0.1273386046617314 0.0912930337836861 1.3574713930399629 255 255 255
0.7114586892362472 -0.8216432539881237 -0.9394081566301716 255 255 255
0.0708514119327080 0.0802115019093839 1.3010732277964718 255 255 255
0.7656624161590516 -0.8354033034799218 -0.9231467806299333 255 255 255
0.0177552584162083 0.0553051936675483 1.2052185969759015 255 255 255
0.0563555628280166 0.0723399772008766 1.2804596033591151 255 255 255
0.0089527471828011 0.2073624027973069 1.6434647516333778 255 255 255
-0.0207967007348469 0.2522349622992971 1.7494635416684048 255 255 255
0.8824092228424706 -0.8514242303633289 -0.8845106081541221 255 255 255
0.0157704125995694 0.0600588577342831 1.2279381014228239 255 255 255
0.1199295669397273 0.1227587219787457 1.4730360621206962 255 255 255
-0.0125876521881834 0.2505093899684898 1.7706782620329413 255 255 255
0.0468668877215498 0.0632487012668644 1.2808653239824637 255 255 255
0.0594606548275531 0.0704522322613631 1.2998407131657022 255 255 255
0.1070957093400726 0.1067756178512962 1.4368995703929481 255 255 255
0.9775715314189766 -0.9052978151069747 -0.8992513970600440 255 255 255
0.7547978278269116 -0.8943875278063704 -0.9668231351528801 255 255 255
0.8839583743391919 -0.9078379228502121 -0.9219833135368781 255 255 255
0.0509579720141173 0.0603567480811089 1.2949179112728817 255 255 255
0.9793315169269914 -0.9093201842942008 -0.8494196869328798 255 255 255
0.0858422874560722 0.0569651934082616 1.3187965884900812 255 255 255
-0.0132742786621612 0.2640145008309830 1.8368117761918719 255 255 255
0.4176696633141052 0.1998487472021061 1.9090732747771120 255 255 255
1.0133627649039127 -0.9956181843182709 -1.0048230092268238 255 255 255
0.0935877349759079 0.0570177432200491 1.3505746489647330 255 255 255
0.0848732218187671 0.0698974671917861 1.3852604790183742 255 255 255
0.0966744022391083 0.1085837099679757 1.4957231351056690 255 255 255
-0.0488994814516386 0.0794782251875652 1.3426269648445945 255 255 255
-0.0424034599674098 0.0827980355494551 1.3584452584755591 255 255 255
0.0428437911697186 0.0678905410524806 1.3878425599781479 255 255 255
-0.0022111790543133 0.1134378575714524 1.4836595598421485 255 255 255
-0.0392204645836974 0.2538039472327013 1.8476745676291315 255 255 255
0.0367712567925032 -1.0227290176469133 -1.4611795611354768 255 255 255
-0.0278891735217961 0.0832161952248851 1.4102580480594131 255 255 255
0.9756149930895152 -1.0268114527674361 -0.9054654246691181 255 255 255
-0.0190495649008051 0.0819817155373680 1.4256719893142695 255 255 255
-0.0368066189805822 0.2497052926618485 1.8572380711096470 255 255 255
0.3480719874100833 0.1608793034749765 1.8782954772651610 255 255 255
0.0168619836925412 0.0894657966027941 1.4893323648121526 255 255 255
-0.0328141021638770 0.2291453118733370 1.8252934869229558 255 255 255
0.3902791110831754 0.1709718365752873 1.9285815956781547 255 255 255
-0.0979661443231599 0.0759929599985544 1.4128662005101273 255 255 255
0.0565281427696522 0.0517783801830292 1.4712054907471248 255 255 255
-0.0401247684989593 0.2225432945903266 1.8308778107805816 255 255 255
-0.0721063177391760 -0.9399259407377508 -1.1188749316986442 255 255 255
-0.1057423108083702 0.0609099801075038 1.3895029551401601 255 255 255
-0.1088995617101087 0.1100157445043496 1.4977032934624814 255 255 255
-0.0193643288709143 0.0687150117286372 1.4707615737660129 255 255 255
-0.0479376787757416 0.2261707464606706 1.8543536046825333 255 255 255
-0.0716016333824645 0.0354116864704277 1.3824495783240158 255 255 255
-0.0141737346574142 0.1630228374442731 1.7180618670658427 255 255 255
-0.0491052910670041 0.2344274206876029 1.8742449486557444 255 255 255
-0.1047938561189935 0.0558683399213515 1.4023510702458293 255 255 255
-0.0911011183393068 0.0663112393067017 1.4352805800136428 255 255 255
-0.1014039537671552 0.0606358243138693 1.4302162550697772 255 255 255
-0.0039967025358744 0.0628374028606262 1.5079909467327741 255 255 255
-0.1462980789984962 0.0175434926885585 1.3161376200592494 255 255 255
-0.0698314680405362 0.0654964916963074 1.4836974856740228 255 255 255
-0.0775290993865648 0.0623107447077126 1.4749145732666962 255 255 255
0.4109277034742093 0.1238613932412904 1.9299105395272946 255 255 255
-0.0937644372002883 0.0569318455703666 1.4640767272930004 255 255 255
-0.0345726723281249 0.0664900603181168 1.5265174939382040 255 255 255
-0.0540819689185633 0.1462952250292812 1.7050323110947831 255 255 255
-0.0276925646412915 0.1537193886728630 1.7413608728185421 255 255 255
-0.1441382659236408 0.0299462315950762 1.3751741311791419 255 255 255
-0.0419363571846307 -1.1155068253029072 -1.2877150947606535 255 255 255
-0.0692947665986381 0.1907104900446653 1.8272590174429353 255 255 255
-0.1545269622998674 0.0250848825624596 1.3846631540886960 255 255 255
-0.0621665601019739 0.2021931722631594 1.8603365994594303 255 255 255
-0.0722783780219337 0.1954850770593708 1.8485663346593069 255 255 255
-0.0684747982175297 0.0513703292863243 1.5147241403901091 255 255 255
-0.0679638248139534 0.1882132458026139 1.8361978604342950 255 255 255
-0.1726544025189896 0.0016044722143888 1.3433197703500988 255 255 255
-0.0683027622557922 0.1933142759273542 1.8556536954542209 255 255 255
0.0100036506270567 0.1974572831727994 1.9233417923325367 255 255 255
-0.0645771180490317 -1.1589637024432746 -1.2642039790427635 255 255 255
-0.5548527902257231 0.0569982539019456 1.2442419065906782 255 255 255
-0.0544484436345112 0.1439199456499364 1.7559929277412771 255 255 255
-0.0691048581212650 0.0465402421115367 1.5334426917272532 255 255 255
-0.0770653435474597 0.1781048405678262 1.8330425204315137 255 255 255
-0.0841087782827860 0.0430624153664311 1.5261140087182128 255 255 255
-0.0336157103854840 0.1304819353990790 1.7596692827383533 255 255 255
-0.0680415158070641 0.1623287272665550 1.8178739304486686 255 255 255
-0.1541454816227866 0.0250371375827156 1.4457142698309218 255 255 255
-0.0397999128332204 0.1382393721123955 1.7790656223131045 255 255 255
-0.0472051249580208 0.0418680845112015 1.5559329983614918 255 255 255
-0.1090454933295479 0.1214201907428925 1.7029675861071820 255 255 255
-0.1106575253444840 0.0400501243792640 1.5216731597360924 255 255 255
-0.0966166841707319 0.0352679440127670 1.5276994699296491 255 255 255
-0.0526554548844591 0.1276589981678515 1.7586477409736609 255 255 255
-0.1740645932487137 -0.0167873659207104 1.3680177564887321 255 255 255
-0.1608944001219272 0.0142896546890883 1.4390802111935121 255 255 255
-0.0432995664486557 0.1237834322659272 1.7650950243026111 255 255 255
-0.0803059790813234 0.1738802800256556 1.8535923143760087 255 255 255
-0.0790480394762473 0.1672812883317162 1.8407597635414406 255 255 255
-0.0440144127788408 0.1238480819647220 1.7762350895183798 255 255 255
-0.0839070293049106 0.1194806711929560 1.7449280723116656 255 255 255
-0.0672860587401174 0.1844857424216121 1.8975310836054777 255 255 255
-0.1141132770862529 0.0278011643677716 1.5324530159046512 255 255 255
-0.1028225183347936 0.0315409107616234 1.5394307673524346 255 255 255
-0.0750775663900882 0.0312240266652531 1.5611133996516118 255 255 255
-0.0976014944974024 0.1174504766071252 1.7421116077951480 255 255 255
