ply
format ascii 1.0
element vertex 1770
property float x
property float y
property float z
end_header
0.138903 0.129525 1.08589
-0.0170016 0.130052 1.04925
0.131769 0.137711 1.08545
0.0195738 0.133252 1.03263
0.0953736 0.137527 1.06143
0.115654 0.148015 1.08071
-0.0785808 0.151595 1.09387
0.00488961 0.148438 1.03456
0.0363038 0.147164 1.03575
-0.0440165 0.154868 1.08482
-0.0304872 0.1564 1.0765
0.0524245 0.151205 1.03572
0.0370877 0.157669 1.05865
-0.0624294 0.166678 1.08801
0.0634211 0.16031 1.04527
-0.0304475 0.165345 1.07047
0.0830414 0.161742 1.0567
0.112788 0.174218 1.09882
-0.010478 0.16888 1.07281
0.0633694 0.169338 1.04983
0.081733 0.173184 1.06675
-0.02872 0.177484 1.06417
0.0853354 0.190709 1.07462
-0.0117966 0.188895 1.05685
-0.121958 0.225662 1.24769
0.0858992 0.202016 1.07601
-0.17388 0.276809 1.4675
-0.0330266 0.208909 1.08452
-0.048719 0.219584 1.1024
0.101922 0.221812 1.09179
0.0523564 0.221917 1.07096
0.0133656 0.22885 1.06341
0.00170896 0.231576 1.0606
-0.0697789 0.250675 1.1346
0.0516169 0.236866 1.06357
-0.0364397 0.238674 1.07553
0.00909018 0.237693 1.05766
-0.0783969 0.259701 1.1461
-0.00809434 0.235933 1.05262
-0.0188091 0.24218 1.06385
0.0361927 0.244601 1.06047
0.0633704 0.247034 1.06414
-0.219779 0.325067 1.43762
-0.00806909 0.248675 1.0644
0.0479313 0.250122 1.06081
0.0278898 0.250466 1.05761
0.34746 0.372316 1.44782
0.33811 0.384519 1.48239
-0.033094 0.324084 1.23788
0.0764815 0.336082 1.21709
0.328301 0.390829 1.42838
0.387773 0.417397 1.44281
0.0714621 0.370253 1.24038
-0.231767 0.42205 1.37428
0.347728 0.433073 1.40315
-0.00827253 0.389847 1.25963
-0.241355 0.427136 1.36302
-0.193716 0.422209 1.35331
-0.212609 0.431837 1.35051
0.352467 0.44094 1.3945
0.349681 0.455947 1.387
-0.432823 0.469215 1.42742
0.380575 0.456521 1.37508
-0.108168 0.437173 1.29616
-0.41373 0.470463 1.39465
0.382992 0.465259 1.36543
-0.186896 0.457283 1.31088
-0.382354 0.478974 1.38954
-0.402774 0.481582 1.38076
-0.21568 0.463343 1.32811
0.378924 0.473351 1.36426
-0.370614 0.47626 1.35807
0.315553 0.478055 1.33923
0.366021 0.483888 1.3587
-0.405577 0.492169 1.36607
0.32708 0.481324 1.34322
0.0935779 0.461075 1.27489
-0.182821 0.470634 1.29277
-0.0503789 0.454387 1.26779
0.142587 0.462462 1.27492
0.298213 0.480861 1.32433
0.358543 0.490859 1.35304
-0.215709 0.468727 1.28892
-0.380814 0.503812 1.36951
-0.396058 0.503162 1.36421
0.382537 0.496083 1.34698
0.324483 0.493377 1.33106
0.349793 0.49857 1.34537
0.366673 0.498424 1.34203
-0.237082 0.453443 1.21557
-0.402208 0.508956 1.35497
0.0964108 0.476657 1.26201
0.112617 0.480487 1.26743
0.375737 0.503768 1.34228
-0.15738 0.480875 1.27349
0.141832 0.481601 1.28132
0.307504 0.505061 1.33852
0.359359 0.505464 1.33922
-0.392284 0.51735 1.35582
-0.324395 0.512461 1.33473
0.304596 0.506099 1.31732
-0.315217 0.514619 1.33115
0.0918451 0.490156 1.26773
0.452796 0.51749 1.33992
0.29612 0.505747 1.29635
-0.327014 0.519191 1.32861
0.336832 0.515615 1.31884
0.071701 0.502277 1.26846
0.443382 0.5283 1.34546
-0.399685 0.527696 1.33097
-0.369528 0.531214 1.34498
-0.308983 0.523152 1.32305
0.050591 0.497007 1.25552
0.300945 0.516553 1.30468
0.32663 0.521485 1.32164
0.355371 0.523479 1.327
0.370483 0.523168 1.32611
-0.422372 0.52673 1.32112
-0.387756 0.536138 1.34309
-0.298926 0.526348 1.31964
-0.464317 0.534134 1.34003
0.0309483 0.502186 1.25849
0.340463 0.528519 1.32057
0.36209 0.530459 1.31784
-0.31746 0.528299 1.31443
0.292969 0.520805 1.28737
0.321468 0.52947 1.31168
-0.309675 0.534902 1.31767
-0.39023 0.543201 1.33408
-0.00689386 0.510099 1.26176
0.306255 0.530037 1.29534
0.335569 0.537998 1.31847
0.32802 0.53648 1.30818
0.435277 0.543675 1.32962
0.372605 0.537187 1.30977
0.359136 0.541115 1.31321
-0.409421 0.543749 1.31188
-0.301622 0.54396 1.30883
0.230693 0.520128 1.25339
-0.0835408 0.509183 1.23409
0.299941 0.538196 1.29184
-0.0429029 0.506283 1.19999
0.161732 0.502748 1.19375
0.384193 0.54307 1.2945
-0.403557 0.553875 1.3096
-0.377228 0.551509 1.30397
0.31362 0.549392 1.29567
0.353296 0.554124 1.30873
-0.116405 0.522081 1.21727
0.324674 0.552619 1.29832
0.439691 0.558389 1.31969
0.289573 0.543762 1.27524
0.37495 0.553374 1.29899
0.362273 0.555686 1.30252
-0.403803 0.560587 1.30175
0.346638 0.5609 1.30497
-0.362929 0.563569 1.30694
-0.183144 0.544945 1.25353
-0.168242 0.543281 1.24796
-0.409815 0.563176 1.29241
-0.0847194 0.52604 1.2034
0.299978 0.554861 1.27794
-0.398376 0.568254 1.30038
-0.323272 0.561776 1.30367
-0.302043 0.561183 1.28712
0.132683 0.531394 1.21127
0.282042 0.553502 1.26795
0.359643 0.575472 1.31802
0.232095 0.542563 1.24364
0.21958 0.545817 1.23968
-0.402679 0.570414 1.29156
-0.0327324 0.53526 1.20912
0.239515 0.549416 1.24317
0.437785 0.574923 1.31037
0.271481 0.560901 1.26435
-0.126662 0.546715 1.22003
0.0485615 0.545496 1.21739
-0.370414 0.574459 1.30269
-0.327799 0.575564 1.28579
0.215292 0.552203 1.23532
-0.237054 0.55396 1.23815
-0.0264443 0.540257 1.20181
0.159376 0.5424 1.21276
-0.351401 0.584311 1.30079
0.142991 0.544748 1.20368
0.178564 0.559087 1.24128
0.301165 0.570718 1.2674
-0.161438 0.543909 1.1977
0.253516 0.563551 1.25497
-0.00684342 0.549128 1.20863
0.211661 0.557695 1.22827
0.224806 0.544963 1.19688
-0.0626952 0.544717 1.19376
0.000218194 0.532514 1.16801
-0.26412 0.570227 1.24933
0.202562 0.564089 1.23429
0.369842 0.583561 1.28111
-0.26377 0.558597 1.22261
-0.124979 0.555271 1.20983
-0.105679 0.556059 1.20848
0.220649 0.562625 1.22855
0.344541 0.585885 1.28297
0.0145226 0.55934 1.21069
0.243854 0.568276 1.23474
0.273473 0.574258 1.25055
0.291489 0.577328 1.25768
-0.327956 0.590672 1.28249
-0.307275 0.589737 1.27989
-0.0375827 0.554146 1.1962
-0.287312 0.591235 1.27806
-0.224844 0.561266 1.20925
-0.0632057 0.552106 1.19183
-0.335436 0.594302 1.27774
0.340965 0.59624 1.28947
-0.418138 0.592864 1.27708
0.229974 0.571652 1.22632
0.286875 0.587588 1.25748
-0.389924 0.60056 1.28133
-0.0447388 0.562403 1.19484
-0.0258068 0.562418 1.1976
0.00116449 0.566152 1.20288
-0.0873976 0.565148 1.1969
0.0358957 0.577167 1.22669
0.329992 0.59644 1.27314
0.345115 0.597835 1.27433
0.375006 0.596229 1.2744
-0.211991 0.568714 1.20377
-0.125587 0.574616 1.21127
-0.350596 0.604879 1.27631
-0.0736245 0.57051 1.19574
-0.403464 0.599899 1.26459
-0.38671 0.607161 1.27217
-0.314785 0.606746 1.2732
-0.219937 0.574524 1.19898
0.325532 0.604853 1.26909
-0.303852 0.60534 1.25968
-0.361121 0.61333 1.27462
-0.345245 0.614096 1.27813
-0.260379 0.57928 1.20525
-0.228871 0.574272 1.18627
0.184341 0.586325 1.21913
0.297716 0.599306 1.24603
0.171541 0.588647 1.21979
0.354374 0.610116 1.26945
-0.287448 0.608079 1.25763
0.209304 0.586835 1.2113
0.0593313 0.596174 1.2261
0.0917222 0.569496 1.17078
0.178461 0.594004 1.21757
0.219283 0.588851 1.20682
0.269752 0.606654 1.24623
-0.41519 0.61693 1.26235
-0.136818 0.58696 1.19717
0.140877 0.586778 1.19297
0.343442 0.613457 1.26107
-0.360706 0.612774 1.25372
-0.316737 0.61306 1.24795
-0.374388 0.614939 1.25719
-0.333604 0.619588 1.268
-0.0480429 0.588757 1.19331
0.0810258 0.577798 1.17339
0.301045 0.610308 1.24076
-0.399242 0.621953 1.26034
-0.207648 0.587873 1.18799
0.198054 0.597728 1.2107
-0.325331 0.627465 1.26043
-0.134495 0.600326 1.1984
-0.109982 0.598822 1.19471
0.188562 0.600737 1.20357
0.358129 0.624626 1.25819
-0.414996 0.621117 1.24098
-0.375465 0.631156 1.26095
-0.203873 0.59507 1.18537
0.214845 0.60331 1.2033
0.248812 0.616542 1.23232
0.131667 0.596819 1.18496
0.204607 0.603548 1.20014
0.367137 0.62995 1.25844
-0.411743 0.634878 1.2605
0.181411 0.605495 1.20213
0.196982 0.608245 1.2067
0.00849732 0.611222 1.20554
0.376983 0.630002 1.25219
0.398619 0.637095 1.25774
-0.0523013 -0.278329 1.14865
-0.0341522 -0.267607 1.13506
-0.0937429 -0.243342 1.15847
-0.0638375 -0.22814 1.11877
0.10718 -0.218572 1.1023
0.139598 -0.213445 1.11924
0.0931413 -0.177874 1.08345
-0.114794 -0.16478 1.15437
0.0418699 -0.112206 1.063
-0.0881801 -0.0863705 1.131
-0.0225392 -0.0823156 1.08655
0.149993 -0.0876719 1.10799
-0.22867 -0.0927815 1.42804
0.132462 -0.0625852 1.09041
0.0169435 -0.0546304 1.063
-0.0738368 -0.0538948 1.09049
0.0163428 -0.0401221 1.06535
0.137342 -0.0411921 1.11506
0.12494 -0.0276475 1.10563
-0.0375974 -0.00472677 1.10938
-0.0553391 -0.00132189 1.10819
-0.0961488 -0.00839582 1.12725
0.103403 0.0175107 1.10027
-0.040192 0.0233818 1.10207
-0.081589 0.0314212 1.11931
-0.0714637 0.0367058 1.10885
0.109443 0.0493549 1.08929
0.0818756 0.0541194 1.0353
-0.0677256 0.067287 1.08658
0.0355935 0.0614603 0.989353
0.0701067 0.0693399 1.00543
-0.00155444 0.0677984 1.00751
0.0464196 0.0812393 1.00932
0.246798 0.109105 1.33624
-0.00024747 0.0882586 1.02219
-0.0456641 0.107302 1.08266
-0.0391353 0.141605 1.0703
-0.011456 0.140275 1.04659
-0.0416719 0.156279 1.08577
0.0278725 0.14883 1.03107
-0.0536448 0.163488 1.08749
-0.169957 0.227347 1.38927
0.0517454 0.181313 1.06984
0.00794011 0.183175 1.06304
-0.0165615 0.194119 1.06359
0.072502 0.200284 1.07314
0.0490426 0.206076 1.061
0.0136629 0.208984 1.06196
-0.237133 0.28919 1.45913
0.0388703 0.237198 1.05959
-0.226105 0.351598 1.42856
-0.241681 0.391466 1.38256
-0.404528 0.422576 1.48828
0.055868 0.37925 1.26389
-0.411646 0.436652 1.45187
0.0745721 0.412077 1.26061
-0.398788 0.46909 1.40088
0.156466 0.449859 1.32047
-0.200965 0.451075 1.32999
0.169476 0.452817 1.30773
0.02511 0.465125 1.26456
-0.0355153 0.469866 1.26197
0.170238 0.472806 1.2826
-0.409555 0.504808 1.35103
0.318208 0.504702 1.32877
0.168881 0.482024 1.23706
-0.403124 0.532942 1.34803
0.133407 0.513343 1.27088
0.321541 0.530568 1.3099
-0.00294919 0.502369 1.22918
-0.0276721 0.5022 1.21413
-0.319939 0.549283 1.31351
0.0587869 0.528059 1.25401
0.133508 0.519565 1.24873
-0.121218 0.519079 1.22096
-0.332732 0.554738 1.30393
-0.402151 0.558264 1.30059
-0.362461 0.565507 1.30824
-0.0460946 0.544047 1.19968
-0.395885 0.585024 1.29288
0.128937 0.551186 1.20171
-0.107581 0.553121 1.20291
0.0817493 0.569357 1.22264
-0.0932956 0.555014 1.19876
-0.347589 0.606034 1.31017
-0.384917 0.600462 1.28391
-0.00245525 0.56612 1.20252
0.0340085 0.574764 1.22203
0.252715 0.583399 1.24117
-0.135539 0.565375 1.19322
-0.0448278 0.577076 1.19828
-0.0889377 0.578254 1.19569
-0.0344386 0.586081 1.19561
0.325311 0.613987 1.26222
0.381412 0.607648 1.23817
0.241728 0.606247 1.23168
-0.0970808 0.59616 1.19855
-0.00454735 0.605259 1.21621
0.00768154 -0.266316 1.10788
-0.0362943 -0.211715 1.12247
0.0692333 -0.0653974 1.06537
-0.0215427 -0.0133449 1.10521
-0.0785285 0.113001 1.09357
-0.00880909 0.118126 1.04818
-0.246249 0.305478 1.4497
-0.0163382 0.260104 1.07002
-0.0929327 0.376403 1.28251
-0.370129 0.443882 1.39836
-0.422479 0.461488 1.38521
0.330713 0.50138 1.32727
-0.349145 0.51629 1.37073
0.35691 0.507452 1.33528
-0.0822912 0.514814 1.20299
0.289166 0.542997 1.27526
0.312487 0.549883 1.2807
-0.318083 0.566632 1.29699
-0.125182 0.538435 1.22456
0.0937073 0.541721 1.24089
0.271856 0.560661 1.26645
-0.0251653 0.540513 1.20345
-0.168359 0.55187 1.23118
-0.206823 0.554391 1.22298
-0.170165 0.568241 1.23835
0.0166291 0.562594 1.21813
0.099567 0.569721 1.21942
-0.069314 0.557086 1.18899
-0.0444579 0.561308 1.1936
0.285083 0.584376 1.24652
-0.284546 0.595654 1.25935
-0.116872 0.573331 1.196
-0.343225 0.612442 1.27914
-0.310239 0.608656 1.27186
-0.283558 0.602957 1.24642
0.344131 0.615065 1.27469
0.107813 -0.398681 1.14214
0.0816724 -0.374601 1.18967
-0.0645819 -0.290475 1.1505
-0.0540542 -0.282512 1.13674
0.0599858 -0.272565 1.12231
0.0912686 -0.258156 1.1153
0.0337129 -0.251799 1.10404
0.112993 -0.243829 1.13096
-0.0978322 -0.241397 1.16932
0.0698821 -0.221219 1.10289
0.213067 -0.222454 1.18915
0.20636 -0.192164 1.19642
0.0327528 -0.169716 1.08268
-0.0268752 -0.129027 1.06684
0.0417609 -0.112944 1.0561
0.00269185 -0.108164 1.05653
-0.0474114 -0.104803 1.06666
0.0642917 -0.101289 1.05322
0.121612 -0.0997957 1.07033
-0.0289595 -0.083346 1.07196
0.0834808 -0.0755068 1.06184
-0.0645178 -0.0686915 1.0849
0.135404 -0.0612873 1.08611
0.0486483 -0.045777 1.06516
0.07325 -0.043059 1.09076
0.100009 -0.0285813 1.08336
-0.058914 -0.0320215 1.10589
-0.160552 -0.00557911 1.20072
-0.0355624 0.0176368 1.08282
-0.0357014 0.0495075 1.07763
-0.068058 0.0666371 1.08486
0.279698 0.0925451 1.37489
0.0338731 0.0637875 0.991478
-0.0435556 0.106321 1.07704
0.00804072 0.109983 1.04315
-0.0667852 0.130852 1.07873
-0.0373149 0.140728 1.07176
0.0103786 0.160299 1.03824
0.0397463 0.164638 1.03392
0.0523208 0.182754 1.07072
0.0498977 0.206486 1.06085
0.015911 0.20831 1.06922
0.0347364 0.237974 1.07317
-0.212992 0.312644 1.39729
-0.122697 0.303443 1.30915
-0.190466 0.335576 1.42622
-0.022456 0.280517 1.08851
-0.228552 0.381104 1.41754
-0.185194 0.393094 1.36912
0.344092 0.386328 1.30901
0.137652 0.386378 1.2865
0.177926 0.428372 1.34382
0.0742307 0.409728 1.26346
-0.411191 0.455655 1.39175
-0.398685 0.468753 1.40133
0.153688 0.448592 1.31324
0.398228 0.46628 1.37345
-0.387218 0.488578 1.38203
-0.224931 0.466171 1.32306
-0.167182 0.459387 1.307
0.0513043 0.459252 1.27166
0.174297 0.461085 1.26936
-0.0837249 0.46382 1.28058
0.00346185 0.465353 1.27407
0.0237135 0.472887 1.29468
0.191357 0.455694 1.25613
0.13441 0.464906 1.2736
-0.0587997 0.494756 1.26611
0.0387192 0.496383 1.23814
-0.191517 0.512715 1.27028
0.0639017 0.500124 1.23699
-0.145248 0.509537 1.24777
-0.0884548 0.504184 1.24756
-0.333327 0.538513 1.3156
-0.110904 0.504483 1.22411
-0.0285472 0.499387 1.20833
0.130311 0.516534 1.24571
0.0171283 0.515997 1.22808
-0.391019 0.553161 1.31674
-0.220344 0.541036 1.28169
-0.0577353 0.510497 1.20256
-0.00770011 0.519283 1.21762
-0.23473 0.529058 1.25035
-0.361984 0.566507 1.30773
0.0653794 0.545057 1.24652
0.118929 0.54 1.23496
-0.143409 0.547667 1.24152
0.00294629 0.53787 1.22299
-0.0808373 0.53776 1.20447
-0.223436 0.549149 1.22785
-0.172577 0.552948 1.22192
-0.0433762 0.540206 1.19979
-0.348679 0.580898 1.29074
-0.393883 0.583223 1.28623
-0.230882 0.561965 1.2112
0.0310173 0.587306 1.23596
0.14917 -0.386922 1.19196
-0.0631825 -0.289758 1.14253
-0.0939753 -0.23454 1.15688
0.00193676 -0.110856 1.05819
0.0615633 -0.103718 1.04781
-0.0344574 -0.0832062 1.07255
0.103416 -0.0813717 1.06887
0.0791813 -0.0418424 1.0813
-0.036962 0.0251722 1.09494
0.115039 0.0301029 1.08246
0.00344838 0.116364 1.03097
0.028524 0.148567 1.03445
-0.193531 0.347984 1.44166
-0.228367 0.379167 1.4148
-0.223144 0.408294 1.36373
0.149584 0.447556 1.31509
-0.0234122 0.477834 1.27206
0.0684529 0.509695 1.30328
0.224434 0.503366 1.26163
0.148375 0.507702 1.17548
0.120947 0.539685 1.24368
-0.188033 0.505047 1.25884
-0.0636198 -0.286824 1.12782
0.0925941 -0.256455 1.11151
0.0575311 -0.234186 1.10395
-0.0895883 -0.235446 1.16223
0.124729 -0.21207 1.09924
0.00263178 -0.112764 1.05013
0.0586829 -0.107372 1.05323
-0.0327731 -0.0826951 1.06974
0.0255449 -0.0484271 1.07723
0.0829349 -0.038932 1.09596
-0.0420828 0.0307171 1.08954
-0.139903 0.303876 1.3678
-0.193521 0.356003 1.45409
-0.0397646 0.292924 1.15566
0.219822 0.359063 1.38022
-0.228768 0.373513 1.39
-0.0234425 0.370993 1.24254
-0.223536 0.414791 1.36859
0.197279 0.460077 1.25353
-0.0374372 -0.245168 1.14484
0.0625079 -0.227649 1.11079
0.120962 -0.217838 1.12675
-0.131982 -0.200423 1.22261
-0.0362628 -0.036509 1.11121
-0.0381654 0.372904 1.25078
-0.0617373 -0.436727 1.22535
0.0885125 -0.40278 1.14307
-0.106312 -0.423452 1.28288
0.0121041 -0.325786 1.07045
0.00234953 -0.305416 1.05677
-0.121968 -0.281561 1.11062
0.228202 -0.273743 1.1253
0.238141 -0.256233 1.14379
-0.0239983 -0.231261 1.12487
-0.0129195 -0.221659 1.09547
0.00387424 -0.218372 1.08407
0.0141289 -0.21292 1.08311
0.0785641 -0.204836 1.06544
-0.171204 -0.223485 1.26355
-0.151862 -0.21515 1.20067
-0.0678381 -0.195861 1.10668
-0.050323 -0.194714 1.10021
-0.13416 -0.194495 1.13532
0.0169082 -0.184672 1.07632
-0.0856581 -0.186986 1.12251
-0.147324 -0.193482 1.19363
-0.166693 -0.18604 1.21922
-0.0858693 -0.170223 1.11187
-0.144908 -0.156361 1.18051
-0.0356736 -0.146212 1.07615
-0.0159097 -0.143052 1.07773
0.0372751 -0.139007 1.06633
-0.13407 -0.14549 1.17175
-0.171277 -0.142844 1.23371
0.0510171 -0.128175 1.0655
-0.109225 -0.111059 1.10563
0.0450374 -0.111141 1.05941
-0.0451693 -0.10283 1.06002
-0.177917 -0.11413 1.25522
-0.108734 -0.0979021 1.10258
-0.119811 -0.0970567 1.10949
-0.0612321 -0.0925931 1.07203
-0.143524 -0.0908104 1.17028
-0.0353193 -0.0843856 1.09054
0.0249712 -0.0794464 1.06321
-0.132911 -0.0644695 1.13679
-0.115847 -0.0642286 1.10821
-0.0763913 -0.059529 1.10638
-0.205503 -0.0626436 1.35938
0.0594816 -0.05678 1.07143
-0.119089 -0.0525201 1.12883
0.00741565 -0.0527723 1.08398
-0.028253 -0.0507476 1.09941
-0.252923 -0.0585281 1.4211
-0.0209704 -0.0482978 1.10144
-0.0873525 -0.0470017 1.11068
0.044387 -0.0435948 1.05854
-0.122234 -0.0325699 1.14224
-0.121157 -0.0148335 1.18897
0.119256 -0.0117011 1.10489
-0.10993 -0.00962271 1.13706
-0.26038 -0.00107488 1.43311
-0.163093 -0.00242714 1.27871
-0.235563 0.0058214 1.40811
0.115607 0.0022721 1.10622
-0.206878 0.0124165 1.34295
-0.00372767 0.0232094 1.05927
-0.206004 0.0379834 1.43379
-0.175544 0.0346967 1.24279
-0.219167 0.0737395 1.37899
-0.106939 0.0644295 1.12562
0.00413134 0.0583805 1.00916
0.0139785 0.0650758 0.988459
-0.119615 0.0805228 1.12801
-0.111211 0.0864269 1.12214
-0.0345382 0.100092 1.07722
-0.0139233 0.105973 1.05187
-0.0118228 0.116493 1.04121
-0.0242257 0.122135 1.05696
-0.0342562 0.127247 1.06023
-0.104275 0.140424 1.12284
-0.0761746 0.137587 1.08815
-0.0889905 0.15467 1.09589
-0.103264 0.16515 1.11602
-0.0802211 0.167828 1.10148
0.00293575 0.173343 1.04558
-0.115266 0.236609 1.27502
0.0363296 0.205153 1.06805
-0.0677341 0.220634 1.10173
-0.0760268 0.225424 1.11315
-0.0320537 0.225599 1.0793
-0.00664047 0.216882 1.06596
0.022422 0.232158 1.05312
-0.0394195 0.241887 1.09405
-0.0259743 0.237387 1.06937
-0.102408 0.285995 1.27807
-0.0436387 0.261737 1.08631
-0.0370582 0.260664 1.07919
-0.0987382 0.306516 1.27905
0.397581 0.401304 1.48456
-0.3333 0.397871 1.49884
-0.0140168 0.347673 1.21512
-0.356624 0.40716 1.48495
-0.0313669 0.353251 1.21131
-0.0529236 0.366198 1.24143
0.240274 0.390317 1.2418
0.526652 0.460159 1.40794
0.256825 0.429872 1.25777
-0.314162 0.440995 1.39356
-0.19462 0.441921 1.34678
0.455351 0.491921 1.38315
0.210629 0.43503 1.23071
-0.149181 0.447434 1.33955
0.39152 0.484822 1.34671
-0.39555 0.45553 1.42304
-0.372001 0.462184 1.4142
0.419116 0.505872 1.37632
-0.381588 0.471959 1.41896
-0.331229 0.461465 1.37408
-0.359406 0.470765 1.40135
-0.372514 0.473259 1.402
-0.324265 0.46545 1.36506
0.267327 0.489292 1.29563
-0.395625 0.472092 1.37443
0.182209 0.471644 1.27121
0.470256 0.522754 1.34012
0.367958 0.514159 1.32918
-0.339355 0.479341 1.36518
0.172595 0.47926 1.26572
0.263932 0.498867 1.29319
0.349159 0.51925 1.33006
0.177227 0.496696 1.27882
-0.34426 0.484355 1.35784
-0.330079 0.484967 1.35128
0.12768 0.493257 1.27605
0.46133 0.535527 1.32812
0.0097732 0.477808 1.24559
-0.314528 0.488075 1.34136
0.0410123 0.47823 1.23776
0.326638 0.532261 1.32144
0.472614 0.536175 1.31261
0.139747 0.505641 1.27493
0.349422 0.537987 1.31859
-0.340658 0.499141 1.34288
0.463824 0.552342 1.3197
0.404585 0.550851 1.31045
0.0361734 0.493529 1.2324
-0.346526 0.506215 1.33662
-0.376648 0.517726 1.36959
0.179948 0.513315 1.21759
0.263403 0.52914 1.25347
-0.408366 0.51415 1.3394
-0.37256 0.523432 1.35221
0.0045366 0.50928 1.23736
-0.37829 0.540335 1.38519
0.342873 0.552044 1.26497
-0.39308 0.527663 1.34734
0.457062 0.584148 1.30388
-0.322545 0.533792 1.31928
-0.301995 0.534759 1.3201
-0.294712 0.534729 1.30807
0.412227 0.590708 1.30677
-0.0439832 0.510647 1.17779
-0.407007 0.53638 1.31124
0.461513 0.599639 1.29488
0.419178 0.60346 1.31026
-0.346879 0.543395 1.3104
0.364749 0.590692 1.27906
-0.30634 0.549868 1.30189
0.394774 0.60206 1.28203
-0.183376 0.515925 1.17582
0.0597604 0.558605 1.2376
0.0987848 0.562232 1.24115
-0.278148 0.546618 1.27236
0.454676 0.620058 1.29512
-0.198868 0.524889 1.18639
-0.415094 0.554662 1.30403
0.37615 0.613911 1.2837
-0.386867 0.56576 1.31683
-0.303267 0.563655 1.29114
-0.318513 0.564524 1.29289
-0.169976 0.55183 1.22403
0.248154 0.592443 1.22836
0.361194 0.619875 1.2683
-0.240985 0.551229 1.22275
-0.357103 0.581847 1.31282
-0.342686 0.575096 1.2918
-0.302242 0.573919 1.28391
-0.140291 0.550719 1.18995
0.337075 0.624978 1.26654
-0.36727 0.588539 1.31067
-0.36003 0.584166 1.2962
-0.29284 0.579507 1.27535
-0.192368 0.565309 1.21819
0.0943202 0.571603 1.18212
-0.378034 0.585851 1.29752
0.275429 0.623576 1.25329
-0.160681 0.571661 1.22214
0.333921 0.636696 1.25675
0.353447 0.63933 1.25547
0.37118 0.639209 1.2528
-0.261334 0.572455 1.21722
-0.0334887 0.584786 1.19726
-0.205111 0.573519 1.19991
-0.235434 0.5699 1.19428
-0.167555 0.582893 1.20843
0.164162 0.616935 1.21003
-0.00879134 0.588318 1.17469
0.280512 0.642721 1.23585
-0.173506 0.592046 1.20435
0.14611 -0.357525 1.09481
-0.00837654 -0.322894 1.08944
0.186888 -0.329131 1.09657
-0.16292 -0.370581 1.35431
-0.168234 -0.350923 1.35149
0.195606 -0.298905 1.10811
-0.195806 -0.326244 1.35241
-0.0144646 -0.270564 1.11693
0.0515463 -0.264878 1.09991
0.000975894 -0.261471 1.12606
0.227883 -0.271885 1.14637
-0.0888499 -0.264146 1.16561
-0.0607774 -0.259068 1.14271
-0.205139 -0.30515 1.39359
0.0882574 -0.256348 1.10994
-0.0920008 -0.245579 1.16296
-0.211322 -0.276524 1.41504
-0.061649 -0.229214 1.12472
0.0432129 -0.225856 1.09125
0.234881 -0.245439 1.17343
-0.127854 -0.224606 1.18989
0.00950913 -0.201379 1.08474
0.246723 -0.192163 1.21441
0.209923 -0.176068 1.19152
-0.0892302 -0.10633 1.09502
-0.128274 -0.100552 1.1529
-0.0755946 -0.0877015 1.07346
-0.0480185 -0.0860302 1.06858
-0.127118 -0.0742263 1.11493
-0.233091 -0.0647825 1.42687
-0.00473191 -0.0491912 1.09066
-0.177889 -0.0485118 1.26502
-0.128318 -0.0479688 1.16275
0.0701846 -0.0398699 1.07499
-0.0788785 -0.0339682 1.10823
-0.0611836 -0.0305847 1.10592
0.108768 -0.0305324 1.10531
-0.259418 -0.0285528 1.4399
-0.277723 -0.00973036 1.43327
0.0125127 0.00133073 1.03217
-0.0333649 0.0488362 1.08201
-0.0175367 0.05291 1.05382
-0.0125669 0.0723657 1.05118
-0.0640542 0.0869065 1.09133
-0.107605 0.124014 1.13688
0.0351144 0.127379 1.02966
-0.160314 0.259359 1.45332
-0.121413 0.226081 1.25406
-0.00121821 0.202195 1.06799
-0.0947405 0.223065 1.15375
-0.0503729 0.230883 1.08787
-0.0214841 0.230398 1.06332
-0.119929 0.304168 1.32727
-0.144653 0.324924 1.32919
-0.195298 0.365649 1.41332
-0.0367841 0.361764 1.23796
-0.22844 0.401874 1.38373
0.206258 0.423274 1.3528
0.514579 0.464406 1.41482
-0.11822 0.424032 1.30975
0.186623 0.461809 1.30694
0.130957 0.458486 1.28291
0.43075 0.514304 1.36374
0.10906 0.471223 1.27654
0.440311 0.533722 1.346
-0.169237 0.469931 1.26323
0.0091068 0.482563 1.26651
-0.0532202 0.503128 1.25903
-0.422298 0.514397 1.33719
-0.0965546 0.489913 1.20912
-0.193496 0.513181 1.27157
-0.0718855 0.495783 1.20517
0.384573 0.566589 1.29651
-0.106973 0.510267 1.24401
0.235278 0.539673 1.2423
0.112476 0.532231 1.24654
-0.0930605 0.506287 1.21136
-0.0367456 0.530643 1.2577
0.0669562 0.544347 1.2487
-0.370939 0.547695 1.32528
0.00389129 0.537927 1.22291
-0.125088 0.533567 1.22436
-0.0389875 0.531732 1.19939
-0.21318 0.527468 1.21295
-0.103415 0.538046 1.20554
-0.0841175 0.539893 1.19774
-0.387869 0.560857 1.30553
0.0990352 0.567469 1.20623
-0.222823 0.550955 1.22816
-0.0341404 0.572077 1.1913
-0.0459095 0.576093 1.19735
-0.196065 0.57107 1.20704
0.307489 0.632776 1.24675
0.422725 0.649296 1.24902
0.271803 0.638719 1.25316
0.209884 -0.297334 1.10438
-0.0806836 -0.119442 1.04025
-0.116952 -0.0628283 1.10654
-0.0309643 0.0848461 1.06983
-0.0346995 0.127204 1.05873
-0.0426454 0.249451 1.08418
0.198077 0.436306 1.31333
-0.341494 0.455108 1.38206
-0.182699 0.47437 1.29084
-0.151102 0.471985 1.27934
0.114217 0.490882 1.2784
0.45374 0.548698 1.32896
-0.334133 0.508391 1.33541
0.186085 0.512369 1.22735
0.312257 0.573542 1.32203
0.332347 0.583828 1.28794
-0.167534 0.522095 1.19767
-0.025365 0.562599 1.19909
0.0476428 0.588044 1.22603
0.094337 0.571631 1.18229
0.0645876 -0.418384 1.14205
0.15244 -0.340179 1.09382
0.176204 -0.344869 1.10468
-0.0432525 -0.305834 1.0873
0.117709 -0.320109 1.13912
0.19531 -0.30703 1.09395
0.0309197 -0.278883 1.07583
0.21418 -0.285877 1.12539
-0.0547972 -0.276431 1.14347
-0.0146349 -0.274843 1.11891
0.0681095 -0.273239 1.11051
0.2293 -0.273415 1.15216
-0.059159 -0.256929 1.14158
0.051418 -0.242206 1.09777
-0.14802 -0.254677 1.20012
0.10719 -0.240004 1.10993
0.0450041 -0.228026 1.09267
0.226389 -0.243728 1.16236
0.0228 -0.220296 1.08968
-0.126974 -0.224582 1.1865
0.255142 -0.213197 1.21696
-0.15134 -0.199196 1.19995
-0.0840122 -0.173729 1.13156
-0.111196 -0.164957 1.15899
-0.063524 -0.125915 1.07107
-0.16981 -0.128015 1.21297
0.118105 -0.101859 1.06591
0.0350872 -0.0872755 1.05793
-0.0762161 -0.0869533 1.07397
-0.0460512 -0.0835192 1.06199
-0.00679358 -0.0760882 1.06193
-0.1655 -0.0812835 1.23888
-0.0929254 -0.06747 1.09058
-0.00535818 -0.0474288 1.08937
0.0783381 -0.0379583 1.08371
0.201155 -0.0402247 1.13779
-0.206965 -0.0379777 1.38512
0.174416 -0.0295636 1.12689
-2.95587e-07 -0.0192911 1.08623
-0.229168 -0.018534 1.40494
-0.254775 0.0142515 1.41958
-0.179872 0.0517759 1.41932
-0.235489 0.0470568 1.39122
-0.071833 0.0379002 1.10659
-0.0164539 0.0523189 1.05643
-0.0256382 0.0727367 1.06103
-0.0538442 0.077496 1.07876
-0.000913872 0.0883047 1.0231
-0.0552231 0.166831 1.0924
-0.165497 0.239229 1.43351
-0.166226 0.258821 1.43406
-0.236861 0.288046 1.46079
-0.0242636 0.232489 1.07144
-0.161379 0.386839 1.35623
0.208072 0.424341 1.35653
-0.2977 0.382897 1.27495
-0.0480146 0.39782 1.25021
0.191915 0.445767 1.33573
-0.115679 0.419225 1.30174
0.044352 0.423174 1.26134
0.16919 0.454115 1.30467
0.191882 0.471182 1.32081
-0.101957 0.444227 1.31032
0.431103 0.511804 1.36438
-0.322191 0.484701 1.34972
0.00740363 0.476652 1.25467
-0.163473 0.482439 1.29607
0.159494 0.502092 1.28177
0.2272 0.534195 1.25919
-0.264547 0.507791 1.26069
-0.09478 0.507436 1.21218
0.154509 0.525515 1.20364
0.212287 0.556949 1.2419
-0.352335 0.554469 1.30752
0.222884 0.571463 1.23281
0.332557 0.605996 1.28621
0.200415 0.586247 1.27374
-0.00169241 0.546521 1.19658
0.322067 0.604363 1.24554
0.0981944 -0.394742 1.11041
0.225486 -0.28104 1.15038
-0.0873178 -0.26482 1.15521
-0.0935446 -0.236303 1.16135
0.215739 -0.215333 1.18483
-0.0485347 -0.108471 1.06262
-0.0658101 -0.0678207 1.12027
-0.0166358 -0.038332 1.12203
0.0856957 -0.0398908 1.09546
-0.105512 -0.0390629 1.11618
0.17718 -0.0317107 1.13443
0.0943971 -0.000813744 1.0822
-0.0362066 0.0471412 1.07924
-0.0398 0.102681 1.07351
-0.0673515 0.139717 1.08416
-0.0170674 0.381332 1.24689
0.177602 0.468607 1.31335
0.197581 0.458853 1.26893
-0.163315 0.459149 1.32464
0.017715 0.471874 1.274
0.153536 0.523104 1.25031
-0.0253158 0.498161 1.21708
-0.186088 0.511932 1.2656
-0.126264 0.518156 1.23487
0.241087 -0.242348 1.15007
-0.0786544 -0.0284407 1.11484
-0.253147 0.306718 1.4404
0.0268133 -0.255875 1.0937
-0.0360102 -0.257954 1.12969
0.0563154 -0.232876 1.10022
0.218351 -0.223753 1.18698
-0.144766 -0.191555 1.18584
-0.174788 -0.135578 1.21719
-0.0524487 -0.113109 1.06216
-0.161203 -0.082087 1.22742
0.177294 -0.0812271 1.12832
0.142156 -0.0348389 1.11992
0.169809 -0.0348024 1.13925
0.104214 -0.0235501 1.09529
-0.061368 0.139942 1.09674
0.0849424 0.242998 1.09914
-0.160181 0.453988 1.31469
0.14426 0.482627 1.27516
-0.0317941 -0.0687456 1.07102
-0.0379966 0.383384 1.27743
0.215075 -0.343604 1.10264
0.106787 -0.289427 1.07611
0.211881 -0.298679 1.11145
0.00794136 -0.271583 1.0819
0.0200196 -0.288861 1.15181
-0.0610118 -0.26694 1.12412
0.216086 -0.268598 1.0824
0.148507 -0.256553 1.14703
0.100364 -0.220328 1.13068
0.188903 -0.220117 1.17197
-0.00530602 -0.134609 1.08458
-0.15137 -0.129529 1.18408
-0.058843 -0.113705 1.0708
-0.0924573 -0.113599 1.09721
-0.159639 -0.11252 1.20477
-0.173421 -0.0856274 1.24359
-0.123629 -0.0749577 1.10837
-0.15312 -0.0673644 1.18517
-0.166291 -0.0654063 1.2454
-0.111045 -0.0441842 1.12925
-0.085496 -0.035585 1.11163
-0.0674147 -0.0324428 1.10272
-0.24408 -0.0313325 1.4361
-0.00454569 0.000964905 1.08285
-0.121191 0.00643052 1.14516
-0.209343 0.0355512 1.38659
-0.0822918 0.0453693 1.10492
-0.0133535 0.0706549 1.01752
0.00871367 0.0803001 0.987713
-0.00483592 0.0972301 1.06604
-0.041012 0.0929606 1.03328
0.00809757 0.0972182 1.02104
-0.0468758 0.121778 1.06813
0.00864103 0.127342 1.03736
-0.0831823 0.139008 1.10119
0.0481705 0.140632 1.03438
-0.113353 0.147908 1.13665
-0.0714439 0.145623 1.09082
-0.09827 0.152435 1.11076
-0.107398 0.156285 1.11023
0.0217026 0.169709 1.04362
0.0410316 0.190564 1.08445
-0.067893 0.200931 1.10825
-0.111446 0.226085 1.20876
-0.0638331 0.211663 1.10289
0.00497766 0.210812 1.06652
-0.087854 0.226475 1.13637
-0.0811436 0.22586 1.12704
-0.0989216 0.241398 1.19898
-0.0974901 0.227332 1.14095
-0.0813165 0.235229 1.12921
-0.196967 0.304645 1.49232
-0.0755747 0.280981 1.25636
-0.0579627 0.246663 1.09591
-0.0685674 0.257314 1.13242
-0.0446635 0.248634 1.08213
-0.0910231 0.297789 1.26934
-0.0831313 0.30596 1.27107
-0.0657352 0.301848 1.23692
-0.0676396 0.305758 1.25693
-0.0715476 0.314259 1.24959
-0.0665344 0.32117 1.24616
-0.0683083 0.324213 1.2588
-0.0597367 0.327443 1.23855
-0.0594467 0.319042 1.20503
-0.0412976 0.323819 1.17996
-0.0481045 0.349717 1.24597
0.464395 0.459915 1.4193
-0.0615511 0.359943 1.25718
0.215749 0.409292 1.30464
0.223336 0.390774 1.23379
0.453508 0.465819 1.38109
0.216114 0.399194 1.23068
0.219431 0.404464 1.21998
0.422898 0.477478 1.38328
0.198237 0.442988 1.32815
0.229532 0.418438 1.22586
0.389153 0.480555 1.365
0.208138 0.416676 1.218
0.13397 0.435351 1.29151
0.168593 0.450684 1.31109
0.210852 0.420707 1.20244
0.193679 0.434453 1.24539
0.209082 0.427865 1.21887
0.377487 0.495448 1.36355
-0.302594 0.437018 1.40608
-0.322108 0.438407 1.40145
-0.0968057 0.445782 1.28125
0.448261 0.535782 1.3371
-0.354091 0.453651 1.41637
-0.304799 0.454712 1.38347
-0.265434 0.404508 1.20818
0.455835 0.548872 1.32911
0.145685 0.476382 1.25021
0.406426 0.547122 1.32748
-0.347504 0.463432 1.37634
-0.164938 0.46197 1.29595
-0.348684 0.479388 1.39446
0.166656 0.509155 1.26053
0.3671 0.560265 1.29192
-0.376014 0.488068 1.38945
0.356093 0.565334 1.30164
-0.292123 0.493061 1.33923
-0.330926 0.494154 1.34919
-0.319444 0.495363 1.34789
-0.304565 0.495773 1.34045
0.119545 0.524077 1.24719
-0.351421 0.502643 1.36365
-0.310729 0.502919 1.3443
-0.319331 0.504969 1.33842
-0.363591 0.511326 1.36741
0.357013 0.589326 1.28116
-0.0607985 0.489668 1.18271
-0.338879 0.505399 1.31552
0.0924381 0.55395 1.24451
-0.258992 0.520674 1.25783
0.181473 0.581459 1.22838
-0.251425 0.520026 1.24992
0.13085 0.56723 1.20757
0.291442 0.613544 1.25121
-0.274549 0.526713 1.25734
-0.353749 0.54559 1.32373
-0.256947 0.536102 1.23937
-0.292583 0.556775 1.29924
0.371964 0.650363 1.24988
-0.270874 0.544469 1.25617
-0.309602 0.559817 1.29654
-0.152402 0.543407 1.19013
-0.0666145 0.561183 1.19755
-0.25055 0.547877 1.23494
-0.370807 0.565096 1.31378
-0.33492 0.565878 1.29538
-0.277622 0.566232 1.27669
0.370604 0.665876 1.24187
0.258403 0.644707 1.23104
-0.333566 0.572657 1.29571
-0.250464 0.555422 1.2169
0.103528 0.600749 1.18034
-0.100707 0.570703 1.19131
0.368978 0.671289 1.22842
0.305432 0.662633 1.23038
-0.313757 0.575385 1.28405
-0.183925 0.565503 1.20625
0.306996 0.661255 1.21764
0.373437 0.674196 1.21943
0.236392 0.652554 1.21904
0.159359 0.635562 1.21703
0.358935 0.678645 1.22497
-0.240852 0.562988 1.21249
-0.348369 0.583728 1.29601
0.336538 0.678101 1.22281
0.168401 0.633584 1.19342
0.276367 0.66499 1.21481
0.0780403 0.605576 1.16359
0.366864 0.688456 1.22233
-0.342388 0.589845 1.29185
-0.402122 0.57967 1.28687
0.135404 0.638141 1.19497
0.164943 0.642027 1.19063
0.268839 0.669513 1.20706
0.216279 -0.281981 1.08796
0.0331483 -0.248378 1.09281
-0.0737165 -0.210864 1.12485
-0.151974 -0.206466 1.21401
-0.0874634 -0.144352 1.09919
-0.0191304 -0.127647 1.08159
-0.12923 -0.0725484 1.11757
0.1829 -0.0728812 1.11293
-0.231524 -0.0657289 1.43416
-0.179344 -0.0500695 1.25472
-0.0977866 -0.0362946 1.12185
0.0701208 -0.0318551 1.0665
-0.194588 -0.036621 1.38221
-0.00117034 -0.0192053 1.0833
0.0631196 -0.0126706 1.05923
-0.215087 0.0107725 1.40519
-0.254123 0.0149782 1.42249
-0.0277869 0.0165984 1.09166
-0.108411 0.0246048 1.13422
-0.26351 0.033437 1.42381
-0.106394 0.0529119 1.1224
-0.00431453 0.0694017 1.00188
-0.0216634 0.0882265 1.05931
0.00515393 0.111796 1.03746
-0.0949562 0.134867 1.11069
-0.0338483 0.141753 1.05528
-0.0900073 0.162788 1.1075
0.00533178 0.201935 1.04475
-0.193454 0.277688 1.50329
-0.0736121 0.213901 1.10769
0.0288341 0.231118 1.05579
-0.110234 0.26521 1.28004
-0.0748133 0.240012 1.12293
-0.0791157 0.290296 1.24539
-0.225896 0.337021 1.48668
-0.0924498 0.319239 1.2684
0.225619 0.40321 1.26182
-0.0941631 0.374698 1.28083
0.189399 0.452813 1.25386
-0.169183 0.458998 1.306
0.365677 0.544711 1.32585
-0.321392 0.484454 1.35564
-0.122342 0.490192 1.27285
0.0113064 0.511192 1.22174
-0.138431 0.489915 1.23468
-0.0349829 0.521088 1.20174
-0.00419318 0.552568 1.21243
0.288648 0.626564 1.25364
0.0459773 0.587355 1.2242
-0.393076 0.552509 1.31695
0.0904413 0.586178 1.19873
0.105188 0.602971 1.18403
-0.310693 0.574999 1.28966
-0.0637434 0.578556 1.19172
-0.381435 0.577003 1.30316
-0.240313 0.563643 1.21324
-0.31803 0.584058 1.2836
0.240639 -0.266264 1.12061
-0.118623 -0.0976376 1.11893
-0.0556876 -0.0665595 1.08681
0.205417 0.0187507 1.16287
-0.170439 0.0358009 1.3015
-0.0656792 0.220525 1.10818
-0.0534888 0.266664 1.13086
-0.0558933 0.280204 1.16422
0.219337 0.41099 1.30927
0.218565 0.425272 1.27296
0.201895 0.431766 1.28369
0.1566 0.445493 1.31278
-0.191652 0.441281 1.36022
-0.323893 0.464189 1.36632
0.0729822 0.490975 1.26477
0.426828 0.569651 1.31761
0.0458907 0.49783 1.25014
-0.0977608 0.489271 1.20445
-0.252538 0.481231 1.21494
-0.286701 0.514299 1.29925
0.379117 0.610014 1.2685
-0.309482 0.523361 1.32212
0.35637 0.641491 1.26094
-0.132758 0.544473 1.21338
-0.197943 0.531859 1.20735
-0.0125936 0.571683 1.21488
0.258389 0.62887 1.23072
0.287678 0.644585 1.21767
0.074342 -0.40485 1.13797
0.107837 -0.369898 1.08064
0.0957442 -0.369045 1.09067
-0.0883343 -0.264632 1.16536
0.0780192 -0.230334 1.10958
0.239525 -0.243944 1.15042
0.25785 -0.213536 1.21876
-0.208077 -0.219806 1.48615
-0.0829415 -0.146501 1.11599
-0.144317 -0.131862 1.16647
-0.0910044 -0.105016 1.08813
-0.107418 -0.0825604 1.09699
0.103521 -0.0809082 1.06507
-0.223846 -0.0937169 1.4626
-0.205258 -0.0651466 1.35649
-0.257462 -0.0292358 1.44431
-0.115124 -0.0167113 1.14673
0.0624734 -0.0138572 1.05476
-0.214462 0.0106322 1.40853
-0.107552 0.0229201 1.13866
-0.0393199 0.0241359 1.09826
-0.233656 0.0486149 1.4059
-0.0860809 0.0597575 1.09883
-0.00427829 0.0654406 1.00808
-0.124698 0.102543 1.13785
0.00526988 0.112024 1.04
-0.0378819 0.157486 1.09388
0.0238909 0.169422 1.05891
-0.06752 0.217295 1.12274
-0.19463 0.278845 1.49849
-0.0488515 0.229288 1.08939
-0.0786689 0.239799 1.11824
-0.0452039 0.262667 1.11128
0.250778 0.352568 1.24929
0.435738 0.452126 1.36465
-0.328527 0.428361 1.44194
-0.299769 0.419601 1.39041
-0.312102 0.441939 1.39733
0.169146 0.483855 1.26048
0.166422 0.511573 1.24771
-0.231577 0.454063 1.22656
-0.10718 0.496628 1.25966
-0.140415 0.490281 1.22776
-0.162415 0.534067 1.25098
-0.308002 0.540168 1.29225
-0.331064 0.555317 1.30114
0.093339 0.592601 1.20986
-0.136254 -0.0887052 1.1482
0.0759744 -0.401141 1.13958
-0.108759 -0.404488 1.37145
0.0565102 -0.10311 1.04737
-0.0758158 -0.0877331 1.07447
-0.121754 -0.0761574 1.11692
0.0389116 -0.0468474 1.06073
-0.0554662 -0.0366212 1.10376
-0.162149 -0.0131925 1.22255
-0.182014 -0.00826169 1.2827
-0.0624978 0.00147868 1.11135
-0.144812 0.295264 1.40998
-0.0793272 0.288359 1.24359
-0.164789 0.360133 1.3834
0.209073 0.394922 1.25332
0.152434 0.498713 1.27323
-0.30494 0.506152 1.33034
-0.0966999 0.521031 1.24779
0.129054 0.555231 1.21978
-0.265246 0.513437 1.26768
0.0204023 -0.0487918 1.06833
0.201847 -0.280282 1.12053
0.135628 -0.223697 1.14224
-0.0752323 -0.0874174 1.06768
0.0314134 -0.0456616 1.0618
-0.0540255 -0.0365576 1.09578
-0.182479 -0.0148311 1.30073
0.0710288 -0.0107391 1.07423
0.203307 -0.00364834 1.15447
-0.066474 0.00250201 1.11331
-0.244845 0.0312623 1.34971
-0.144899 0.241756 1.57712
0.0679957 0.247749 1.09361
-0.117146 0.426718 1.28466
-0.0473788 0.0410224 1.09657
0.166671 0.0842797 1.27745
-0.0537734 0.143926 1.08902
-0.0246852 -0.390418 1.08198
0.118704 -0.308915 1.10137
-0.04194 -0.226453 1.09058
-0.0313838 -0.212226 1.10029
0.0666343 -0.0960656 1.06093
0.152831 -0.0619896 1.0953
-0.0525902 -0.0288271 1.10603
-0.124086 0.0568666 1.13417
-0.0561715 0.151136 1.08189
-0.0306666 0.157862 1.07655
-0.00294902 0.180955 1.04061
-0.0411094 0.192811 1.07689
-0.122952 0.213886 1.45378
0.012103 0.216493 1.06264
-0.0920956 0.233486 1.13493
-0.0361312 0.239074 1.07479
-0.044776 0.239616 1.07833
-0.0172357 0.260293 1.0663
0.0114975 0.262586 1.06874
-0.00827277 0.341539 1.21207
-0.036232 0.3618 1.2372
-0.0475847 0.457504 1.27277
-0.0857584 0.500626 1.20181
0.360233 0.581598 1.29144
-0.044006 0.518131 1.19578
0.290105 0.589934 1.26051
0.0629214 0.55267 1.21885
0.378187 0.610614 1.2655
-0.309893 0.524596 1.32636
-0.38306 0.526103 1.3573
-0.387501 0.536236 1.34404
0.0282331 0.575381 1.23723
-0.249559 0.539368 1.2346
-0.397536 0.546539 1.32106
-0.378686 0.559099 1.32143
-0.250042 0.557208 1.22267
-0.215644 0.559746 1.21292
-0.421929 0.554973 1.29621
-0.223209 0.571711 1.18553
-0.0866088 0.597838 1.19139
-0.319003 0.583198 1.28088
-0.183587 0.588323 1.20398
-0.146902 0.590872 1.19281
-0.195469 0.586661 1.19709
-0.309167 0.588807 1.27604
-0.261847 0.579958 1.21077
-0.218482 0.583114 1.19142
-0.145 0.60739 1.19809
-0.410278 0.58191 1.27779
-0.19851 0.595114 1.18953
-0.180401 0.601972 1.19281
-0.130206 0.609776 1.19822
-0.304904 0.602264 1.27327
0.00704712 0.641002 1.20635
-0.36736 0.60263 1.30023
-0.396911 0.593324 1.28299
-0.296303 0.606049 1.25437
-0.136857 0.616561 1.18834
-0.27728 0.607846 1.24519
-0.0891607 0.626214 1.18611
-0.368649 0.606201 1.27589
-0.318985 0.612271 1.26425
-0.298299 0.61488 1.25657
-0.140797 0.624789 1.18823
-0.284725 0.616515 1.24965
-0.27704 0.620121 1.24616
-0.404115 0.602214 1.2639
-0.217773 0.615959 1.18397
-0.308832 0.620388 1.25383
-0.396402 0.6104 1.2696
-0.300627 0.625067 1.24648
0.00906293 -0.391259 1.11444
0.0306998 -0.250892 1.09686
0.0494277 -0.241827 1.09589
-0.0948963 -0.0553798 1.10734
-0.0974444 -0.0370576 1.12482
-0.114026 -0.0232944 1.15127
-0.084858 0.0190553 1.10891
-0.106149 0.0230387 1.14129
-0.0643304 0.131501 1.07937
0.0468653 0.149341 1.07713
-0.0863486 0.323993 1.2721
0.0288073 0.376952 1.23265
-0.347108 0.50959 1.34577
0.302397 0.604944 1.26006
-0.0187112 0.576561 1.20845
-0.408003 0.542327 1.31259
-0.0691277 -0.104976 1.07563
-0.00894563 -0.0300739 1.09521
-0.0242722 -0.00168648 1.10211
-0.0507789 0.122576 1.06422
-0.0187073 0.154334 1.05142
-0.0437818 0.248778 1.08064
0.0855718 0.510331 1.24416
0.0652753 0.552027 1.21821
-0.37804 0.523839 1.35029
-0.358688 0.554136 1.31105
-0.173457 0.562395 1.19805
-0.07487 0.599669 1.18365
-0.208189 0.584588 1.1881
-0.145484 0.605607 1.1963
-0.0218958 -0.308817 1.09538
-0.10102 -0.232992 1.14409
0.00650994 -0.239671 1.10401
-0.0627378 -0.230529 1.12259
-0.0370218 -0.205835 1.09749
-0.0643154 0.0879942 1.08208
-0.0604668 0.342731 1.2479
-0.0820986 0.399293 1.26533
0.204665 0.451091 1.3157
-0.373251 0.447606 1.40122
-0.370673 0.513797 1.35109
-0.0836065 0.53248 1.20055
-0.372635 0.548485 1.32616
-0.183102 0.560366 1.22649
-0.0895016 0.579036 1.19379
-0.17247 0.581475 1.20491
-0.144265 0.58406 1.19157
-0.20516 0.586397 1.20568
-0.11913 0.59563 1.19153
-0.0534328 0.174359 1.08548
-0.0435083 0.2293 1.09031
-0.0357081 -0.255402 1.13378
-0.252263 -0.0323671 1.43495
-0.0393255 0.100929 1.0803
0.0346457 -0.183192 1.07475
0.0985408 -0.0722456 1.05619
0.0521015 0.15928 1.03732
0.0171084 0.205579 1.08058
0.0547766 0.248032 1.06925
-0.0629031 0.528644 1.21107
-0.211644 0.579125 1.19532
0.0529138 -0.111116 1.0521
0.0685624 0.493953 1.22649
0.281234 0.53027 1.28246
-0.423835 0.548854 1.30883
-0.350907 0.621389 1.27357
0.0362568 -0.184969 1.07592
0.0351374 0.185133 1.0725
-0.0653098 0.580079 1.19202
0.0248303 -0.368208 1.08624
-0.0102546 -0.363325 1.08844
-0.02376 -0.360226 1.09039
0.013205 -0.356615 1.09124
-0.0871825 -0.322831 1.05579
0.0735191 -0.270843 1.1103
0.102898 -0.241517 1.10637
0.18094 -0.237435 1.15073
0.0688112 -0.22082 1.09197
0.0713899 -0.196308 1.07114
0.145568 -0.207197 1.13101
0.190566 -0.184755 1.15894
0.08839 -0.155975 1.07713
0.0991728 -0.155183 1.07805
0.174292 -0.101387 1.10777
0.218252 -0.118001 1.18325
0.0400223 -0.0977726 1.05656
-0.0538684 -0.0657555 1.08448
0.0554198 -0.0557613 1.06099
0.0624131 -0.0521027 1.06733
0.134747 -0.0501927 1.09507
0.0169116 -0.042813 1.06613
0.181711 -0.0476434 1.13124
0.127085 -0.0389488 1.10951
0.161749 -0.0399396 1.12645
-0.0104154 -0.0253642 1.0666
0.168403 -0.0204403 1.13998
0.294669 -0.036017 1.42899
0.304602 0.000239279 1.4271
0.15119 0.0573994 1.11633
0.268458 0.0255061 1.38965
0.0487374 0.0763488 0.978937
0.114627 0.0716323 1.08438
0.122188 0.0745124 1.08599
0.223632 0.0576087 1.34469
0.134509 0.0929229 1.09269
0.24119 0.0913047 1.34145
0.26611 0.110801 1.36166
0.0357144 0.132714 1.03418
0.0960992 0.139144 1.06052
0.137146 0.148548 1.09337
0.126494 0.159375 1.09249
0.0711696 0.176084 1.04832
0.0279093 0.179743 1.04271
0.111375 0.186024 1.09391
0.0555372 0.204499 1.08259
0.115517 0.218667 1.10001
0.108997 0.224171 1.0983
0.108892 0.231894 1.09856
0.128195 0.238688 1.1312
0.131001 0.235845 1.14812
0.118166 0.236949 1.10071
0.0938264 0.245325 1.08816
0.125332 0.244617 1.12379
0.0769635 0.246664 1.09014
0.159365 0.261422 1.28805
0.107886 0.263337 1.11701
0.084767 0.279467 1.11688
-0.259553 0.323092 1.36911
0.12417 0.32612 1.27616
0.101999 0.340126 1.2678
-0.260266 0.356759 1.29805
0.109302 0.346079 1.27939
-0.23305 0.368355 1.37163
0.057745 0.348283 1.21201
-0.248206 0.368187 1.3072
-0.248149 0.374328 1.37172
-0.236229 0.379769 1.37232
-0.236824 0.388747 1.38854
0.057938 0.369791 1.23402
0.303311 0.392058 1.42065
-0.233982 0.40114 1.36686
0.234082 0.369172 1.22505
-0.240691 0.404205 1.35473
0.311152 0.410673 1.39823
0.307342 0.419489 1.38583
0.290585 0.420898 1.37814
0.275071 0.422262 1.3819
0.299829 0.42392 1.37947
0.351571 0.426147 1.40616
0.312822 0.428805 1.38144
0.276651 0.433736 1.34249
0.351744 0.4411 1.39595
-0.248943 0.44912 1.28285
0.305003 0.454267 1.3585
0.339529 0.454484 1.37258
0.325556 0.45473 1.36226
-0.0508035 0.453117 1.26686
0.350034 0.462916 1.38816
-0.272385 0.476683 1.35453
0.276446 0.457176 1.32061
0.358862 0.466275 1.37467
0.151326 0.460424 1.28237
0.299738 0.468311 1.34106
0.32179 0.473369 1.34442
0.345886 0.4718 1.35082
0.246635 0.479716 1.28975
0.258058 0.483399 1.28907
0.335888 0.495829 1.33519
0.329605 0.501954 1.33133
0.324144 0.50797 1.32648
0.337622 0.508989 1.33238
0.35322 0.51217 1.333
0.331535 0.51272 1.32606
0.00524181 0.506962 1.21549
0.273184 0.512492 1.29457
0.232894 0.512079 1.26438
0.278041 0.51889 1.28975
0.292841 0.523151 1.28926
0.297967 0.52976 1.29029
0.223888 0.527089 1.25203
0.349581 0.537615 1.3173
0.279683 0.533738 1.2794
0.0271442 0.53336 1.22865
0.00659933 0.535315 1.21682
0.341499 0.542228 1.31494
-0.00315652 0.535593 1.20398
0.223543 0.535778 1.24758
0.195109 0.542227 1.25462
-0.216177 0.558932 1.2188
-0.00111353 0.549994 1.22362
-0.0192541 0.547121 1.19466
-0.00846522 0.54999 1.20831
-0.468727 0.5984 1.29684
-0.0161598 0.5565 1.20651
-0.360258 0.599367 1.2851
0.00944233 0.570982 1.21467
-0.471849 0.612407 1.26809
-0.0345144 0.57665 1.20723
-0.463065 0.623118 1.28273
-0.476005 0.625052 1.26336
-0.124494 0.589318 1.19536
-0.353808 0.626094 1.25694
-0.44344 0.641872 1.27054
-0.188006 0.604312 1.17962
0.0711841 -0.4004 1.13188
0.0293847 -0.382395 1.09307
-0.14506 -0.291842 1.12538
0.152496 -0.228602 1.1346
0.0662923 -0.20709 1.07265
0.115005 -0.205989 1.09663
-0.120255 -0.241495 1.16925
0.211598 -0.177494 1.19303
0.136856 -0.122489 1.07941
0.104248 -0.116858 1.09235
0.091392 -0.0318926 1.10705
0.123078 -0.0278875 1.10923
0.164106 -0.0295583 1.13041
0.111012 -0.0174374 1.10398
0.288676 -0.0495986 1.41252
0.130195 0.00526722 1.14071
0.270452 -0.0181146 1.40901
0.12638 0.0339323 1.11106
0.101562 0.0675132 1.08165
0.0227191 0.0958481 1.03611
0.0742153 0.148663 1.05788
0.155163 0.164257 1.1116
0.0663059 0.193792 1.04564
0.206258 0.19803 1.42878
0.0306907 0.207751 1.0498
0.0877721 0.226221 1.10838
0.100711 0.232467 1.09328
0.182354 0.264693 1.43756
0.117349 0.34052 1.26964
0.0232267 0.341299 1.1939
0.0978814 0.379566 1.26426
0.284481 0.392029 1.40875
0.117042 0.3842 1.2689
0.272709 0.409203 1.36955
0.116646 0.413679 1.27269
0.0484225 0.42488 1.2474
0.262294 0.444169 1.32149
0.0524356 0.461129 1.27256
0.33398 0.473917 1.34945
0.0127106 0.48729 1.27487
0.164988 0.481518 1.20936
0.280983 0.502875 1.2976
-0.420832 0.553418 1.30807
0.134728 0.507508 1.24416
-0.228937 0.56131 1.21068
0.123084 -0.0419728 1.10129
0.0692368 -0.017404 1.08158
0.169392 -0.0194369 1.1405
0.0823709 -0.00822271 1.08531
0.120287 0.0894191 1.08725
0.0685194 0.128218 1.04356
0.0934598 0.245592 1.08866
-0.462468 0.495459 1.36193
-0.472072 0.49919 1.35244
-0.459889 0.53885 1.31979
0.337315 0.516327 1.32489
0.261179 0.518737 1.28383
-0.382981 0.600281 1.28275
0.0283629 -0.382844 1.09285
0.00604093 -0.380068 1.09166
-0.0501603 -0.369271 1.08724
-0.00446281 -0.372258 1.11738
-0.00609635 -0.354075 1.09355
-0.0669169 -0.335985 1.09172
0.108773 -0.21842 1.10734
-0.0938078 -0.236315 1.15649
0.157884 -0.0849671 1.09342
0.16561 -0.0596665 1.10697
0.225716 -0.0638914 1.24273
-0.0146756 -0.0371645 1.09556
0.179704 -0.00375936 1.147
0.155534 7.37737e-05 1.13538
0.103674 0.019261 1.10017
0.100648 0.0631394 1.08094
0.0625772 0.0910788 1.02912
0.0761498 0.0999268 1.06503
0.118543 0.133613 1.07986
0.0794145 0.147664 1.04529
0.12884 0.148559 1.08736
0.100353 0.165139 1.0878
0.136244 0.165188 1.09952
0.113573 0.176613 1.09416
0.0747001 0.199442 1.07009
0.096176 0.228237 1.08699
0.0931222 0.245741 1.088
0.13014 0.289801 1.24587
0.183538 0.33623 1.33331
-0.237017 0.390949 1.3677
0.0725679 0.369099 1.23829
0.11795 0.382791 1.2574
0.0533037 0.388449 1.24559
0.261323 0.445547 1.32739
-0.41916 0.490628 1.35104
0.00114156 0.459132 1.2644
-0.452786 0.514389 1.34724
0.0126679 0.512319 1.21778
-0.173219 0.565112 1.20795
-0.195073 0.571741 1.2041
0.0517915 -0.376093 1.09662
0.115893 -0.299851 1.04996
-0.115096 -0.283185 1.18352
0.0721265 -0.156023 1.07232
0.172185 -0.0305385 1.12343
0.100302 0.112857 1.07015
0.12664 0.150467 1.08801
0.110898 0.182521 1.09376
0.0899044 0.23078 1.09253
0.113132 0.387035 1.24953
0.246045 0.107379 1.3515
-0.116865 -0.287928 1.19178
0.121983 -0.113717 1.07237
0.0968753 -0.0786163 1.06603
0.114272 0.0332433 1.09465
0.106126 0.109796 1.07449
-0.0468893 -0.385427 1.08805
-0.0420233 -0.359485 1.08964
-0.0536541 -0.336566 1.06105
-0.0755431 -0.333463 1.06098
0.147212 -0.296007 1.05827
0.150785 -0.29715 1.08008
-0.0759583 -0.324356 1.06195
-0.10962 -0.302598 1.07073
0.13104 -0.246501 1.12145
-0.123659 -0.284989 1.15834
0.161577 -0.234796 1.14057
-0.181109 -0.269372 1.16534
0.132306 -0.20346 1.11546
0.248787 -0.218083 1.21637
0.24894 -0.206794 1.21942
0.121538 -0.190614 1.12176
0.120203 -0.170691 1.09225
0.262766 -0.151255 1.21541
0.213167 -0.135987 1.17904
0.230774 -0.13453 1.20851
0.0877598 -0.0999089 1.06038
0.131126 -0.0873944 1.07374
0.272507 -0.178916 1.51213
0.176593 -0.0855952 1.10181
-0.00729062 -0.0761221 1.06162
0.167552 -0.0601366 1.10642
0.232701 -0.0867831 1.24358
0.230231 -0.0744206 1.23839
0.156895 -0.0494677 1.11002
0.165716 -0.0460197 1.11567
0.106915 -0.0317716 1.10875
0.233394 -0.045831 1.2363
0.0744092 -0.00783703 1.09861
0.0828786 -0.00565585 1.10398
0.101094 -0.0036246 1.10947
0.249762 -0.0277378 1.33833
0.253706 -0.0307603 1.41302
0.243252 0.0202012 1.36403
0.240426 0.0415461 1.31143
0.249417 0.0326528 1.41125
0.0862534 0.0732063 1.06713
0.0744552 0.083547 1.06209
0.27941 0.082846 1.40483
0.0634344 0.117076 1.04051
0.143952 0.143614 1.09588
0.198506 0.148452 1.19059
0.0671394 0.166278 1.05121
