ply
format ascii 1.0
element vertex 1727
property float x
property float y
property float z
end_header
-0.209579 -0.124276 1.55098
-0.329884 0.0100559 1.30363
-0.125321 -0.0221805 1.61756
-0.11846 -0.0477615 1.63503
-0.159409 -0.0513695 1.61621
-0.360473 0.0261335 1.23922
-0.331002 -0.00251874 1.30826
0.553843 0.480298 1.64927
0.633214 0.422119 1.48181
0.578654 0.444781 1.63482
0.113151 0.428792 1.52096
0.582225 0.395583 1.60994
0.219927 0.400759 1.51765
0.604139 0.375644 1.55894
0.060792 0.400196 1.51107
0.0634013 0.390011 1.56041
0.0667671 0.37868 1.5384
0.142299 0.30913 1.32585
0.134902 0.317098 1.39439
0.0719425 0.360018 1.54962
0.122018 0.30818 1.40056
0.0440218 0.371169 1.63518
0.129518 0.273731 1.35902
1.3024 -0.330642 -0.521488
1.34609 -0.340263 -0.525366
1.38022 -0.322444 -0.458512
0.117393 0.284562 1.38516
0.960665 -0.324963 -0.597333
0.0336122 0.339319 1.58537
0.0583298 0.328295 1.57635
1.19103 -0.337259 -0.481919
0.12746 0.246767 1.30464
0.406976 0.297929 1.64539
0.786184 -0.365517 -0.696873
0.802932 -0.358981 -0.667117
0.0282869 0.344696 1.66666
1.43921 -0.410065 -0.479078
0.0312669 0.342718 1.69985
0.351474 0.287535 1.65757
0.0199029 0.338162 1.68267
0.0339422 0.331965 1.68599
0.35008 -0.431423 -0.898931
0.569162 -0.466528 -0.901197
1.20371 -0.439731 -0.493348
0.403524 -0.43131 -0.836887
0.106899 0.21789 1.33483
0.123302 0.194407 1.28075
1.06749 -0.485914 -0.602366
0.483045 -0.516961 -0.979663
0.0167851 0.315311 1.67892
0.422677 0.258809 1.70441
0.39159 -0.488362 -0.893977
0.399608 0.253003 1.68202
1.21486 -0.54162 -0.611877
0.00943643 0.315557 1.70073
1.28931 -0.543745 -0.574997
0.100853 0.190712 1.3381
1.03319 -0.530516 -0.615903
-0.013598 0.308447 1.69403
0.0322548 0.304293 1.7171
0.423591 0.241034 1.70877
0.0117898 0.297954 1.68822
0.0352143 0.263594 1.59553
1.00597 -0.618582 -0.758798
0.113256 0.165761 1.34947
0.0378004 0.244027 1.56661
0.479683 -0.641185 -1.04873
0.465303 -0.597419 -0.931512
0.818778 -0.604359 -0.752757
-0.065817 -0.552002 -1.005
1.01178 -0.670472 -0.785635
0.111049 0.159151 1.36419
0.332549 -0.61407 -0.948523
0.106533 0.147302 1.34643
0.00820322 0.261276 1.65298
0.474188 -0.657511 -0.982234
1.06928 -0.698035 -0.787152
0.27573 -0.634108 -0.984318
0.742789 -0.692715 -0.873314
0.127364 0.143454 1.3802
0.10243 0.16146 1.42434
0.990981 -0.713598 -0.77957
0.104961 0.128039 1.33328
0.127783 0.0877542 1.24069
0.106623 0.116152 1.3129
0.454135 0.231729 1.85373
1.16145 -0.74123 -0.704144
0.0749039 0.272802 1.78873
0.383153 0.22742 1.81372
0.0959207 0.151145 1.4317
0.953191 -0.739246 -0.757533
-0.0192583 0.286794 1.78454
0.095979 0.101836 1.30141
0.885903 -0.751749 -0.782858
0.0988388 0.147971 1.44961
-0.00824495 0.259224 1.71832
0.0461528 0.067257 1.18781
0.128814 0.116637 1.38002
0.400008 0.184709 1.74982
0.728471 -0.784674 -0.926033
0.085393 0.0929587 1.30095
0.100388 0.0956523 1.31594
0.119283 0.106649 1.35823
0.0490241 0.0757978 1.23914
0.0521971 0.0821741 1.25901
0.435396 0.217263 1.89564
0.728604 -0.829634 -0.950967
0.12285 0.0903682 1.35498
0.687025 -0.817621 -0.935966
0.0654802 0.0800879 1.30001
0.741068 -0.831854 -0.920906
0.011703 0.0558361 1.20517
0.051304 0.0723271 1.27931
0.00690311 0.206698 1.64216
-0.0210228 0.251136 1.74807
0.857441 -0.848853 -0.884474
0.0101084 0.0604491 1.22763
0.114621 0.122796 1.47205
-0.0113845 0.250663 1.76851
0.0424591 0.0623992 1.27952
0.0550475 0.0695861 1.29837
0.101596 0.10692 1.43605
0.951513 -0.902789 -0.899935
0.72925 -0.889638 -0.962983
0.858041 -0.904303 -0.920781
0.0457727 0.0600817 1.29401
0.953334 -0.906691 -0.85017
0.0796911 0.057495 1.31841
-0.0128551 0.262739 1.83542
0.412931 0.198187 1.90559
0.949134 -0.958342 -0.939401
0.0888832 0.0564683 1.34839
0.0789105 0.0704133 1.38474
0.0922116 0.108344 1.49427
-0.0529236 0.0795921 1.34171
-0.0463743 0.0828619 1.35746
0.0378135 0.0681856 1.38704
-0.00584354 0.113351 1.48261
-0.0385853 0.252585 1.84629
0.0132887 -1.00532 -1.429
-0.0316964 0.0831918 1.40906
0.947517 -1.02182 -0.903494
-0.0228022 0.0820216 1.42458
-0.0363076 0.248615 1.85591
0.345232 0.158913 1.8747
0.0136056 0.0887766 1.48769
-0.034051 0.228843 1.82464
0.386288 0.169395 1.92497
-0.101498 0.0763864 1.41224
0.0506218 0.0530236 1.47093
-0.0403142 0.221658 1.82963
-0.0919617 -0.924362 -1.09258
-0.109201 0.0611278 1.38885
-0.111384 0.110025 1.49666
-0.0228764 0.0686663 1.46953
-0.0483493 0.225682 1.85331
-0.0766024 0.0368917 1.38285
-0.0162808 0.162709 1.71683
-0.0485468 0.233339 1.8729
-0.108292 0.0563132 1.40156
-0.0944921 0.0667157 1.43467
-0.104657 0.0608015 1.42948
-0.00864282 0.0637256 1.50746
-0.150307 0.0185409 1.31599
-0.0732199 0.0657629 1.48266
-0.080729 0.0624413 1.47372
0.408809 0.121299 1.92523
-0.097567 0.0577335 1.46374
-0.0379895 0.0666476 1.52528
-0.0561781 0.146194 1.70399
-0.0287762 0.15284 1.73962
-0.148333 0.0313719 1.3756
-0.076114 -1.06935 -1.2047
-0.069336 0.18976 1.82585
-0.158109 0.0261594 1.38459
-0.0564059 0.197117 1.85529
-0.0714631 0.193771 1.84685
-0.071788 0.0516795 1.51356
-0.0679646 0.187241 1.83477
-0.176935 0.00329855 1.34393
-0.0682486 0.192541 1.85412
0.0101358 0.196293 1.92178
-0.0980244 -1.11165 -1.18218
-0.556239 0.0587687 1.24554
-0.0554411 0.143239 1.75435
-0.0723538 0.0468712 1.53223
-0.0771369 0.17728 1.8316
-0.0870935 0.0433289 1.52498
-0.0347051 0.129629 1.75784
-0.0685615 0.161744 1.81635
-0.157222 0.0255892 1.44508
-0.0411192 0.13788 1.77747
-0.0503822 0.0419951 1.55449
-0.111035 0.121648 1.70218
-0.113489 0.0404493 1.52059
-0.0998052 0.0359529 1.52665
-0.0537875 0.12699 1.75697
-0.177903 -0.0155375 1.36793
-0.164187 0.0153564 1.43877
-0.0443459 0.122961 1.76327
-0.0803005 0.172991 1.8522
-0.0793848 0.166604 1.83946
-0.0459049 0.123768 1.77502
-0.0850025 0.11894 1.74336
-0.0667056 0.183247 1.89594
-0.11702 0.0282953 1.5314
-0.105701 0.0319351 1.53827
-0.0787593 0.0321571 1.56036
-0.0987237 0.117013 1.74064
-0.135266 0.0229105 1.51589
-0.177747 0.00462774 1.45525
-0.104467 0.019693 1.54853
-0.186149 -0.020538 1.40784
-0.0796855 0.0238284 1.56988
-0.0657341 0.176736 1.91148
0.324315 0.0732058 1.95387
-0.108144 0.0151976 1.56697
-0.0963153 0.0167315 1.57463
-0.180903 0.00794988 1.50516
-0.587708 0.0493622 1.33599
-0.182304 -0.0070419 1.48274
-0.0954008 0.156507 1.88507
-0.39684 0.0126543 1.38998
-0.527845 0.0153855 1.31149
-0.40962 0.00990224 1.38078
-0.131494 0.0815464 1.71046
-0.124797 0.00715219 1.56963
-0.114788 0.00908399 1.57761
-0.625666 0.0505515 1.33265
-0.193225 -0.0141179 1.48201
-0.0578931 0.089679 1.78487
-0.216047 -0.0398061 1.42433
-0.210664 -0.0328567 1.437
-0.0985762 0.141275 1.86967
-0.0958148 0.15424 1.89932
-0.560313 0.0238978 1.3268
-0.395719 0.00541589 1.39987
-0.0980689 0.143322 1.8803
-0.15476 0.000513717 1.56206
-0.577827 0.0437134 1.37158
0.463175 -0.0178265 1.93764
-0.5356 0.00299702 1.33234
-0.216391 -0.0444791 1.44684
-0.497393 0.000694214 1.36462
-0.191196 -0.0288641 1.52333
-0.148244 -0.00907993 1.58354
-0.486519 -0.0150924 1.3597
-0.22679 -0.0628102 1.44757
-0.078671 0.0678421 1.80281
-0.153776 -0.0176888 1.5925
-0.165048 -0.0210947 1.58548
-0.0848874 0.0521856 1.78401
0.330144 -0.00399558 1.94895
-0.0769881 0.0538152 1.79365
-0.231357 -0.0690304 1.46098
-0.0846777 0.0682479 1.8256
-0.620579 0.0286732 1.38974
-0.466726 -0.0228008 1.39946
-0.242772 -0.0607387 1.46184
-0.259066 -0.113133 1.38614
-0.124654 0.0224819 1.73266
-0.229901 -0.0589305 1.51123
-0.237344 -0.0631222 1.50325
-0.0890122 0.0395524 1.80204
-0.184526 -0.0380886 1.59343
-0.243824 -0.0822107 1.48486
-0.0902824 0.0425039 1.82261
-0.250762 -0.0812725 1.5025
-0.623837 -0.00464029 1.41202
-0.264708 -0.0996353 1.49271
-0.245165 -0.0732098 1.5491
-0.238003 -0.0823598 1.56271
-0.317199 -0.144101 1.40429
-0.0813371 -0.0759789 1.7063
-0.424023 -0.0992534 1.43994
-0.176528 -0.0856762 1.64146
-0.179952 -0.0973362 1.65217
-0.0837949 -0.139684 1.6704
-0.285722 -0.163826 1.49962
-0.274812 -0.156948 1.52492
-0.270629 -0.143658 1.57174
-0.29068 -0.178998 1.50639
-0.271726 -0.158064 1.55601
-0.289345 -0.19196 1.51428
0.419424 -0.232095 2.00359
-0.276391 -0.193181 1.57635
0.407981 -0.217038 2.03322
-0.25401 -0.169971 1.63375
-0.246849 -0.1717 1.64524
-0.214807 -0.184232 1.64825
-0.178566 -0.183744 1.67299
-0.146744 -0.181953 1.70133
0.402658 -0.231582 2.02678
0.531858 -0.592245 1.89282
0.130994 0.45064 1.43986
0.0974737 0.417504 1.52575
0.105973 0.405281 1.46649
0.141326 0.352512 1.36353
0.117045 0.294131 1.37333
1.33403 -0.339965 -0.443157
0.0574042 0.316547 1.54725
0.0457514 0.334594 1.71573
0.00767104 0.330235 1.66346
0.955326 -0.460363 -0.618342
0.146423 0.189347 1.33921
0.156474 0.148463 1.24534
0.411618 0.245174 1.74105
0.0662694 0.0732721 1.19085
0.0364444 0.0417461 1.14681
0.0531242 0.0464774 1.16716
0.417806 0.214289 1.89043
-0.0368338 0.0302495 1.16739
0.0219811 0.0616261 1.29252
0.0494054 0.0661992 1.32073
-0.0269261 0.230071 1.75581
0.368512 0.181196 1.85637
-0.0294949 0.235056 1.78113
-0.00887475 0.076767 1.48874
0.0130358 0.0777373 1.53112
0.359586 0.141591 1.91219
-0.101863 0.0587462 1.44769
-0.0542304 0.0624641 1.50085
-0.0339004 0.0680927 1.5256
-0.044463 0.165727 1.7533
0.343381 0.112519 1.92588
-0.156767 0.024289 1.41492
-0.116894 0.0435327 1.50167
-0.458716 0.0047248 1.21432
-0.108661 0.0368521 1.5154
-0.0651142 0.0530636 1.59171
-0.106861 0.123397 1.72978
0.274401 0.100013 1.9429
-0.0664318 0.105812 1.76676
-0.20928 -0.03411 1.38547
-0.443924 0.0153999 1.33312
-0.0601264 0.106426 1.77929
-0.0812591 0.112073 1.81288
-0.20558 -0.0236042 1.47818
-0.12097 0.00143153 1.59867
-0.274843 -0.0590923 1.3842
-0.597422 0.0269489 1.33765
-0.074363 0.075133 1.79204
-0.204142 -0.0292314 1.52519
-0.447098 -0.0154716 1.38945
-0.369497 -0.0343619 1.43131
-0.189551 -0.0252923 1.56869
-0.395683 -0.0517586 1.43081
-0.23378 -0.0649166 1.52742
-0.172994 -0.0531273 1.62086
-0.0909163 0.0217928 1.82285
-0.176468 -0.0855157 1.64129
-0.0826408 -0.097401 1.6841
-0.0983036 -0.0775169 1.73349
-0.109443 -0.0564109 1.77679
-0.538887 -0.166174 1.3712
0.613569 0.371956 1.52442
0.590083 0.333831 1.56063
0.124004 0.289938 1.3485
0.043272 0.341707 1.6217
-0.0239994 0.348916 1.6481
-0.000114656 0.328408 1.61533
0.911514 -0.550682 -0.80986
0.0150741 0.280969 1.6622
0.401876 0.236876 1.72115
0.013322 0.283437 1.7357
0.0891479 0.103575 1.30078
0.114516 0.128695 1.42107
0.0597037 0.088626 1.27403
0.680882 -0.830687 -0.940172
-0.0215234 0.247468 1.74748
-0.00724411 0.211144 1.71563
-0.0372114 0.22427 1.81617
-0.0943783 0.0691085 1.43257
-0.127585 0.0513801 1.41598
-0.0631978 0.20087 1.82295
-0.0535499 0.145439 1.70201
-0.037729 0.144454 1.71487
-0.0493371 0.0314551 1.46513
-0.0551013 0.0573543 1.52546
-0.0528913 0.164489 1.81676
-0.0354137 0.130246 1.75737
-0.031255 0.131221 1.77411
-0.0533417 0.149906 1.82228
-0.165389 0.0124937 1.44123
-0.0608639 0.140074 1.79894
-0.10515 0.031762 1.54306
-0.176447 0.00424758 1.46712
-0.0802012 0.103774 1.75064
-0.124762 0.0209166 1.54213
-0.199466 -0.019993 1.4412
-0.0866446 0.0805182 1.73026
-0.0822579 0.129388 1.86054
-0.129605 -2.1149e-05 1.5807
-0.408559 -0.00303102 1.40406
-0.221807 -0.0318266 1.48213
-0.215186 -0.0254555 1.49979
-0.160583 -0.0110123 1.57427
-0.135467 -0.0121952 1.59234
-0.41844 -0.0127159 1.40421
-0.229631 -0.0609844 1.45037
-0.187713 -0.0423854 1.52248
-0.16482 -0.0218497 1.58587
-0.227889 -0.052392 1.50019
-0.172398 -0.0321739 1.59531
-0.261998 -0.100232 1.44279
-0.505006 -0.0403787 1.38842
-0.190903 -0.0567878 1.58845
-0.257169 -0.0949908 1.47255
-0.0974701 0.0067302 1.76845
-0.243924 -0.0884454 1.51812
-0.218927 -0.065918 1.57929
-0.60396 -0.0505437 1.35565
-0.397346 -0.0915549 1.43233
-0.633537 -0.0331271 1.38312
-0.0998664 -0.0017505 1.80252
-0.557723 -0.087736 1.35148
-0.105218 -0.0183983 1.79859
-0.0943237 -0.117837 1.66402
-0.286556 -0.171972 1.51173
-0.235809 -0.161317 1.64017
-0.150799 -0.181755 1.68741
-0.137683 -0.176377 1.71223
-0.208272 -0.201398 1.68788
-0.224317 -0.210272 1.67333
0.234827 0.426758 1.50817
0.0820922 0.422525 1.53869
0.0765921 0.411821 1.4918
0.106195 0.391823 1.43451
0.0540807 0.394614 1.56561
0.117979 0.333971 1.44238
0.336985 0.308138 1.61206
0.370922 0.256607 1.6729
0.126768 0.158991 1.27612
0.412917 0.237024 1.77533
0.0107185 0.289399 1.76034
0.0803255 0.0946099 1.17926
0.0340318 0.215291 1.57998
-0.0188254 0.270132 1.73701
0.0595184 0.0705987 1.19498
-0.0432499 0.0361734 1.17301
0.0437659 0.0269402 1.21784
-0.00366027 0.212627 1.70745
-0.0297043 0.231545 1.75699
-0.0130876 0.241469 1.81768
-0.0182195 0.250734 1.84451
-0.0689898 0.0705645 1.46123
-0.126416 -0.0560363 1.16347
-0.0401835 0.166243 1.74576
-0.101229 0.0500282 1.43885
-0.0457506 0.209187 1.88265
-0.0720379 0.0456295 1.53275
-0.0791306 0.187388 1.85357
-0.115274 0.0414968 1.50257
-0.0817417 0.130954 1.7319
-0.457147 0.000277161 1.21258
-0.0351122 0.198862 1.93074
-0.104764 0.12201 1.72616
-0.0839955 0.181829 1.87802
-0.12232 0.0305312 1.52584
-0.185204 -0.0117637 1.43485
-0.0929416 0.162772 1.87072
-0.155336 0.00801522 1.5335
-0.198236 -0.0317622 1.51893
-0.439493 -0.0293557 1.37806
-0.613156 -0.0151028 1.29963
-0.472646 -0.0218348 1.37423
-0.182949 -0.0362553 1.55928
-0.19886 -0.0391023 1.54919
-0.107592 0.0246248 1.73307
-0.601022 0.0183405 1.3831
-0.190931 -0.162459 1.37214
0.328212 -0.0471462 1.92691
-0.643155 0.0104799 1.39522
-0.277473 -0.113658 1.49521
-0.392423 -0.128006 1.42315
-0.241798 -0.0958015 1.5918
-0.547187 -0.101657 1.37316
-0.461127 -0.146418 1.39756
-0.0937628 -0.137357 1.72603
-0.209884 -0.225772 1.61262
-0.206865 -0.263196 1.62714
0.403827 0.236302 1.77947
0.0727628 0.099186 1.18437
0.0441914 0.0645098 1.20177
0.0855321 0.0739805 1.34633
-0.00956643 0.245285 1.79046
-0.00635753 0.216895 1.71204
-0.0532328 0.237618 1.87097
-0.073812 0.0479031 1.49906
-0.0958488 0.0412538 1.55388
-0.498867 -0.00760517 1.20333
-0.151286 0.0314711 1.50644
-0.272507 -0.0649894 1.37589
-0.442547 -0.109108 1.39139
-0.169435 -0.133362 1.6309
0.164305 0.256243 1.326
0.107407 0.156355 1.33553
-0.0349834 0.256169 1.85497
-0.0651187 0.0399999 1.58686
-0.154593 0.00804064 1.53374
-0.134453 0.00236653 1.57854
-0.209463 -0.0895074 1.36976
-0.116575 0.0408212 1.73001
-0.207789 -0.0455166 1.56869
-0.132491 0.0218913 1.75883
0.0659094 0.104944 1.19029
-0.0368937 0.0255548 1.53815
-0.125821 0.162341 1.89714
-0.0875792 -0.0237271 1.524
-0.208269 -0.0887799 1.43132
0.115016 0.316761 1.35881
1.32982 -0.720979 -0.679746
1.19669 -0.821175 -0.720096
0.0346231 0.329887 1.64738
1.00117 -1.09898 -0.929119
0.969669 -1.10964 -0.942631
0.0193682 0.315267 1.70853
0.482156 0.252847 1.82652
0.0250287 0.0282554 1.15764
0.00768684 0.287338 1.70221
0.0352812 0.0560095 1.26276
0.000344239 0.278776 1.71819
1.03345 -1.38533 -1.02548
0.0206723 0.034186 1.30083
0.0502131 0.0347739 1.31787
-0.532149 0.0762239 1.12967
-0.0236179 0.0776763 1.43923
0.0395407 0.111865 1.5674
-0.167286 0.0161126 1.34484
-0.0197103 0.0667621 1.53646
-0.149502 0.0389461 1.43006
-0.165476 0.0174824 1.39391
-0.130862 0.0433737 1.46738
-0.169393 0.0149513 1.42662
-0.195621 -0.0233774 1.36524
-0.162707 0.0179857 1.47223
-0.0576638 0.1341 1.73452
-0.090166 0.0221158 1.56318
-0.184639 -0.00714587 1.46849
-0.0854922 0.02005 1.58105
-0.0585541 0.188238 1.87542
-0.10307 0.00873008 1.5846
-0.0506497 0.104073 1.77644
-0.448669 -0.00186936 1.37767
-0.220271 -0.0483966 1.45877
-0.210163 -0.0334916 1.51646
-0.521148 -0.0175059 1.37239
-0.67755 0.0155864 1.3693
-0.667108 0.0174698 1.39126
-0.658603 0.0237313 1.40474
-0.106633 -0.0619964 1.77863
0.385917 -0.160786 2.04862
0.387773 -0.161006 2.08316
0.0812798 0.367839 1.6342
0.0330598 0.341459 1.64483
0.961958 -1.09366 -0.92633
0.0440188 0.304378 1.74967
0.0101619 0.0645559 1.543
-0.0926899 0.05414 1.48385
-0.136391 0.0391237 1.44983
-0.033035 0.0562017 1.54829
-0.170016 0.01328 1.42533
-0.153842 0.0179276 1.4915
-0.601364 0.0601597 1.32679
-0.45267 -6.86588e-05 1.35463
-0.19032 -0.00240248 1.5133
-0.112348 -0.112556 1.68392
1.09532 -1.09896 -0.941826
0.0178174 0.304637 1.65616
0.927415 -1.11505 -0.958355
0.0792279 0.121143 1.57157
-0.0514994 0.0551966 1.54426
-0.028183 0.0452109 1.57458
-0.190478 -0.0122394 1.41502
-0.215713 -0.0455213 1.50708
0.0730405 0.115469 1.23189
0.0447273 0.313886 1.69275
0.021792 0.0756818 1.20897
-0.00316214 0.305231 1.74655
-0.00288443 0.0287204 1.19836
0.0367493 0.0415649 1.26971
0.00611184 0.293392 1.8151
-0.0188949 0.049686 1.38924
-0.114509 0.0553084 1.43254
-0.151876 0.0176051 1.4985
-0.141984 0.0191633 1.51305
-0.212242 -0.0230624 1.42368
-0.161096 -0.0673479 1.63397
-0.169171 -0.111241 1.65099
-0.229555 -0.113255 1.61862
-0.251027 -0.141481 1.61798
-0.148913 -0.187917 1.71893
-0.0119896 0.0294465 1.19252
0.344212 0.188279 1.73229
-0.145588 0.0247723 1.50317
-0.206505 -0.0197165 1.52251
-0.176068 -0.0025583 1.50805
-0.130151 0.000817559 1.66081
0.120234 0.432312 1.50347
0.129578 0.321404 1.37312
0.0647341 0.360173 1.57942
0.116629 0.35757 1.65117
0.109685 0.179174 1.34839
0.11295 0.176425 1.37147
0.0900349 0.344641 1.67602
0.0342537 0.330176 1.64144
-0.0133794 0.0464267 1.16599
0.0296797 0.0761251 1.23764
0.0585546 0.0845041 1.27473
0.0244021 0.347108 1.68821
0.00391686 0.0234444 1.17529
0.42577 0.266177 1.73316
0.00141044 0.0442724 1.20741
0.0254778 0.0673796 1.2522
0.118006 0.109287 1.38582
0.0776696 0.0675902 1.30881
-0.0445121 -0.00867704 1.15379
0.0494757 0.0571029 1.28937
0.0356497 0.224378 1.56438
0.0196564 0.264942 1.63031
0.394641 0.20096 1.70023
1.09785 -2.01701 -1.2972
0.0830776 0.1352 1.48595
0.961831 -2.0847 -1.40314
0.928796 -2.09714 -1.43231
-0.0428688 0.0821484 1.37545
0.419636 0.22561 1.79528
-0.0468536 0.0799188 1.38617
0.00539504 0.31358 1.75245
-0.0364163 0.080386 1.4195
-0.129718 0.0476972 1.3373
0.0752754 0.103409 1.51079
0.042857 0.0829954 1.48644
0.0738174 0.0810803 1.50917
-0.0295366 0.0741939 1.44834
-0.00228945 0.273498 1.73663
0.00202093 0.0660671 1.46132
-0.131386 -2.36442 -1.93045
0.00319278 0.0783928 1.49206
-0.158988 0.0252597 1.35151
-0.024929 0.257282 1.7295
-0.0868083 0.0660458 1.45303
-0.0594449 0.0653948 1.47872
-0.447023 0.0255454 1.26923
0.045518 0.059143 1.55719
-0.0251403 0.265233 1.79537
0.0030192 0.0613134 1.56729
-0.215371 -0.0358485 1.3446
-0.102055 0.0458904 1.50467
-0.20572 -0.0275397 1.37482
-0.129732 0.0341352 1.49931
-0.582903 0.0627987 1.31575
-0.199304 -0.0173209 1.4014
0.360579 0.146909 1.8822
-0.229743 -0.0524106 1.35231
-0.0842031 0.0369086 1.5415
-0.0404873 0.0362145 1.56542
-0.241609 -0.0582487 1.35365
-0.038815 0.144809 1.70496
-0.454264 0.0200366 1.35547
-0.25597 -0.0567961 1.36394
-0.0654235 0.0308532 1.56368
-0.565857 0.0325528 1.32074
-0.000322748 0.249026 1.86448
-0.038969 0.225252 1.83747
-0.0354908 0.232395 1.84163
-0.383446 -0.000767503 1.40509
-0.370878 0.0037619 1.41483
-0.183722 -0.00616006 1.4997
-0.0453982 0.237793 1.85987
-0.273891 -0.0683971 1.38496
-0.0337458 0.235319 1.86265
-0.106091 0.132375 1.71083
0.274551 0.107503 1.87806
-0.403942 -0.00612821 1.40166
-0.0460997 0.131069 1.74365
-0.0238669 0.232963 1.88331
-0.0674127 0.126516 1.74529
-0.193487 -0.0232725 1.51183
-0.359131 -0.0213944 1.43107
-0.133166 0.0923819 1.68467
-0.0484811 0.228821 1.88942
-0.638295 0.0494876 1.377
-0.24514 -0.0777094 1.44633
-0.0507182 0.205132 1.86546
-0.101692 0.105292 1.744
-0.216494 -0.0451969 1.53361
-0.0541761 0.196477 1.87805
-0.215213 -0.0507048 1.54565
-0.24246 -0.0729163 1.51387
-0.555449 -0.0521492 1.37272
-0.213152 -0.0441971 1.5586
-0.493916 -0.0606576 1.39971
-0.231315 -0.0624489 1.54397
-0.213051 -0.0587962 1.59134
-0.265953 -0.11448 1.53079
-0.0825372 0.0159532 1.83996
-0.101166 -0.0963651 1.73785
-0.0949255 -0.15384 1.70721
-0.259913 -0.183595 1.62974
-0.136361 -0.180834 1.71122
-0.115561 -0.166643 1.75278
0.043519 0.351421 1.65696
0.423021 0.264962 1.71787
-0.0216207 0.0363199 1.18358
0.108794 0.0657264 1.34054
0.121788 0.0970168 1.39647
0.02532 0.10092 1.45058
0.0067323 0.26504 1.69226
0.383914 0.215036 1.80111
-0.0081734 0.0835565 1.44247
0.323428 0.189753 1.74638
0.0966697 0.276134 1.77348
0.0795376 0.0636087 1.48516
-0.0793828 0.0738267 1.44016
0.368628 0.203767 1.84132
-0.0177871 0.284311 1.785
-0.000905221 0.21613 1.70385
-0.127183 0.032741 1.42579
-0.0179984 0.277244 1.80585
0.00288138 0.14474 1.65412
-0.197196 -0.0165051 1.36911
-0.532214 0.0231821 1.29781
-0.0652676 0.0397405 1.54919
-0.0248878 0.251842 1.84995
-0.380042 0.0116873 1.38686
-0.325298 -0.0468236 1.35189
-0.143629 0.016793 1.51731
-0.407392 0.0124342 1.38149
-0.540307 0.0152277 1.32342
-0.227771 -0.0473942 1.40412
-0.0653902 0.139403 1.71602
-0.294815 -0.0749258 1.36563
-0.0415774 0.134661 1.74021
-0.0806202 0.131184 1.73149
-0.0639159 0.187683 1.80159
-0.0536515 0.204746 1.83524
-0.607431 0.0376805 1.36652
-0.163836 -0.00178842 1.55352
-0.173924 -0.0174709 1.55636
-0.552559 -0.0526143 1.34877
-0.223079 -0.081883 1.53925
-0.125983 -0.158767 1.6713
-0.148546 -0.17582 1.66831
0.135037 0.302339 1.64686
0.017579 0.337853 1.6636
0.401846 0.197354 1.70061
0.00209333 0.295423 1.71823
-0.115389 0.0550255 1.32897
0.00129158 0.266624 1.73891
0.0818225 0.0646762 1.5075
-0.0158678 0.0692613 1.45739
0.0115187 0.170193 1.62922
-0.149404 0.0430544 1.38521
-0.0863564 0.0635246 1.4536
-0.0242798 0.253582 1.78866
-0.0831826 0.0391345 1.52384
0.351101 0.102837 1.82307
-0.0345831 0.234284 1.80836
-0.424118 0.0253748 1.3696
-0.434249 0.00718681 1.37176
-0.046394 0.238676 1.85977
-0.551548 0.00122122 1.33202
-0.129173 0.0170522 1.57304
-0.399226 -0.0112236 1.41268
-0.0445159 0.21653 1.863
-0.0982042 0.00515101 1.59885
-0.128399 -0.0166969 1.61518
-0.130727 0.0766454 1.72319
-0.139487 -0.029607 1.62059
-0.0921168 0.0156853 1.78136
-0.211739 -0.189935 1.64325
0.0772293 0.369823 1.63451
-0.0188487 0.033253 1.18393
0.0502882 0.0681531 1.28671
0.00194642 0.298599 1.71566
0.0910321 0.117109 1.49877
0.390319 0.203265 1.75355
0.04734 0.0915061 1.50799
-0.0903412 0.0628015 1.41488
-0.0751302 0.0721761 1.43733
0.360765 0.172498 1.8366
0.0112029 0.065512 1.54449
-0.0192374 0.245526 1.76445
-0.0683533 0.0512509 1.49284
-0.0312046 0.0574305 1.55045
-0.0104417 0.13055 1.68541
-0.025935 0.0445483 1.57395
-0.0356205 0.211621 1.79092
-0.14454 0.021454 1.51513
-0.0361851 0.23194 1.82395
-0.233242 -0.0390933 1.4047
-0.457633 0.0171459 1.37111
-0.432808 0.0062382 1.37131
-0.48147 0.00753475 1.36041
-0.232172 -0.0503704 1.43173
-0.420929 -0.000731574 1.41311
-0.207517 -0.0360894 1.48857
-0.109797 -0.00409817 1.61288
-0.553655 -0.0548099 1.34452
-0.0666265 0.0799206 1.77031
-0.0895355 0.0706064 1.77356
-0.150425 -0.133149 1.66313
0.0551634 0.257299 1.71157
0.32462 0.197506 1.74038
-0.067462 0.0871207 1.46395
-0.0228857 0.269412 1.746
0.00546233 0.229545 1.74461
-0.159541 0.0201508 1.46612
-0.0447293 0.132694 1.73369
0.00571028 0.272784 1.69234
-0.101127 0.0402572 1.4804
0.0143785 0.0985772 1.52301
-0.0171413 0.253717 1.74983
0.71425 0.232786 1.24903
0.129635 0.442933 1.51097
0.0992494 0.115122 1.28817
0.0770384 0.318998 1.5664
0.0482286 0.271385 1.5428
0.0400043 0.342885 1.62328
0.0380545 0.354525 1.64478
0.121971 0.339678 1.66343
0.0345153 0.328944 1.62983
0.0351517 0.305185 1.60341
0.508075 0.266588 1.74516
-0.1474 0.00559573 1.24858
0.0627388 0.0762791 1.40019
-0.05327 0.079891 1.37033
-0.144191 0.0297867 1.29766
-0.0661353 0.0774985 1.37788
-0.159073 0.00593074 1.27107
0.449628 0.262238 1.76503
-0.0576868 0.0802432 1.39343
-0.0416562 0.0801965 1.40378
-0.548975 0.0877026 1.25701
-0.0565774 0.0783199 1.41399
-0.172626 -0.00542405 1.28737
-0.0985399 0.0660762 1.39167
0.0109322 0.300786 1.6723
0.465966 0.229649 1.77475
-0.169093 0.0116236 1.32482
0.0266764 0.31994 1.72841
0.450022 0.256816 1.80303
-0.100404 0.0649583 1.41754
0.0120002 0.296354 1.69983
-0.575435 0.0739186 1.27304
-0.462466 0.0337723 1.26602
0.442924 0.245766 1.81393
0.0099598 0.235109 1.65467
0.302375 0.203109 1.72666
0.0265237 0.0862866 1.51569
0.333289 0.196088 1.73493
-0.199131 -0.0263095 1.32225
-0.0354389 0.0612675 1.47503
-0.559934 0.0623427 1.29342
-0.48868 0.0326653 1.28528
-0.390379 0.0310944 1.32228
-0.0883328 0.062018 1.46373
-0.00527352 0.079711 1.51324
0.00746479 0.214377 1.65537
-0.159874 0.0217083 1.40338
-0.0233159 0.069225 1.50687
-0.40541 0.0291153 1.33535
-0.167688 0.0187107 1.4115
-0.0219185 0.0735275 1.51912
-0.20314 -0.0370578 1.3541
-0.369934 0.0234917 1.35863
0.388049 0.223308 1.831
-0.495132 0.0206884 1.31383
-0.435225 0.0288634 1.34472
-0.0732013 0.0578851 1.50545
-0.412536 0.0364561 1.3666
-0.0994924 0.0500692 1.49391
-0.587184 0.0602328 1.32858
-0.0786768 0.0472244 1.50955
-0.184451 0.00149961 1.42994
-0.154103 0.023828 1.46151
-0.0116071 0.296109 1.77934
-0.0999019 0.0366876 1.52719
-0.0139038 0.287114 1.79435
0.0188403 0.27311 1.79518
-0.465 0.00804995 1.36675
0.0137465 0.101971 1.63479
-0.337982 -0.00810718 1.4045
-0.0121955 0.268275 1.79276
-0.208163 -0.0286741 1.4531
-0.116493 0.0236411 1.54683
-0.0308859 0.0389973 1.59967
-0.0864465 0.037741 1.57003
-0.508489 -0.0244274 1.36622
-0.0843371 0.0192972 1.58
-0.258325 -0.0960294 1.42848
-0.030762 0.231176 1.80984
-0.130284 -0.000368933 1.58114
-0.520788 -0.0891498 1.39039
-0.0629461 0.1925 1.84599
-0.0572327 0.189324 1.86992
-0.138167 -0.174214 1.68497
-0.119153 -0.177685 1.72512
-0.162799 -0.202754 1.71934
0.383516 -0.0445681 2.08042
1.51528 -9.49741 -1.9395
-0.0215906 -9.20158 -2.21685
-0.455791 -9.04434 -2.28592
0.482342 -9.36772 -1.84645
-0.698037 -8.9227 -2.18451
0.670266 -9.60819 -1.76775
0.237675 0.408678 1.51527
0.131911 0.370192 1.62676
0.0813416 0.367981 1.63526
0.018208 0.3139 1.60112
0.0265458 0.328595 1.7072
0.043091 0.315508 1.72979
0.424805 0.230874 1.77362
0.00906225 0.315913 1.73702
-0.453563 0.0278088 1.28438
0.0297095 0.0982615 1.54315
-0.513952 0.0207559 1.28425
0.0282744 0.105259 1.56715
-0.00814474 0.0691674 1.52946
-0.112696 0.0479674 1.47651
0.0610693 0.0853241 1.56998
-0.0359768 0.0667762 1.52511
0.353677 0.168913 1.77053
-0.0176738 0.268586 1.74361
0.0757626 0.270454 1.78476
-0.115774 0.0423477 1.50092
-0.617886 0.0595123 1.34075
-0.00763176 0.0532068 1.56591
-0.0239671 0.250913 1.76817
-0.154552 0.0183532 1.50216
-0.224798 -0.0534088 1.43189
-0.158574 0.00985506 1.5174
-0.612913 -0.0102243 1.35991
-0.0165923 0.246986 1.84311
-0.130661 0.0351895 1.63368
-0.181206 -0.0439583 1.55997
1.17172 -9.30652 -1.92135
0.413072 -9.42086 -1.98748
0.575022 -9.83354 -2.00023
0.0979171 0.374486 1.62618
0.106779 0.123902 1.33318
0.0250303 0.0708838 1.40087
0.017664 0.316034 1.67852
-0.160015 0.0262553 1.32787
-0.112829 0.059864 1.40408
-0.565187 0.0517901 1.25221
-0.130344 0.0435244 1.46735
-0.52535 0.0148756 1.3126
0.00180523 0.280721 1.77772
-0.236747 -0.0668446 1.35815
-0.124002 0.0321288 1.51657
-0.206837 -0.00649294 1.47108
-0.147557 -0.00958078 1.58336
-0.221907 -0.0589503 1.51804
-0.226968 -0.0672316 1.56681
-0.243636 -0.0939594 1.5723
-0.0845529 0.0605983 1.81366
0.110417 0.141016 1.37149
0.0114442 0.323385 1.60172
0.0605064 0.0617465 1.31516
0.0987561 0.328313 1.69982
0.326256 0.188716 1.74487
-0.435292 0.0315563 1.32137
0.385221 0.209951 1.80049
-0.216111 -0.0210103 1.35847
0.0311719 0.0957011 1.56995
-0.0118914 0.0688175 1.53044
-0.185193 -0.031706 1.37782
-0.476046 0.0250748 1.33093
-0.446723 0.0281075 1.3447
-0.0942277 0.0483772 1.50787
-0.587094 0.0493965 1.33429
-0.116522 0.0430446 1.50212
-0.380101 0.0105332 1.38547
-0.403359 -0.00153424 1.36748
0.034092 0.273251 1.80001
-0.0800378 0.0232497 1.57196
-0.0362425 0.214769 1.79286
-0.147495 0.0422795 1.62382
-0.146085 0.0699821 1.6815
-0.224126 -0.0261419 1.38438
-0.188233 -0.00743175 1.46811
0.0291869 0.131676 1.5972
0.746225 0.343796 1.18066
0.68791 0.403853 1.29057
0.764087 0.261325 1.17394
0.77609 0.167746 1.10999
0.804924 0.0763431 1.05204
0.716941 0.244582 1.23913
0.720142 0.262048 1.25742
0.851179 -0.0422813 0.999582
0.736555 0.193922 1.2165
0.725191 0.203912 1.24677
0.728791 0.165492 1.21516
0.709262 0.227254 1.28615
0.716796 0.196783 1.26512
0.672161 0.261227 1.38058
0.714149 0.16908 1.31365
0.128057 0.30816 1.34749
0.126626 0.304968 1.3578
0.112543 0.41182 1.45091
0.118783 0.293848 1.35712
0.113989 0.282539 1.34825
0.113239 0.284852 1.37342
0.122329 0.452148 1.51244
0.116046 0.312749 1.40527
0.62937 0.255155 1.48423
0.106905 0.274786 1.37659
0.0359997 0.0700462 1.20427
0.112828 0.27352 1.38704
0.0462301 0.0602608 1.21359
0.628011 0.231124 1.49537
0.0325642 0.0534151 1.20871
0.643893 0.182809 1.46767
0.0967043 0.382783 1.48005
0.0105924 0.0603288 1.22614
-0.00535433 0.0505263 1.21624
0.0780488 0.380948 1.50081
0.0903411 0.301397 1.44266
0.0861031 0.385126 1.50469
0.00159895 0.0490404 1.23067
0.0182432 0.0553802 1.25258
0.0836788 0.386217 1.51927
0.000191422 0.0458901 1.24958
0.612946 0.209979 1.54139
-0.0261497 0.0421401 1.24574
-0.0992981 0.0324051 1.23545
-0.0563619 0.0615938 1.29375
-0.0247328 0.0757793 1.31196
0.0637801 0.279325 1.48354
0.0672188 0.307715 1.50609
0.0591175 0.385263 1.55797
-0.109864 0.0411699 1.26538
-0.101819 0.0528797 1.28071
0.123921 0.109144 1.38513
-0.0683009 0.0726263 1.31136
-0.080583 0.0698614 1.31256
-0.0608333 0.0774064 1.32598
-0.0726181 0.0704991 1.3226
-0.0410971 0.0834617 1.3451
0.0646031 0.38604 1.58342
-0.0535981 0.0806441 1.34261
0.11187 0.0827089 1.39319
0.358355 0.316427 1.62301
-0.162184 0.00402805 1.26054
-0.150438 0.01438 1.27147
-0.066185 0.0739412 1.33829
0.0583 0.377975 1.58108
-0.133996 0.0349836 1.29836
-0.151368 0.0183584 1.28535
0.293176 0.310258 1.60857
-0.0586302 0.0785085 1.35494
-0.0351875 0.0858245 1.36602
0.139146 0.0905269 1.42773
-0.169323 -0.001302 1.27575
0.482182 0.276567 1.65118
-0.177057 -0.012285 1.27049
-0.0872111 0.0515176 1.33787
0.0985334 0.109329 1.43603
0.487911 0.280454 1.67458
0.0801047 0.379686 1.61771
-0.138487 0.0378778 1.33347
-0.16556 0.0154624 1.31305
-0.112786 0.0565665 1.35783
-0.0196059 0.0879728 1.41221
-0.065894 0.0682639 1.39127
-0.0314839 0.0846746 1.40879
-0.105875 0.0633468 1.37621
-0.378798 0.00572607 1.26018
-0.542842 0.0706699 1.26125
-0.203461 -0.0307173 1.30768
-0.0128472 0.0822924 1.43498
0.0614045 0.0777002 1.46099
0.0732049 0.36598 1.64041
-0.101909 0.0650463 1.40154
-0.0932948 0.0611089 1.4056
-0.0320967 0.0770637 1.4327
0.447397 0.269443 1.70097
0.0454514 0.307738 1.60405
-0.166484 0.0218962 1.36117
-0.0747372 0.0829557 1.42615
0.0380889 0.246699 1.56814
-0.12983 0.0307286 1.38975
-0.0894263 0.0699972 1.42223
0.0328997 0.325873 1.61988
0.457204 0.267794 1.71523
-0.378809 0.0286486 1.30855
-0.199958 -0.0153898 1.35277
-0.0534593 0.0754483 1.45566
-0.547593 0.0576725 1.29105
0.104505 0.345384 1.67471
-0.520898 0.0188633 1.28782
-0.473078 0.0299094 1.30539
-0.00331815 0.0718391 1.48354
-0.0495969 0.0591345 1.46657
0.0855133 0.0960155 1.529
0.0193929 0.306359 1.64258
-0.0800044 0.0618264 1.47283
0.0605141 0.0854676 1.53262
0.0216251 0.303317 1.65572
0.0675443 0.317115 1.69219
0.395606 0.245571 1.76995
-0.0644198 0.0597642 1.51584
-0.480849 0.00602866 1.35904
-0.0188156 0.0619569 1.55365
0.00973205 0.170511 1.63036
-0.00761155 0.0517207 1.56579
-0.248684 -0.0780989 1.42137
-0.201611 -0.0236085 1.4683
0.00522711 0.253853 1.67884
-0.0541528 0.0382833 1.56621
-0.127796 0.0264638 1.54917
-0.00878797 0.0506256 1.60165
0.0117569 0.0841292 1.62735
0.0613184 0.28062 1.74138
-0.269864 -0.117746 1.44252
-0.0302891 0.0343058 1.60038
-0.248341 -0.0762882 1.48856
-0.0107801 0.227216 1.71454
-0.625995 -0.00944805 1.39513
-0.0562597 0.12931 1.66833
-0.272044 -0.135935 1.47821
-0.234844 -0.0625071 1.52436
-0.0912317 0.120388 1.66016
-0.0483197 0.142691 1.68684
-0.0977936 -0.0031441 1.62365
-0.0547696 0.144289 1.70317
-0.219308 -0.0647594 1.57952
-0.108758 0.102491 1.68944
-0.285635 -0.118373 1.55293
-0.0545033 0.177586 1.76819
-0.269633 -0.231162 1.5761
-0.277059 -0.347581 1.54698
-0.0638035 0.180945 1.81251
-0.260059 -0.224975 1.67045
0.988788 -10.3307 0.438662
1.08247 -10.5058 0.508649
0.830191 0.136035 1.00105
0.112132 0.245633 1.35715
0.118224 0.432944 1.5221
0.0908776 0.300069 1.44214
-0.0144051 0.0388668 1.2334
0.00641912 0.050007 1.26532
0.103303 0.0800126 1.33106
0.0686088 0.397712 1.57016
0.134459 0.0512857 1.35342
0.0572087 0.389166 1.57182
0.064015 0.0707989 1.35535
0.0550453 0.311008 1.53027
0.0744565 0.401378 1.60967
-0.0840115 0.0752944 1.37352
0.0897973 0.0972495 1.44764
-0.547867 0.0865836 1.2472
-0.136921 0.0494319 1.35215
0.449133 0.271919 1.67766
-0.477951 0.0182639 1.25125
-0.155585 0.0301792 1.36581
-0.585399 0.0874631 1.26916
-0.143352 0.0389996 1.37834
-0.514497 0.0306805 1.26033
0.416432 0.255117 1.6867
0.142886 0.346494 1.67639
-0.411011 0.029403 1.31549
0.0474126 0.156173 1.54097
0.0334592 0.250434 1.60183
-0.132698 0.0498715 1.43354
-0.230642 -0.0524984 1.34548
0.049665 0.0793551 1.51369
-0.0228528 0.0696372 1.49097
0.0399652 0.0868878 1.53781
-0.477284 0.0245467 1.33114
-0.44873 0.0259482 1.33967
-0.627787 0.0519772 1.30089
-0.0640578 0.050799 1.49152
0.0582602 0.0941263 1.56534
-0.506454 0.0209925 1.33522
-0.194353 -0.0134313 1.45081
-0.596556 0.0446846 1.34734
-0.207437 -0.0311482 1.49222
0.00924219 0.229703 1.69971
-0.303937 -0.13069 1.42714
-0.083087 0.00995067 1.59527
0.356507 0.178154 1.83553
-0.0147989 0.140944 1.68599
-0.105449 -0.00385331 1.61129
-0.092289 0.0447502 1.7744
-0.158233 -0.234102 1.74509
0.882031 -0.0650748 0.878244
0.628004 0.242098 1.47149
0.0640424 0.0939474 1.25711
0.0434389 0.079127 1.24384
0.00170156 0.0490881 1.23039
0.0406978 0.0748894 1.26729
0.0824698 0.399896 1.53202
0.102928 0.407456 1.55718
0.073265 0.376058 1.53209
-0.0463151 0.0793321 1.32826
0.0173096 0.0847673 1.35675
0.152256 0.370711 1.61636
-0.104402 0.0637214 1.37501
0.0938436 0.287837 1.59004
-0.0370133 0.0756686 1.41959
-0.463546 0.0340884 1.26621
-0.553711 0.0691464 1.27397
-0.159868 0.0278427 1.38334
0.0637683 0.328416 1.63639
0.00674528 0.061479 1.46239
-0.0944187 0.0674869 1.43407
-0.0242681 0.0714448 1.47149
-0.0870413 0.046337 1.54341
-0.483815 -0.0206011 1.38264
-0.090917 0.0216074 1.55971
-0.180578 -0.00875989 1.5267
-0.108974 0.0132833 1.56542
-0.185419 0.00237783 1.54463
-0.140749 -0.00551225 1.57072
-0.229282 -0.0844659 1.52046
-0.0164878 0.141964 1.71824
-0.203679 -0.0544063 1.58447
-0.287193 -0.179803 1.50431
-0.262877 -0.132067 1.5894
-0.0707195 0.102489 1.79926
-0.109248 -0.0215412 1.82847
0.00156129 0.0493189 1.23091
0.101072 0.095962 1.31599
0.0258727 0.0543927 1.28743
0.0711546 0.398208 1.57151
0.106566 0.113218 1.39884
0.0693745 0.294263 1.52113
0.0590364 0.243568 1.4987
0.0551434 0.315015 1.54865
0.0851182 0.393848 1.60837
-0.109438 0.0583734 1.33177
0.0253699 0.072874 1.38181
0.0361891 0.0907435 1.41269
-0.0130745 0.085075 1.4017
0.104953 0.370663 1.62482
0.0450931 0.287312 1.55992
0.0451144 0.367901 1.62095
-0.138581 0.0378717 1.37903
0.400395 0.26706 1.68632
-0.513417 -0.00263498 1.24704
-0.509775 0.0203548 1.28413
0.0315453 0.256531 1.59973
-0.573794 0.0121204 1.269
0.412677 0.239528 1.71857
-0.0221994 0.0646515 1.48953
-0.59383 0.0650451 1.30998
-0.200843 -0.0722309 1.36778
0.136234 0.318863 1.70171
-0.602485 0.0590888 1.32668
-0.491691 0.0141409 1.34214
-0.405443 0.00996786 1.3803
0.0256925 0.318089 1.69248
-0.618521 0.0552659 1.34199
0.0309758 0.116127 1.59802
-0.026427 0.0420298 1.54913
-0.00938709 0.054322 1.56748
-0.341925 -0.0568298 1.39898
-0.170204 0.00165502 1.49175
0.0146096 0.0612813 1.58304
-0.215844 -0.0392322 1.46108
-0.023123 0.0424379 1.57241
-0.0142369 0.265249 1.70398
-0.223412 -0.109857 1.45722
0.0415813 0.305522 1.7481
-0.0289024 0.0347336 1.60077
-0.440039 -0.0854701 1.41609
-0.0297886 0.0659347 1.68456
-0.0175697 0.117759 1.82925
-0.0576414 0.0857879 1.63944
0.105587 0.0912617 1.3116
0.0655559 0.0671733 1.31733
0.0910933 0.0774559 1.34083
-0.076585 0.0769361 1.36651
0.0708165 0.112001 1.46604
0.0269167 0.317184 1.63317
0.0515641 0.0335443 1.517
0.031522 0.0992125 1.57107
0.0194176 0.0516983 1.57896
-0.446775 -0.0922007 1.40715
-0.0137211 0.139854 1.68658
-0.232157 -0.077382 1.57826
-0.0483432 0.0843931 1.34835
-0.0207232 0.0896865 1.35943
0.0628222 0.289659 1.51821
-0.00884815 0.0908716 1.40261
0.0207583 0.344997 1.65305
-0.532709 0.0267488 1.29965
0.000993511 0.287841 1.74218
-0.0711779 0.182101 1.80345
-0.055172 0.0683324 1.44461
0.010238 0.134372 1.64564
-0.193091 0.0391123 1.56913
-0.0810912 0.0221807 1.62508
0.0383979 0.0349189 1.55338
0.733437 0.268228 1.22207
0.701686 0.292358 1.29628
0.8515 -0.260812 0.936271
0.830294 -0.124982 1.0505
0.814414 -0.180559 1.03105
0.684616 0.270824 1.36582
0.0837725 0.112325 1.26071
0.0272753 0.0678087 1.22963
0.010357 0.0514695 1.24369
-0.0443017 0.0534699 1.259
-0.109275 0.025885 1.23923
-0.115254 0.0279492 1.25094
-0.0875434 0.0567773 1.28072
0.0548616 0.0668997 1.34654
-0.049302 0.0825008 1.33015
0.0802145 0.0672313 1.36732
-0.11292 0.0468512 1.31205
0.0738884 0.383756 1.52355
-0.165043 0.00775862 1.29226
0.0471514 0.0831685 1.3904
0.0715914 0.109141 1.40871
-0.421521 0.0269031 1.29545
-0.00706217 0.0868077 1.41986
-0.238028 -0.0905399 1.30964
-0.12648 0.0520681 1.41565
-0.382141 0.0157412 1.3284
-0.444072 0.0291014 1.32513
-0.098422 0.0587733 1.4649
0.0186162 0.0561534 1.60285
-0.195285 -0.0187008 1.52918
-0.264609 -0.10668 1.51457
-0.0212853 0.110622 1.66823
0.807341 -0.0523847 1.07466
0.72094 0.242202 1.27036
0.134241 0.351439 1.39318
0.0566602 0.0681611 1.3139
0.081704 0.348899 1.47653
-0.108041 0.0567704 1.33267
-0.432657 0.0300517 1.31847
-0.138488 0.0345921 1.47994
-0.198653 -0.0294955 1.52511
-0.147653 -0.186929 1.67384
0.737116 0.111485 1.2013
-0.00891718 0.0474442 1.21318
0.0134396 0.0608261 1.2278
-0.0991687 0.0451378 1.28078
-0.1684 -0.0803752 1.30191
-0.0218718 0.0818436 1.42496
0.0577085 0.0864079 1.46554
-0.153327 0.0250296 1.44403
-0.0231288 0.0670724 1.50619
-0.104651 0.0123683 1.58453
-0.0559047 0.129071 1.66923
0.0503293 0.0656273 1.28746
0.10618 0.391231 1.50393
-0.0662064 0.0773411 1.36042
-0.584878 0.0864369 1.2669
0.0290175 0.0921838 1.44649
0.00798905 0.085861 1.43163
0.0187454 0.082821 1.47007
-0.312899 0.0202744 1.36212
-0.391461 0.0357224 1.3557
-0.0927047 0.0422114 1.50844
0.0219354 0.0435095 1.28246
-0.0186478 0.0979186 1.65183
-0.0337493 0.0826138 1.39095
0.0180112 0.0780857 1.46765
-0.154247 0.0084384 1.5339
0.787525 -0.177422 1.07015
0.840344 -0.285559 1.04532
0.753259 -0.00634512 1.18656
0.731647 0.0274415 1.22666
0.733255 0.0130329 1.25091
0.743645 -0.180526 1.21966
0.0687391 0.0863445 1.18842
0.0508234 0.0601876 1.17598
0.121014 0.0993036 1.20757
0.724101 -0.150327 1.2621
0.0591236 0.0906214 1.20548
-0.0245115 0.0105918 1.20856
-0.110327 -0.016242 1.18284
0.0910335 0.124482 1.27725
-0.0669371 0.0195043 1.20901
-0.122391 -0.00261142 1.20166
0.0260954 0.0631947 1.25456
-0.1148 0.0133679 1.2135
-0.106837 0.0247709 1.22632
-0.137272 -0.00842321 1.21783
-0.406265 -0.0643435 1.14379
-0.294845 -0.0742218 1.17705
-0.104274 0.0389799 1.25342
0.00685087 0.0565054 1.28194
0.0463863 0.059002 1.29396
-0.321608 -0.0724862 1.18939
-0.167802 -0.0157712 1.24629
-0.125418 0.0488609 1.27482
-0.177585 -0.0292413 1.24754
-0.301779 -0.0800618 1.21168
-0.182941 -0.0205687 1.25922
-0.474664 0.00919848 1.20355
-0.337632 -0.0236911 1.22777
-0.596109 0.0810817 1.19406
-0.190361 -0.0447482 1.26847
-0.538709 0.0698499 1.21897
-0.383488 0.0148497 1.24717
0.110431 0.416997 1.46095
-0.124654 0.0491722 1.32551
-0.0456981 0.0826874 1.35771
-0.11851 0.0542011 1.3437
-0.100025 0.0660344 1.36173
0.0709539 0.0874159 1.41165
-0.204661 -0.0647145 1.31606
0.149551 0.43424 1.50413
-0.168406 0.0191103 1.34435
0.105819 0.445418 1.4975
0.0603236 0.0965 1.42
-0.0238658 0.085933 1.39891
-0.207756 -0.0301829 1.33222
-0.237439 -0.0590723 1.33075
-0.125017 0.0510518 1.37749
-0.0864965 0.0698919 1.39806
-0.554496 0.0714906 1.27371
-0.190196 -0.0107023 1.36189
-0.322464 0.0284548 1.34463
-0.433314 0.0286601 1.31698
-0.377281 0.0325359 1.33672
-0.199705 -0.0175026 1.3867
0.0681222 0.0922788 1.49284
-0.611294 0.0687649 1.31138
-0.224603 -0.0614439 1.42055
-0.0703 0.0622718 1.48013
0.0160347 0.108102 1.51321
-0.185075 -0.00821123 1.46966
0.0490259 0.369394 1.59281
-0.0501635 0.0575269 1.54328
0.417345 0.262541 1.70568
-0.1353 0.0182245 1.5311
0.0308673 0.146086 1.59336
0.466597 0.271767 1.74114
-0.0754545 0.0274861 1.55877
-0.178256 -0.0062966 1.5405
0.402077 0.220787 1.75507
0.144923 0.329963 1.67999
-0.24685 -0.097079 1.55815
-0.180709 -0.0318208 1.58377
-0.088698 0.0931654 1.63271
0.00267108 0.131461 1.66512
-0.0777119 0.130592 1.66901
-0.0837765 0.133826 1.67941
-0.0686587 0.136574 1.68684
-0.082888 0.138763 1.69124
-0.0230696 0.15729 1.71346
-0.00946459 0.263203 1.7211
0.45344 0.218789 1.91896
-0.0603641 0.184513 1.78433
-0.054251 0.19861 1.80789
-0.0391366 0.212346 1.81559
-0.0877814 0.0576772 1.28079
-0.357153 -0.0146423 1.23088
-0.286102 -0.0865415 1.23348
-0.477591 0.00779572 1.22522
-0.0452337 0.083094 1.3566
-0.0593228 0.0716029 1.35668
-0.507144 0.042092 1.23982
-0.427431 0.0271342 1.26241
-0.400611 0.0285079 1.27765
-0.364058 0.0214257 1.28489
0.096105 0.443479 1.49193
-0.448019 0.0312553 1.27243
-0.170027 0.0174076 1.36423
-0.123013 0.0544814 1.38416
-0.186917 -0.00444508 1.36223
0.0137061 0.0826144 1.43174
0.0303159 0.0899044 1.44661
0.0853331 0.423205 1.52404
-0.592289 0.0669768 1.28793
0.0290457 0.0902049 1.4787
-0.391324 0.0294174 1.35193
-0.0723227 0.0653659 1.46014
-0.00361396 0.0726369 1.49506
0.0264428 0.045256 1.58657
-0.0233701 0.0401085 1.57262
0.400235 0.256792 1.77251
0.0257027 0.346592 1.66606
-0.114899 -0.0101393 1.20195
-0.027565 0.0446559 1.2464
0.12637 0.307904 1.35895
-0.0881725 0.0383494 1.24034
-0.138431 -0.0120839 1.21861
-0.0534549 0.0652859 1.27645
-0.0986006 0.0461887 1.26509
-0.179216 -0.0331038 1.2358
-0.491545 0.00864836 1.22
-0.0675402 0.0757562 1.33872
-0.534269 0.0751695 1.22692
-0.380951 0.0242236 1.2718
-0.0547209 0.0798004 1.37127
-0.394202 0.03056 1.29941
-0.0431526 0.0803688 1.40516
-0.108453 0.0605257 1.38928
-0.36623 0.0294689 1.32195
0.0458249 0.101056 1.45209
0.0773441 0.102794 1.48899
-0.209692 -0.0402369 1.4386
-0.116983 0.0288622 1.53172
-0.0663998 0.0414879 1.5484
-0.0954092 0.0184466 1.57455
-0.0278406 0.127216 1.66924
-0.0321596 0.183407 1.76996
-0.0148318 0.0343569 1.23155
-0.0807569 0.0543379 1.26084
-0.0251081 0.0773341 1.31176
0.125491 0.309502 1.41626
-0.197539 -0.0729071 1.25162
-0.00594402 0.0828218 1.36002
-0.155379 0.0145783 1.32313
-0.26785 -0.0585022 1.31374
-0.430489 0.0284626 1.29035
-0.125535 0.0580459 1.38691
-0.0210632 0.081442 1.42527
-0.166052 0.0172721 1.3945
0.0736444 0.411595 1.53118
-0.126892 0.0431136 1.44004
-0.0598074 0.0623181 1.52087
0.0609167 0.382585 1.6065
-0.203454 -0.0420918 1.51279
0.0820646 0.36115 1.63208
-0.137386 0.00775012 1.55383
0.0161774 0.0597666 1.61012
-0.155256 -0.0387354 1.56954
-0.104316 0.0983556 1.64814
0.364591 0.165418 1.83971
0.003769 0.280316 1.74347
-0.215559 -0.103865 1.20796
-0.364431 -0.00315939 1.24283
-0.27061 -0.0648512 1.2589
-0.43187 0.0276387 1.29072
0.00788781 0.0756103 1.43332
0.0324148 0.0717836 1.45438
0.0558557 0.354645 1.54221
0.0782596 0.395188 1.56061
0.0476941 0.0762029 1.28471
-0.0739547 0.0684904 1.29348
-0.0442692 0.0686139 1.29964
-0.151717 0.00422763 1.32151
-0.0208095 0.0805676 1.42487
-0.0956437 0.0538372 1.46225
-0.160903 0.0227716 1.46626
-0.036196 0.0793001 1.58512
0.379158 0.210245 1.7998
-0.0959871 0.0662131 1.41452
0.0178174 0.0460904 1.57019
-0.099047 0.0762121 1.40731
0.0272841 0.0575823 1.46284
0.762202 -0.237396 1.16175
0.767308 -0.260649 1.19911
0.751341 -0.332719 1.19904
0.747229 -0.489107 1.17458
0.0126937 0.00141726 1.1588
0.0804156 0.0877483 1.18368
0.0280948 0.0252174 1.17929
0.722751 -0.397258 1.26668
0.0217787 0.0333326 1.20984
-0.0265055 0.0392428 1.22215
0.0330616 0.0703534 1.24953
0.0923958 0.0811216 1.27929
-0.0894902 0.039115 1.24088
-0.464944 -0.0226796 1.16318
-0.514366 0.0949962 1.16225
-0.340919 -0.0894869 1.19041
-0.179981 -0.0348058 1.23508
-0.408502 0.00395646 1.18928
-0.527114 0.0847784 1.18073
-0.474514 0.0100332 1.1901
-0.177646 -0.00811316 1.2713
-0.460435 -0.000170101 1.22515
-0.201165 -0.0664927 1.28165
0.593579 0.113769 1.48527
-0.350632 0.00320806 1.25709
-0.421374 0.0211658 1.24427
-0.497391 0.000384256 1.22479
0.151737 0.438956 1.42603
-0.113648 0.0601758 1.35874
0.0856659 0.107942 1.44205
0.127414 0.459773 1.45408
0.0827154 0.11228 1.45387
-0.200999 -0.055574 1.40503
0.0136191 0.0885662 1.47345
-0.0632212 0.0632205 1.48774
0.013021 0.0769883 1.51504
0.0734167 0.345433 1.52554
0.0756047 0.408655 1.53095
0.0118081 0.0702119 1.61994
-0.030287 0.0120088 1.23523
-0.0820649 0.0527128 1.26619
-0.0976616 0.0659899 1.31224
-0.397265 0.0221911 1.25877
0.0820851 0.0856059 1.40198
0.01041 0.0857763 1.39336
0.179004 0.445703 1.43509
0.0831715 0.0996721 1.43758
-0.114291 0.0412498 1.50123
-0.183041 -0.00536802 1.52629
0.0574392 0.0711693 1.25947
-0.0874494 0.0311759 1.24945
0.110575 0.286493 1.34877
-0.113134 0.0538033 1.30905
-0.0532348 0.0823086 1.34253
-0.489141 0.0216721 1.2396
0.0980479 0.102928 1.41993
0.0821724 0.0950673 1.41855
-0.0347876 0.0830396 1.39079
-0.195946 -0.074493 1.35551
0.0979048 0.11286 1.4365
-0.19406 -0.0227819 1.49984
-0.0698162 0.0668115 1.62126
-0.456404 -0.0157824 1.18146
-0.440595 -0.0253502 1.18696
0.0941002 0.100149 1.33308
0.0812613 0.098181 1.34713
-0.14758 0.0301185 1.34019
-0.398353 0.0287967 1.2791
0.00566073 0.0809433 1.43761
0.000266569 0.0811235 1.45363
-0.00375941 0.0764211 1.49125
-0.055795 0.0388459 1.61433
-0.19439 -0.106722 1.25367
0.0342283 0.0216706 1.39498
-0.0313396 0.0661701 1.48822
0.688285 -0.15282 1.33786
0.0671773 0.073131 1.17961
0.0897131 0.0958621 1.19461
0.686554 -0.287096 1.36547
-0.13002 -0.0336021 1.19156
-0.158939 -0.0499848 1.19091
-0.12674 0.00442965 1.21711
-0.490888 0.0435685 1.11849
-0.026231 0.0581304 1.26347
-0.3102 -0.0716834 1.20038
-0.0529889 0.0642139 1.26638
-0.300908 -0.0765924 1.21407
-0.0677497 0.0619157 1.27484
-0.00982221 0.0756044 1.29489
-0.0459664 0.0735142 1.29023
0.613157 0.117932 1.47975
-0.111 0.049247 1.27891
0.418742 0.129142 1.42577
-0.465298 -0.00988642 1.18482
-0.10473 0.0577401 1.28877
0.60515 0.148367 1.49152
-0.290637 -0.0749352 1.26316
-0.126982 0.0445748 1.30854
0.417238 0.197241 1.44958
0.0432666 0.0744824 1.35651
-0.0485294 0.077975 1.33084
0.5695 0.170597 1.50705
0.531107 0.197445 1.51433
0.555223 0.199369 1.52515
0.0890972 0.0913548 1.40504
-0.485917 0.0281738 1.24363
-0.443771 0.0288009 1.25589
-0.461479 0.0244843 1.25542
0.387036 0.22563 1.48161
0.177873 0.400531 1.39239
0.523345 0.200698 1.53782
0.547656 0.216801 1.54334
-0.347051 0.0184758 1.30376
0.097006 0.116699 1.43335
0.338628 0.255179 1.48706
-0.194828 -0.0763347 1.38926
0.399035 0.270383 1.50841
0.529914 0.233921 1.57725
0.378745 0.294084 1.52475
0.529648 0.245536 1.58249
0.083838 0.390344 1.49999
-0.0252404 0.0202206 1.20336
-0.139126 0.0121691 1.23146
-0.347254 -0.0434098 1.18337
-0.449159 -0.0500918 1.1616
-0.0117228 0.0634503 1.28357
-0.457538 -0.0155242 1.17868
0.154135 0.325965 1.33493
-0.340854 -0.0218381 1.2312
-0.274914 -0.0802933 1.25763
-0.450075 0.0126988 1.21461
0.0398863 0.0790009 1.35203
0.374523 0.156828 1.44511
-0.393707 0.0147231 1.23561
0.401848 0.216691 1.47522
0.448762 0.223248 1.49594
0.490283 0.197621 1.52731
0.381334 0.315942 1.54511
-0.0268137 0.0453115 1.2459
0.00548859 0.0615282 1.28173
0.0840714 0.0863798 1.30458
-0.0530722 0.0678595 1.27754
-0.0876876 0.0583906 1.28035
-0.124775 0.0473041 1.27754
-0.419409 0.0211567 1.24338
0.0657993 0.067747 1.42358
0.0707673 0.0861169 1.44722
-0.0692214 0.0299978 1.22736
-0.0403323 0.0340286 1.2354
-0.138388 0.0157429 1.24744
-0.056946 0.03202 1.29762
-0.27549 -0.0803151 1.25988
-0.177893 -0.0488993 1.29321
-0.396473 0.0160691 1.23638
0.0645414 0.102367 1.38202
-0.352073 0.0179529 1.27846
-0.0264478 0.0814509 1.37079
0.367451 0.311398 1.53853
0.0362064 0.0560439 1.32125
0.0723515 0.0524696 1.35148
0.00400326 0.0312057 1.24591
-0.0716326 0.04494 1.25869
0.0146076 0.0628112 1.27471
-0.33655 -0.0198289 1.21474
0.030985 0.0855654 1.45052
0.721131 -0.627254 1.25065
0.779047 -0.253409 1.14189
0.0248235 0.0191195 1.1479
-0.475486 -0.0217038 1.1051
-0.0496566 0.0108264 1.15787
-0.0625897 0.00224932 1.16158
0.00565171 0.0323459 1.16043
0.656642 -0.269369 1.38564
-0.395016 -0.058811 1.15945
-0.306534 -0.0700987 1.18048
0.680555 -0.325646 1.43313
