ply
format ascii 1.0
element vertex 687
property double x
property double y
property double z
property uchar red
property uchar green
property uchar blue
end_header
0.1562152542032731 -0.1773356118687145 1.3239654710782942 255 255 255
0.1915876832269197 -0.1488164964603689 1.2699878628911287 255 255 255
0.1732502348336916 -0.1688159049612408 1.3027627574083362 255 255 255
0.1767276335554673 -0.1970411314620788 1.3514672220652173 255 255 255
0.1788284269318566 -0.1611116064505331 1.3196895406387250 255 255 255
0.1612382848187585 -0.1895464205883041 1.4054640832066607 255 255 255
0.1717906992498300 -0.1867302738330033 1.3994830531223683 255 255 255
0.1514313959819935 -0.0822321782717726 1.2898983184552415 255 255 255
0.1874993371359944 -0.0658780480301944 1.2666982942954157 255 255 255
0.2193079281692288 -0.0898536718771846 1.2917914818762755 255 255 255
0.2061824640924963 -0.2107084634459448 1.4694583778883270 255 255 255
0.1457457106823192 -0.0750678572402577 1.3330269928725202 255 255 255
0.2252041375961492 -0.0769853649236186 1.2914664467649126 255 255 255
0.1611307790428665 -0.1111672737453346 1.3928589848498134 255 255 255
0.1659178516560797 -0.1101260023975848 1.4082777806257385 255 255 255
0.1732962743783534 -0.1014803612447031 1.4019680237836725 255 255 255
0.1049749940273283 0.0295780202432662 1.3671068553674288 255 255 255
0.1590147713246899 -0.0017886517546918 1.3891742008751882 255 255 255
0.2012360075120095 0.0298874772485365 1.3326428266404107 255 255 255
0.1762973275347550 0.0291540332736997 1.4012113190917530 255 255 255
0.1649759649027423 0.0555352112162960 1.3860279817586212 255 255 255
0.1311114315254936 0.0668186475261386 1.4036370696105058 255 255 255
0.0352026927615250 0.2076851580092669 1.3948373745796137 255 255 255
0.1703151424628251 0.0992353716259856 1.4293311661597026 255 255 255
0.1197371953678263 0.1048199087845016 1.4641511806428305 255 255 255
0.1596306545272112 0.1296557170755896 1.4318822027957534 255 255 255
0.1337053024668014 0.1109565510664154 1.4900479763732397 255 255 255
0.1743296376498722 0.1508908952066188 1.4452355802365215 255 255 255
0.1890864341184538 0.2640105565794545 1.3876845473464940 255 255 255
0.1638153231605530 0.0752533677034272 1.6352309343575493 255 255 255
0.1639863962664240 0.1921553160672420 1.5248801618335417 255 255 255
0.1889363390463455 0.2146984803401789 1.5081266409387453 255 255 255
0.1896985877107977 0.1364174065533320 1.6112515432475774 255 255 255
0.2242660804115940 0.2317072862586810 1.4959863989708351 255 255 255
0.1755786795195357 0.1806898599000020 1.6344148067050148 255 255 255
0.2000198488921279 0.1747419047978931 1.7013309825041352 255 255 255
0.2419363329331257 0.2652003168743375 1.6138169699697456 255 255 255
0.2577693737200478 0.6588376012350898 1.3049574390887773 255 255 255
0.2560017212623065 0.2803942387983884 1.6341611837273886 255 255 255
0.3070574387774144 0.3750234944465502 1.5192385235813248 255 255 255
0.3428099699749852 0.5086841438112809 1.3813788449050222 255 255 255
0.2942434226701053 0.3664969384207476 1.5519999060718017 255 255 255
0.2850394341345400 0.3197707709997004 1.6150841567893204 255 255 255
0.2861985767849632 0.2840028861016701 1.6710608158970397 255 255 255
0.3233316734479051 0.3571709754691059 1.5994362289669501 255 255 255
0.2829659793564351 0.3936204618580184 1.6409800213379460 255 255 255
0.2769948927627257 0.3105594150164380 1.7102738623108611 255 255 255
-20.1394754730196013 3.2319030160804068 -4.8563716007471553 255 255 255
-21.2629603452087075 3.6539950800808016 -4.6914908536929056 255 255 255
-19.2553165741116210 3.5935942105535008 -4.0515293644739758 255 255 255
0.1521430984270446 -0.1881881505993131 1.3404472072879847 255 255 255
0.1683444650203879 -0.1555452949079851 1.4259640474044688 255 255 255
0.1644539364886909 0.0369387039476521 1.3532586122397019 255 255 255
0.1707864858498152 0.0130760575212251 1.4262478015451288 255 255 255
0.1389104528735634 0.0323995563150144 1.4437628415761252 255 255 255
0.1504080030731736 0.0706580761122775 1.3967373262407232 255 255 255
0.1412982437984264 0.2701091999690211 1.4351883458769663 255 255 255
0.2044514104106478 0.2756586599205817 1.4656830287837037 255 255 255
0.2313914723899724 0.1979237047715837 1.5609668153028435 255 255 255
0.2692206645990765 0.2453514600730861 1.5275673733603294 255 255 255
0.2444505676482070 0.1623547266451454 1.6334973121392382 255 255 255
0.2327293378483951 0.3542480783469898 1.4982194475214772 255 255 255
0.2758762113249315 0.2444271309831709 1.5801865011895948 255 255 255
0.2929097933449202 0.3456536257090719 1.5056062755958988 255 255 255
0.3125635025462664 0.4549508541338442 1.4176651163706318 255 255 255
0.2015490439851204 0.2093384900908520 1.7298191698021983 255 255 255
0.3171053096305367 0.5006840728907377 1.3826052075595554 255 255 255
0.3160384909263900 0.4773847546973106 1.4332986962978496 255 255 255
-0.0001026261857181 0.2811570065246642 1.9115574742746577 255 255 255
0.0848742152730647 0.2646190301573635 1.8531956265131975 255 255 255
0.3659094947648158 0.4910609493225224 1.4003113269288043 255 255 255
0.3043937647062508 0.4770385004154084 1.4750991009011938 255 255 255
0.2154683959145917 0.3859304782319439 1.6331201551762919 255 255 255
0.3236191340256339 0.4722070862586611 1.4614853172959452 255 255 255
0.0862697486367640 0.2404605362923193 1.8875838536781160 255 255 255
0.2806562897982799 0.3072610383512109 1.6458894644644513 255 255 255
0.2791799885567836 0.2338389979465196 1.7087932085907558 255 255 255
0.2867251829624501 0.3804995823904749 1.5975213081264517 255 255 255
0.3152700771470764 0.4064686500854461 1.5504709215811108 255 255 255
0.2586336001676393 0.2718552883553936 1.7552418739946225 255 255 255
0.2941107377658640 0.3192888554446229 1.6849075035544652 255 255 255
0.1818639093789465 -0.1578842287785504 1.2912865027876617 255 255 255
0.1458647116976494 -0.1537298866257228 1.5257773120797304 255 255 255
0.1487900731854393 0.0133183839255325 1.3323324409312096 255 255 255
0.1737517793337704 -0.0143756907881702 1.3984514941532733 255 255 255
0.1612792506444967 0.0550973740672152 1.3965311491455834 255 255 255
0.1370526527059615 0.0385799745507847 1.4486863728192803 255 255 255
0.1745471244846343 0.0812950283862008 1.3745501351874745 255 255 255
0.1297586227892233 0.1870125543183573 1.5002643859972449 255 255 255
0.2729621900503027 0.4961818556058777 1.3387156777857296 255 255 255
0.2037937420615775 0.3464269290185342 1.5371591184920435 255 255 255
0.0630683011033328 0.2333780413345059 1.7832950162619532 255 255 255
0.2901726649378580 0.4306108496108235 1.4266788705494262 255 255 255
0.2761052495344248 0.2325238026509687 1.6273661122656691 255 255 255
0.1940614755599273 0.3054934967178923 1.3535074735256212 255 255 255
0.0817709642556505 0.2290643064053651 1.5999193399495266 255 255 255
0.2178537571012567 0.2766485616851375 1.4955816016652144 255 255 255
0.2717070912210486 0.3683955696172361 1.4020742736540912 255 255 255
0.2848198923841118 0.3834511704912421 1.5381802998761953 255 255 255
0.1711097393476717 -0.0636052305800255 1.3925120529682404 255 255 255
0.1712571981128759 0.0863079467119443 1.3787367154230568 255 255 255
0.1680076705938971 0.0857909686015459 1.4554353264332016 255 255 255
0.2582517981542635 0.3823529054401280 1.3717839284813571 255 255 255
0.1662008345663986 0.2444838462612853 1.4257531007691286 255 255 255
-11.6164315966783036 0.4753961198300622 0.9259614101372885 255 255 255
-15.2981121327839933 1.2846822637780368 0.1044211355968474 255 255 255
-13.7819979129046981 1.5556656546595835 0.6807490488635155 255 255 255
0.2232670263458812 -0.3660035687377501 1.3935410573895952 255 255 255
0.2736567022095596 -0.2439994101481498 1.1696589134273152 255 255 255
0.2477130659596178 -0.3657873899514241 1.4207329922925549 255 255 255
0.2614199318356986 -0.2393954473643407 1.1814671577501814 255 255 255
0.2681721699033382 -0.2324183544229499 1.1744424822021258 255 255 255
0.2699761135760098 -0.2202773550212343 1.1890539083955671 255 255 255
0.1212822064028087 -0.2080805852205342 1.3497754710369463 255 255 255
0.1285922251559304 -0.1644001736560963 1.2764025902268523 255 255 255
0.1390900456017907 -0.1776829871895882 1.3093674760080907 255 255 255
0.1606734714897426 -0.1654238620394615 1.2751627957725631 255 255 255
0.1538973029087513 -0.1769867793017830 1.3105014641149797 255 255 255
0.2335850482436722 -0.2806831131427049 1.4617236075296904 255 255 255
0.2409285583090067 -0.1241450993294664 1.1942526196731920 255 255 255
0.2579349363830620 -0.1557138784878468 1.2340421526344740 255 255 255
0.2427677744159401 -0.1555047121922667 1.2503919160999726 255 255 255
0.1739939947066270 -0.1444879196429685 1.2802952132452270 255 255 255
0.1912704693926940 -0.1766079760652059 1.3339634525790489 255 255 255
0.1798097118143067 -0.1876426767579478 1.3654307222078101 255 255 255
0.1824724203049131 -0.1635698141535485 1.3307146425048360 255 255 255
0.1940767681089369 -0.1506836656670620 1.3083923144667740 255 255 255
0.1823126011168011 -0.1672395331557159 1.3541013385404739 255 255 255
0.1880242957269901 -0.1543156830646988 1.3294877257571796 255 255 255
0.2530056816378500 -0.1224321305262339 1.2336701331060984 255 255 255
0.2049449145740400 -0.2334762423804007 1.4730089387300991 255 255 255
0.2577333512512541 -0.1042607056952492 1.2447049771766554 255 255 255
0.2559938449946926 -0.0953349829755561 1.2513208433772958 255 255 255
0.2540833560246376 -0.0957982658454381 1.2597759928989329 255 255 255
0.1748759322565109 -0.0997213312719754 1.3381996192049066 255 255 255
0.1851319568422758 -0.0981338229698948 1.3530795533095950 255 255 255
0.1843166408060916 -0.0996343033863864 1.3610970685573014 255 255 255
0.1519589661304417 -0.1279973809209827 1.4360977534564492 255 255 255
0.2173713898926929 -0.1885398290927763 1.4706246404994880 255 255 255
0.1778570932474109 -0.0785823362400989 1.3452109123105638 255 255 255
0.1788170228165799 -0.1273840673311196 1.4238166479145145 255 255 255
0.2429351442939791 -0.0576854997137447 1.2694613561364803 255 255 255
0.1669509398855922 -0.1023766533137709 1.4117400775003699 255 255 255
0.1805411476653954 -0.0818401103925516 1.3662863465959554 255 255 255
0.1793679170068256 -0.1020587546173047 1.3995850677643411 255 255 255
0.2292524516228633 -0.1825445377381282 1.4836773572679469 255 255 255
0.1826509064979881 -0.0897011568598903 1.3853765116016898 255 255 255
0.1699917007282655 -0.0982283973926755 1.4215110980860970 255 255 255
0.2284873804907088 -0.1697460793114116 1.4920622441906235 255 255 255
0.2271117920128602 -0.1622973093560421 1.4993170028111040 255 255 255
0.2480139796045731 -0.0287338938984666 1.2797473843882341 255 255 255
0.2430566329937396 -0.0205964086058911 1.2927433092560736 255 255 255
0.1795765017539400 -0.0413248018325805 1.4017209976960827 255 255 255
0.1729529664977927 -0.0429335119765922 1.4129642037025842 255 255 255
0.1743945473426007 -0.0316327666694408 1.3971389757806465 255 255 255
0.1501545249192427 -0.0398099962329834 1.4390677164227546 255 255 255
0.1754018467324182 -0.0241156160549900 1.4012745590107780 255 255 255
0.1777410743339786 -0.0465678888247273 1.4534976342801500 255 255 255
0.2265433802613331 -0.1169116473067001 1.5085157930090287 255 255 255
0.1519447101430948 -0.0057172846078645 1.4397216895162901 255 255 255
0.1743207586342494 0.0128605738054554 1.4047596635484905 255 255 255
0.2145457901863267 -0.0847560750564680 1.5177231374057092 255 255 255
0.1748676189109807 -0.0038414211803709 1.4451656460333444 255 255 255
0.1754748873969502 0.0273992645465337 1.4001648111169058 255 255 255
0.1790820328282196 0.0460155425064471 1.4109299055101139 255 255 255
0.2491908682419579 0.0718228534769460 1.3074708588097501 255 255 255
0.1806620638555994 0.0665275472275434 1.3934776392470352 255 255 255
0.1782488332464162 0.0637570177228004 1.4018336469852826 255 255 255
0.1769604557811569 0.0532194545958562 1.4392368460391955 255 255 255
0.1748683939944900 0.0484857363454645 1.4674218193303521 255 255 255
0.1742645334431773 0.0344477664882645 1.4897867618738532 255 255 255
0.2484256013010042 0.1053746105754657 1.3088922584075000 255 255 255
0.1699005990359779 0.0625711210235394 1.4684555272386055 255 255 255
0.1756468524397829 0.0758684122628969 1.4497518366890958 255 255 255
0.1782504748002487 0.0984766274260007 1.4194273613758086 255 255 255
0.1779309718375896 0.1155912107408999 1.4272822757108907 255 255 255
0.1493843311625724 0.1051011620820255 1.4745869361731396 255 255 255
0.1850965269724130 0.0604905620030283 1.5114973990656897 255 255 255
0.1748826903577477 0.0888179932420010 1.4952400015341285 255 255 255
0.2432521538550877 0.1346733447562062 1.3586058675372372 255 255 255
0.1794533765400191 0.1184344681663542 1.4527034906031384 255 255 255
0.1445700197846559 0.1600321073674948 1.4430119278063547 255 255 255
0.1687517108206767 0.1283700587023264 1.4785730770488565 255 255 255
0.1762672727357133 0.1380916322697091 1.4989749855893846 255 255 255
0.1767895667516977 0.1528199947369819 1.4835467645875147 255 255 255
0.1747458006602580 0.1562897387003946 1.5224264624179580 255 255 255
0.1745168796951382 0.1721952260513481 1.5165551850165968 255 255 255
0.1775373511020572 0.2129150542377085 1.4685148110289172 255 255 255
0.1776980263100899 0.2588884324240436 1.4112419609016844 255 255 255
0.2408223057394140 0.2764617020260015 1.3642096633874707 255 255 255
0.2131852705496516 0.2434631053037134 1.4408279134892246 255 255 255
0.2234279413502870 0.1103248087849161 1.5883022048065727 255 255 255
0.2124888821509142 0.1373688702514156 1.5830315659246781 255 255 255
0.2459650138683300 0.2662452346529612 1.3862354412625684 255 255 255
0.2132937541201457 0.2101838077559411 1.4989429739447426 255 255 255
0.1747757678963536 0.2992627426491918 1.4538125921486200 255 255 255
0.2492743552848326 0.2610258248159957 1.4217221598325369 255 255 255
0.1645368310765879 0.2585724214346977 1.5327999678195658 255 255 255
0.2006298638125813 0.4112915535783974 1.3169009703691266 255 255 255
0.2040518749778031 0.1873023590221134 1.5719804706211555 255 255 255
0.2563615071102425 0.2810119683357439 1.4098382447503153 255 255 255
0.2103894891995629 0.1882970641489312 1.5900736007069682 255 255 255
0.2506101902449881 0.3309636464233530 1.3683367379956055 255 255 255
0.2451410919864974 0.2240216026811063 1.5046528533133752 255 255 255
0.1995983542234320 0.2915776340298918 1.4868478971058534 255 255 255
0.1808841412782972 0.2482798196037605 1.5615541809932598 255 255 255
0.1191681553846252 0.1644213893286955 1.7395945964502066 255 255 255
0.2570256250366373 0.2429972833816204 1.4825812829973701 255 255 255
0.2514115749352672 0.2231928466660873 1.5110145243487112 255 255 255
0.2643907952027572 0.2574777051432109 1.4588188987029613 255 255 255
0.2072363945919635 0.1860656347119656 1.6210443994193671 255 255 255
0.1909534422550002 0.2706943440411965 1.5486352604537896 255 255 255
0.2634950779155570 0.2952151858922039 1.4432872621825985 255 255 255
0.2521995675438007 0.2327275773231962 1.5285762709304649 255 255 255
0.2591205402631594 0.2618582238947964 1.4938510083781522 255 255 255
0.2602453495491237 0.2141855910878809 1.5565830835182457 255 255 255
0.2673262743996035 0.2672214685794856 1.4925039190584584 255 255 255
0.2696650414255566 0.2489971911011483 1.5200638381392009 255 255 255
0.2207802327570342 0.1935288020709601 1.6579390247489598 255 255 255
0.2899391041954781 0.2863138993602087 1.4691394025459941 255 255 255
-0.0919670187327032 0.3066015495209350 1.9571858520916496 255 255 255
0.2940893775139599 0.2982615330840694 1.4572895084880697 255 255 255
0.3009853674622257 0.2656261849666788 1.4958577986829282 255 255 255
0.2935056575044857 0.3717050795014020 1.3948943914141989 255 255 255
0.2964441050337086 0.2865299413028302 1.5181144407093494 255 255 255
0.2605813064551460 0.1779765534715399 1.6815731380078665 255 255 255
0.2935005813307494 0.3932445887770444 1.4252033122427319 255 255 255
0.3023541837905107 0.4643320835587831 1.3634902083726248 255 255 255
0.3261119825748340 0.4726487435666949 1.3253342641454131 255 255 255
0.2903341431421986 0.3022138777105227 1.5618022714240756 255 255 255
0.3016346933285993 0.3960665363965877 1.4512466568490532 255 255 255
0.3113530573642999 0.4407871258802891 1.4017206577019261 255 255 255
0.0454176673185580 0.3082130021152693 1.8891679280400833 255 255 255
0.2894489401727363 0.3241251162238387 1.5689264399715401 255 255 255
0.2750275644632694 0.5460600247653776 1.3942902680183751 255 255 255
0.3084834389897397 0.4044420348929759 1.5034090459817868 255 255 255
0.3156277067786056 0.4946746286449875 1.4038504163785328 255 255 255
0.3188118978060481 0.4174062484587438 1.4842635300172644 255 255 255
0.3173737215276229 0.4085018817632384 1.5139782973275142 255 255 255
0.2896892753980985 0.3436236217128293 1.6228266762181851 255 255 255
0.2931837390037836 0.3492727280903198 1.6156185602610957 255 255 255
0.2762354838750730 0.3110408028058083 1.6985982600493930 255 255 255
0.3585391913951715 0.3975594047543156 1.5848725807269897 255 255 255
0.2615976618328016 0.4013391583066865 1.7282590385966732 255 255 255
0.2572412745166218 0.3270770440507410 1.8380992809350807 255 255 255
-12.5148408303980450 0.8060759205801259 0.4308535560717902 255 255 255
-15.0855275308252708 1.5696988842706121 0.3701601552502736 255 255 255
0.2542595671749346 -0.2475598407594675 1.2084098241752479 255 255 255
0.1234172294582650 -0.2182501020830422 1.3704941254439418 255 255 255
0.2242098534508884 -0.2532465096622591 1.4378724508982219 255 255 255
0.1759410721481661 -0.1085579917853062 1.3700002370625770 255 255 255
0.1773964511165338 -0.0442605775547448 1.4125456070486291 255 255 255
0.1617477858925810 0.1297516806602561 1.3668184309020093 255 255 255
0.1234867366387664 0.1639482633503382 1.5102962604364498 255 255 255
-0.3221586534855772 0.2433606429207009 1.9705022858684238 255 255 255
0.1617890238023026 0.1663531920557576 1.5129978840260130 255 255 255
0.1683404847152353 0.1441573206515487 1.5463009494761728 255 255 255
0.2172046516851705 0.4220271785095696 1.2659688547445613 255 255 255
0.2349923623406193 0.2130703567544514 1.5463002599751758 255 255 255
0.2035628815630308 0.2149137319002445 1.5828248352920242 255 255 255
0.2945978509551624 0.3580247346306527 1.3585782959021817 255 255 255
0.2934738469394943 0.2586718727177250 1.4851167296918462 255 255 255
0.2742909065403161 0.1972016914114792 1.6183755543164688 255 255 255
0.2962746893840362 0.2709934115817666 1.5247770484806780 255 255 255
0.2586575135997698 0.3741995140028361 1.4713067531607922 255 255 255
0.2788401140157258 0.3795861635219623 1.4523070207564663 255 255 255
0.2483403867500494 0.3190492764081729 1.6329480363550577 255 255 255
0.3536570740621739 0.5064006446219288 1.3999056672831569 255 255 255
0.2291600622915997 0.3489172358722171 1.7742437390744259 255 255 255
0.3074011981149363 0.3545435345717670 1.6580707608350151 255 255 255
0.3029243677096777 0.3314977385037329 1.7004330890400410 255 255 255
0.2449410048176665 0.4039180675407076 1.7406426415012579 255 255 255
0.2597677071727647 -0.2391185043070745 1.1963712739816663 255 255 255
0.2293527968080898 -0.2251837696618779 1.2195899912101706 255 255 255
0.2550380373791039 -0.2224026369980528 1.2060581951584619 255 255 255
0.1494247199468552 -0.2059587453119434 1.3303440329931862 255 255 255
0.1515478580374477 -0.2265038921364486 1.3876858457308152 255 255 255
0.1652126150051589 -0.2173150019176269 1.3923296774760074 255 255 255
0.1744682175470720 -0.1867782373272374 1.3374252807092351 255 255 255
0.1901973000168234 -0.2436708856415326 1.4514173688838115 255 255 255
0.1740609960796772 -0.1913013019560288 1.3857560626213574 255 255 255
0.1974433370026917 -0.1543737571772574 1.4044542461292373 255 255 255
0.1318238907203664 -0.1000764726346121 1.4190680421541837 255 255 255
0.1846079793002907 -0.0606242684623315 1.3781080108691530 255 255 255
0.1707767924165542 -0.0768242965564638 1.4359661997998652 255 255 255
0.1800371911192950 -0.0032574314341982 1.4024712384843321 255 255 255
0.2001080612978025 0.1050232019793666 1.3440200209921664 255 255 255
0.1914721152173938 0.0100607499922219 1.4981786661532277 255 255 255
0.1739686651657435 0.0933390744059076 1.4850718953797368 255 255 255
0.1753810584467003 0.1237317878875495 1.4982083612256403 255 255 255
0.1885110338730914 0.0843293485617803 1.5506077137202656 255 255 255
0.1723963815351706 0.1680980243295156 1.4887349391048950 255 255 255
0.1749449628837291 0.1613156651787676 1.5391412632468342 255 255 255
0.1784360650855164 0.1968658227581921 1.4933214072861265 255 255 255
0.0255088620192220 0.1777925923564282 1.7433578603190758 255 255 255
0.1952821258311061 0.2258860655850819 1.4742938224998363 255 255 255
0.1794592666603977 0.1860597395419114 1.5572673362414295 255 255 255
0.2023251989134245 0.3908673529328700 1.2956672003809568 255 255 255
0.1871443841039002 0.2876495767634997 1.4314072867657890 255 255 255
0.2019293910151383 0.1243264516847229 1.6284268547437504 255 255 255
0.1999063969077723 0.1711075295425983 1.5844390508781103 255 255 255
0.2487011835217582 0.2624826105797159 1.4201676578443390 255 255 255
0.1957978999409271 0.2452359376410479 1.5232715353012134 255 255 255
0.2112738108113814 0.2477812462327461 1.5270205163518906 255 255 255
0.2241715718626489 0.1622283182982167 1.6235437468456235 255 255 255
0.2256932760547535 0.1451349175358568 1.6531968099362844 255 255 255
0.2711691826789540 0.1859063939621115 1.5566390844817912 255 255 255
0.2732050288907685 0.3088279012443078 1.4712779860091352 255 255 255
0.2967395129956581 0.2795166995135804 1.5354163540298786 255 255 255
0.2859378201854587 0.2575185771556838 1.5970303204774212 255 255 255
0.2923436143506679 0.1713998577750900 1.6863347460598617 255 255 255
0.2580999836572392 0.5779281341678808 1.3498331616879256 255 255 255
0.2515180266542907 0.4090036533665734 1.5476280579811243 255 255 255
0.2938560659000436 0.2927278829699809 1.6430623850422081 255 255 255
0.3408371580965711 0.4808203944362064 1.4037274502713157 255 255 255
0.3184709854333929 0.4052631409621842 1.5130483965949786 255 255 255
0.2993377297081045 0.3074941917597463 1.6420290596142488 255 255 255
0.3120069017602090 0.4017501777752442 1.5580581189559133 255 255 255
0.2607992629612013 0.4724549878614661 1.5814107405011422 255 255 255
0.2345265417750965 0.3721814447403212 1.7367283378886409 255 255 255
0.2499202028004362 0.4167843301142089 1.6986147829651792 255 255 255
-15.6858625804605420 1.6307280543599854 0.3442169746460106 255 255 255
0.1412597114095713 -0.2107968322885219 1.3629857236729706 255 255 255
0.1515719636273195 -0.2271359891051017 1.3886324660012792 255 255 255
0.1589480833941218 -0.2145214341627345 1.3829331395532634 255 255 255
0.1784536300088546 -0.1865826883158048 1.3214806248715179 255 255 255
0.1676771704490074 -0.1881235772811494 1.3753541907888585 255 255 255
0.1756701852184373 -0.1717882926421156 1.3818437899295795 255 255 255
0.2106258990668588 -0.1119471121772475 1.2812972525192883 255 255 255
0.1828530261149359 -0.0964915990373511 1.3492892309125422 255 255 255
0.1578560885825982 -0.0590266082670007 1.3897420832827616 255 255 255
0.1731481610356088 -0.0651927616322179 1.4099518751964986 255 255 255
0.1810069135035164 -0.0165755718647687 1.3363231915815432 255 255 255
0.1462893226547763 0.0780860377970550 1.5188099125647427 255 255 255
0.1421326326001809 0.1551244001649289 1.5194338023816847 255 255 255
0.2409765999823572 0.2887077076314328 1.4330664570960359 255 255 255
0.2303874129745193 0.2663909731963115 1.5013206881587842 255 255 255
0.0756728505811375 0.2155856414643905 1.8034506175565981 255 255 255
0.3089526242664783 0.4168645125167381 1.3220863964489915 255 255 255
0.2913278187253635 0.3268033531566784 1.4558373764043495 255 255 255
0.3019404108562433 0.3213760908085851 1.4764387666396350 255 255 255
0.2747197423945318 0.5281027596737972 1.3193153088881284 255 255 255
0.2748018407374383 0.2049160309010158 1.6687356145747922 255 255 255
0.3076456313140312 0.3720926309864832 1.4822917422831208 255 255 255
0.3129675881074916 0.3845159836187590 1.5002987284612714 255 255 255
0.2739634460062487 0.2714044613779919 1.6757294118207526 255 255 255
0.3164247217994015 0.4428229718154339 1.4545311397669480 255 255 255
0.2892479547257378 0.4308596387133108 1.5362596288646584 255 255 255
0.1995197087384513 0.2460672453760665 1.8706622389537064 255 255 255
0.1697694285715549 -0.1963901617690320 1.3798213742419163 255 255 255
0.1590830656766798 -0.1639235941056799 1.3475476941283062 255 255 255
0.1937922270195938 -0.1555160474561941 1.3313486172599960 255 255 255
0.1310231711039954 -0.0038679935028450 1.4556787770289992 255 255 255
0.2638982236237982 0.2717651365647968 1.4270714003197082 255 255 255
0.1592031539789123 -0.2404731560700671 1.3350734851444770 255 255 255
0.1886269750145206 -0.1514375788085262 1.3580962908219141 255 255 255
0.1914630377704969 -0.1423598597239983 1.3791442815398240 255 255 255
0.1448100669054374 0.1964252267285945 1.4477874642584241 255 255 255
0.1725188630287857 -0.0943108597534737 1.4107434332349473 255 255 255
-11.7319848869251224 0.0015663831458555 4.0294807284307268 255 255 255
-12.8134708267849540 0.4042523993460261 3.0660053545372215 255 255 255
-9.6794217767152055 0.8227823862816818 2.1965915296341678 255 255 255
-9.6245453198227331 1.1930045953263961 2.7774394491733401 255 255 255
-0.1080104004127014 -0.2641440073997207 1.1395922175864390 255 255 255
0.2125716639132921 -0.3788690895776747 1.4106976798231385 255 255 255
0.1906684160091620 -0.3797131657336481 1.4284007634898566 255 255 255
0.2023351208140237 -0.2854455243452542 1.1640876487060774 255 255 255
0.2190565028932831 -0.3203333102095318 1.4072134010318522 255 255 255
0.1636983795243467 -0.2931622866415271 1.4420662527300432 255 255 255
0.1494458903810232 -0.2002937086752826 1.3077799911168675 255 255 255
0.2219057061768123 -0.2673952871631301 1.4501987999955108 255 255 255
0.1974094916059216 -0.2474324033048831 1.4413317226303153 255 255 255
0.1612593076803117 -0.2019941268485412 1.3632528780444721 255 255 255
0.1428228615574447 -0.1972953033811034 1.3939382607634754 255 255 255
0.1724348439869099 -0.1912114935733374 1.3224601849788187 255 255 255
0.1618498224951942 -0.2008097224598830 1.3997755441993196 255 255 255
0.1704026705206406 -0.1985751683717576 1.4052703844324927 255 255 255
0.2397009730450076 -0.1596777280492036 1.2145499338640728 255 255 255
0.2231485097000042 -0.1565691296377879 1.2551961522225537 255 255 255
0.2279926058272740 -0.1478805662634880 1.2332994388783678 255 255 255
0.2156440868435009 -0.2178601277415958 1.4611731202608955 255 255 255
0.1722727490671047 -0.1130746164109108 1.3715125763547562 255 255 255
0.1699022264509888 -0.1195945052536428 1.4085295821029016 255 255 255
0.1752564621070598 -0.1147955138749835 1.3928883993151593 255 255 255
0.1643002766101756 -0.0855018152111679 1.4184107911007573 255 255 255
0.2549875712451798 -0.0848241994360245 1.2498662755868115 255 255 255
0.1804802496564518 -0.0697616831988771 1.3607133648706258 255 255 255
0.1836998235549974 -0.0687904409920400 1.4564606719646542 255 255 255
0.1799413029605786 0.0106343084088332 1.4467705735980390 255 255 255
0.1718079059149674 0.0587047256982222 1.4184614346240547 255 255 255
0.1718186120236359 0.0534012005478488 1.4925647680108773 255 255 255
0.1645138038550538 0.0975599691950587 1.4898072524999404 255 255 255
0.1628513802009900 0.1250032196822098 1.4963422380286802 255 255 255
0.1808763623432317 0.2042769526784848 1.4254518878226128 255 255 255
0.1537321209126233 0.1874948170540946 1.5637813561607676 255 255 255
0.1952346693507785 0.2068911623299658 1.5861096809058348 255 255 255
0.1868086458762518 0.2147600375184314 1.6278114001288595 255 255 255
0.2191481936234869 0.2426463089066282 1.4770512369648385 255 255 255
0.2174362443953467 0.3109894598355044 1.3885142543986444 255 255 255
0.1804706565880788 0.3893631401808531 1.3017060742349587 255 255 255
0.2423718794739046 0.2779549134735293 1.3996426746663684 255 255 255
0.2399325156980879 0.2575752474491988 1.4777900389341645 255 255 255
0.2065858084203964 0.3080231200149754 1.4605857228844827 255 255 255
0.2268197071914941 0.2484015560620523 1.5824716538450914 255 255 255
0.2804175049201935 0.3119430409467974 1.3709733971600875 255 255 255
0.2800586391787097 0.2982967295098243 1.4001790496675335 255 255 255
0.2935118572454690 0.3878898429832107 1.4493045681651551 255 255 255
0.2935143528046821 0.3966367665664217 1.4627153696388699 255 255 255
0.2859263927778762 0.3654176132245187 1.6189853172895079 255 255 255
0.2982195668012141 0.4087537105572561 1.5219467759326637 255 255 255
0.2832231662188981 0.3718393584127079 1.6409827048087788 255 255 255
0.3036098120584685 0.4447670914883750 1.4418757029218376 255 255 255
0.3364340674146283 0.4018687464377165 1.5292494356806452 255 255 255
-17.0864968373752077 0.6879591258881677 1.9708962523742322 255 255 255
-9.8782488489718290 0.1646927259169845 2.9485922619763660 255 255 255
-8.6961967592755496 0.5957916188674248 1.9324900275897747 255 255 255
-8.8668614547116960 0.7396439310414767 2.1066631150378314 255 255 255
-5.7940928816002364 0.2770625307692127 2.2306934308631479 255 255 255
-9.2241280114665418 1.6095143989355651 3.3088807022774844 255 255 255
0.1748649644441035 -0.3429268837207758 1.4746347517519642 255 255 255
0.1536062184346000 -0.2127370301010538 1.3840133517570723 255 255 255
0.1503541605472954 -0.2056764679619184 1.3871009961155514 255 255 255
0.1945769066726530 -0.1684384098095197 1.3877078716457842 255 255 255
0.1797775518632532 -0.1160611218908245 1.3021058193228703 255 255 255
0.1647462528352840 0.2694079710931870 1.4651521327523789 255 255 255
0.2143223956565342 0.1702787970313704 1.6301033817745600 255 255 255
0.2475196024840535 0.2493248793229407 1.5050152572805282 255 255 255
0.2621352894504775 0.2947332984345269 1.4669616426433993 255 255 255
0.2808773077005984 0.2645369518596183 1.5391179640270320 255 255 255
0.2901330686576760 0.3771647782366474 1.3363528949193955 255 255 255
0.2521562312330036 0.3709246832521637 1.6417176497049129 255 255 255
0.2475178059635045 0.3427805258039850 1.8015581185132736 255 255 255
0.2685574489796459 0.5349071454729639 1.3882521809064741 255 255 255
0.3353777356744808 0.4214011435860501 1.5746113818250731 255 255 255
0.1629662667057540 -0.2033342309588758 1.3786608399073688 255 255 255
0.2470215940260208 -0.1673745073684332 1.2355938493269933 255 255 255
0.1899690476563878 -0.2059015277535441 1.4347306367870847 255 255 255
0.2097767620277416 -0.1966137159222072 1.4628812605906052 255 255 255
0.1803659591905225 -0.1416106391869258 1.3635880051888163 255 255 255
0.2450264803026692 -0.0259822310643651 1.2841400578284738 255 255 255
0.1697266915336143 0.1032784319303307 1.4673296199532799 255 255 255
0.2129428454359851 0.1275008888842975 1.6392278125914614 255 255 255
0.2104188611512546 0.3092532500950296 1.3224975644161796 255 255 255
0.2470462995202782 0.2888299310738942 1.3980269281784250 255 255 255
0.2231150742797571 0.2805671201085456 1.4836248522446054 255 255 255
0.2632798744217157 0.3258128432718341 1.4639307384908256 255 255 255
0.2599499898976880 0.3106346994845878 1.5502924855364433 255 255 255
0.2456238331350211 0.2895975483005701 1.6530078451682937 255 255 255
0.2842731896568751 0.3264295643368686 1.5163501254402656 255 255 255
0.2899387663926629 0.3434672592999372 1.5740231509070086 255 255 255
0.3033875491015972 0.4368144153157752 1.3512707350616415 255 255 255
0.2541909742609481 0.3564062901441191 1.8152592287686287 255 255 255
-9.6780707827718064 -0.0731636059252638 3.0374325115292375 255 255 255
-11.6682178002689358 0.2343598098498141 2.7570948045066443 255 255 255
-9.6563826309137593 0.0278955057972526 2.8199210518364506 255 255 255
-9.8927420939488666 0.1536808183292938 2.9167416269727582 255 255 255
-8.6201384858500933 0.5949988510011750 1.6548437535342093 255 255 255
-8.7649550355251780 0.6129353475767020 1.9570393881384067 255 255 255
-6.9919756588767070 0.5148310544182951 1.9832740540782217 255 255 255
-6.4646517542038460 0.3678986712926959 2.2024379809032379 255 255 255
-8.1085451261780257 0.8213866596556822 2.3636197558611727 255 255 255
-9.5531047445761743 1.1746456331622339 2.7708804443160493 255 255 255
0.1519112034671389 -0.2337779947023909 1.3084289328650012 255 255 255
0.1565959485917990 -0.1878868575748396 1.3490839462700213 255 255 255
0.1774697841512040 -0.1582856761841246 1.3875253026986778 255 255 255
0.1752998453092523 -0.1577757550761712 1.4025721766842290 255 255 255
0.1856219152938166 -0.1370817430439605 1.3355084874026608 255 255 255
0.1648080409875996 -0.1413381293933273 1.3726972380589639 255 255 255
0.1756656071820451 -0.0001559068828677 1.3598262821778460 255 255 255
0.1355814441354537 0.1537793186668644 1.5026338463440716 255 255 255
0.1927156485063182 0.2683950646217296 1.4507918196148430 255 255 255
0.2568332194524064 0.3853340343819943 1.3274246282880342 255 255 255
0.2045137654799226 0.3154070538652113 1.8905775732355177 255 255 255
0.2330564730880396 0.3223975028038488 1.7963458869152726 255 255 255
0.2659444779690817 0.3053650929145407 1.7959247725990428 255 255 255
0.3145431787928685 0.4215580849465335 1.4710377067821163 255 255 255
0.2460018559587120 0.3700931476106342 1.7732413938635989 255 255 255
0.2623437233265051 0.3559295036803031 1.7822450263639500 255 255 255
0.3228371330412920 0.4226405409922073 1.4887821506735024 255 255 255
0.2949859517798090 0.4886532572861626 1.5193660791087955 255 255 255
0.3166782660146584 0.3081983505272043 1.8233228843217069 255 255 255
0.3154338992465406 0.4242047639459667 1.5995918938282103 255 255 255
0.3172144818421728 0.3933822192264944 1.6538851382878836 255 255 255
0.3422228941216749 0.4167863789269385 1.6099385333953327 255 255 255
-8.7194414713884196 0.6298482394584671 1.9894551942506180 255 255 255
0.1526770056949965 -0.1604558221628413 1.3323979797211278 255 255 255
0.2063084681726564 -0.1481784308096269 1.2712085381642897 255 255 255
0.2081847365433234 0.3768574556536266 1.3188095150975763 255 255 255
0.2549919936097235 0.2224169814589650 1.5885290330045911 255 255 255
0.2974425936896901 0.2935497655471883 1.5079202436283341 255 255 255
0.2711812287697382 0.3449982151483970 1.7560916449345567 255 255 255
0.2755875882319841 0.4563745244300876 1.5357538475634291 255 255 255
0.2973748998204653 0.5248504587159745 1.3993531757793147 255 255 255
0.2658313628956797 0.3530636621875152 1.7803955775844844 255 255 255
0.2643287213527692 0.4486093926344201 1.6272113571930129 255 255 255
0.2585468118975242 0.3720600543986470 1.2890791202647973 255 255 255
0.3072149652427572 0.4326007779412414 1.3725930719317869 255 255 255
0.1642740186147042 -0.1739995349260444 1.3269077079754965 255 255 255
0.1687446198827570 -0.0889745926394166 1.3574688691213441 255 255 255
0.1603954340143688 -0.0089716448434602 1.3886946418315238 255 255 255
0.1495902972260325 0.2621896750890918 1.4381506399089650 255 255 255
0.2067667587823299 0.3779681235149884 1.3178276921936822 255 255 255
-18.4024512686315056 -1.0932943366556698 6.4709814102030450 255 255 255
-21.1803801517230603 -1.4518814339481145 8.3259383353783178 255 255 255
-21.9748474800740361 -1.0464918389960056 8.1255230009805555 255 255 255
-30.2438638209688975 -0.0984716454715168 9.6110072739110546 255 255 255
-19.0142579527523345 -0.6016703698284415 7.9996210917923731 255 255 255
-12.7572046408841100 -0.0901572895718713 4.3312839172742725 255 255 255
-9.5050043921937934 -0.3818354012934635 4.2400416422431668 255 255 255
-12.9818344059011856 0.2366187150812570 3.7597281597083345 255 255 255
-0.1096103268640554 -0.2458041705717620 1.1164044946384650 255 255 255
-0.0636181426065927 -0.2392794846661666 1.1028792572932742 255 255 255
-0.0741626932870215 -0.2357639660374440 1.1148896658736986 255 255 255
0.1974302799463869 -0.3519594520387552 1.3907201473872508 255 255 255
0.2038283923567462 -0.3284242029629018 1.4012781266683114 255 255 255
0.2501075601291631 -0.2473797099263265 1.1634466728624575 255 255 255
0.2224623814823587 -0.2069640823734771 1.1702687284587654 255 255 255
0.1849643417731469 -0.2598531645700142 1.4333223098673353 255 255 255
0.1404862352909715 -0.2290879531834499 1.4238302129753593 255 255 255
0.1851293689239892 -0.2481116657478748 1.4280246686249953 255 255 255
0.2692054401075481 -0.2112538503188605 1.1848329881546553 255 255 255
0.1950639434149507 -0.2508131701941408 1.4385840694303607 255 255 255
0.2073784000108858 -0.2537758413767578 1.4462704323695852 255 255 255
0.1446531538264510 -0.2169537361793016 1.4340829975263854 255 255 255
0.1907612115794995 -0.2376711221225379 1.4362419269963149 255 255 255
0.1677721090821916 -0.2221218379845718 1.4266025004065188 255 255 255
0.1545722005405940 -0.1937632628861647 1.3341171513859713 255 255 255
0.1914833300580661 -0.2319323659688958 1.4425557168105720 255 255 255
0.1596808516609982 -0.2165943867172029 1.4601413095010205 255 255 255
0.1562080669296026 -0.1963277373314100 1.4675802452948088 255 255 255
0.1840993511670677 -0.2066676425248841 1.4397487546806773 255 255 255
0.2042289151010090 -0.1236534675022902 1.1904966994544512 255 255 255
0.2049337193033275 -0.2080642664288952 1.4643683216976762 255 255 255
0.2467516018434802 -0.1405084552972313 1.1841608624620703 255 255 255
0.1854605797106176 -0.1785869460746358 1.4555329620466841 255 255 255
0.2511307297997204 -0.1302199112519897 1.2036507047904741 255 255 255
0.2514801487462586 -0.1297802401805885 1.2127260873756294 255 255 255
0.1782655539985346 -0.1582598872764457 1.4606589152416478 255 255 255
0.1595395231854889 -0.1318925254892101 1.4088609994718322 255 255 255
0.2585643173810493 -0.1158243190035765 1.2234275742518017 255 255 255
0.1756017123999364 -0.1280172765350519 1.4674551879503617 255 255 255
0.2486334922068791 -0.0841423760948816 1.2303582785415506 255 255 255
0.1675643373156291 -0.0202665456982684 1.4394963706931485 255 255 255
0.1633050245543290 0.0069708344709028 1.4517294652442394 255 255 255
0.1602587520185132 0.0124604231942957 1.5053354016234428 255 255 255
0.2454778285455110 0.0824311810215254 1.2812365666840451 255 255 255
-0.2200452552081772 0.4982918043194408 1.2422065082218507 255 255 255
0.1413569698557338 0.1868649495833541 1.5664152618124918 255 255 255
0.1617596861441599 0.1916233986996571 1.5988351819950495 255 255 255
0.1819635864085239 0.1916836041723357 1.6366461634762999 255 255 255
0.2222900639571164 0.1922448266290169 1.6728986846320364 255 255 255
0.2272976907122953 0.2574990426244489 1.4995597000624139 255 255 255
0.2310450660227869 0.2703449663932381 1.4755194824404112 255 255 255
0.2341582557448127 0.2524799050719360 1.5359913374852081 255 255 255
0.2424624666563306 0.2433295179273867 1.5751106549457004 255 255 255
0.2380501665422088 0.2804946500004866 1.4405201631941977 255 255 255
0.2408734842822741 0.2693413649577784 1.4827198323963859 255 255 255
0.2529697941220451 0.2731219010229815 1.4487543294664180 255 255 255
0.2446693061477811 0.3047743554841432 1.3971760470234311 255 255 255
0.2233419523860400 0.3440088197676214 1.3503458081776190 255 255 255
0.2528838009134112 0.2850746784684222 1.4804519622842731 255 255 255
0.1502984348753550 0.4572995366671920 1.2628097882246234 255 255 255
0.2509595975680983 0.3137597956484027 1.3927498937975353 255 255 255
0.2665710869386144 0.2997770703075091 1.4576819485222319 255 255 255
0.2087527488588795 0.3988211057911241 1.3189500305854904 255 255 255
0.2640853154489003 0.3170718801130620 1.4517027007942034 255 255 255
0.2756034343924527 0.3139850109004970 1.4305066436821037 255 255 255
0.2762369362713305 0.3295434473506246 1.3998578497136696 255 255 255
0.2342746189954215 0.3935807461037313 1.3681036798686970 255 255 255
0.2524191487690614 0.3868938574436543 1.3654297261323947 255 255 255
0.2830074148904435 0.3609849866860664 1.3800519377194096 255 255 255
0.2306614724824113 0.4436923355919595 1.3089909240507884 255 255 255
0.2738368681526842 0.3943777306887151 1.3464454691334569 255 255 255
0.2729801634757126 0.3278262407027941 1.6223453007815458 255 255 255
0.2773387441096091 0.4053204257662948 1.3237318060210450 255 255 255
0.1660611774278384 0.5719593354461633 1.2060440580553615 255 255 255
0.2538517711336795 0.3531910802370725 1.8312788875172359 255 255 255
0.2929140350115816 0.3876895857901901 1.4999728099394696 255 255 255
0.2902722748785503 0.4118018284551007 1.5537801998337770 255 255 255
0.2784366718062491 0.4109478903949811 1.6781537164235285 255 255 255
0.2993666594640243 0.4791979688822252 1.4022806744231466 255 255 255
0.3021810302247720 0.4700432166380568 1.4230835604675087 255 255 255
0.3038946736131070 0.4732246490924936 1.4430870606186337 255 255 255
0.3179747770223408 0.5459880069891194 1.4158793675176027 255 255 255
-18.6341458763997885 -0.8309789308371685 6.2982591966975070 255 255 255
-19.8700112560264301 -1.3294247855610153 8.1898286508070921 255 255 255
-17.9587149613582753 -1.4110666616618976 8.0037448079834697 255 255 255
-19.0709444908765242 -1.0920605843206126 7.5323874041189924 255 255 255
-21.3695134422291240 -0.3442766181583016 5.8839002545100350 255 255 255
-19.9719750187369769 -1.0007008915850748 7.5154936359809472 255 255 255
-19.5517039751204251 -0.7920423252451455 6.9543741623178246 255 255 255
-16.2387560848986503 -1.4221286629936405 8.3120391478102018 255 255 255
-18.1779336109333549 -0.0967426309334245 5.2850208403972756 255 255 255
-17.4541403544893683 -0.9539911526711895 7.7269683343212598 255 255 255
-19.8061062734088900 -1.1288114775890752 9.4635433720553959 255 255 255
-18.8244361842424119 -0.9032358210480983 8.5895075160316097 255 255 255
-13.6644431301117564 0.0975645595086281 4.2678068839726562 255 255 255
-13.6480775678684410 0.4401389733446713 3.8708961898628336 255 255 255
-10.6485622320450428 0.9443002261907972 1.9836567428067122 255 255 255
0.1992843227935407 -0.3243664918396614 1.3896460583991743 255 255 255
0.2442860130611392 -0.1537583852150361 1.1968368708339443 255 255 255
0.1331315507542327 -0.1085829031559690 1.4298508566283803 255 255 255
0.1435419298493123 0.2094931848623180 1.5597671593008144 255 255 255
-0.1560178586683216 0.6245233842606794 1.1665299746611326 255 255 255
0.1915451513599567 0.2691414766178640 1.4433002554042862 255 255 255
0.1031762363032108 0.4125814328213537 1.3195090436700705 255 255 255
0.1839570733107388 0.2596041782656782 1.8332418443602940 255 255 255
0.2705883372655636 0.2895287773007963 1.4964835304232622 255 255 255
0.2503087354428473 0.3523344940420297 1.3524341036502805 255 255 255
0.2722716729734690 0.3631017469150682 1.4297041939888901 255 255 255
0.2783898345045134 0.3763527867922971 1.3245689762252082 255 255 255
0.2881425719140224 0.3893807437461166 1.3973709136764025 255 255 255
0.2650221424137771 0.4097750772823474 1.7809488079096965 255 255 255
0.3436699697084318 0.4573291047894757 1.5227559462002682 255 255 255
0.2453838194039492 -0.2510029977432072 1.1673599958672318 255 255 255
0.2660832607007291 -0.2197636169436738 1.1877292100951800 255 255 255
0.2266810890124338 -0.0518975257244884 1.2964474537551234 255 255 255
0.2452560117748850 -0.0119653693961938 1.2576919435685379 255 255 255
0.1190541095680355 0.3211006353675467 1.3230002671474423 255 255 255
0.2170334169523820 0.2160224409087798 1.7695650781059171 255 255 255
0.2561621336435714 0.3078616738688010 1.4040040286901254 255 255 255
0.2679393698326793 0.2817016936377167 1.5712524019061862 255 255 255
0.2536636188521197 0.3611949458755205 1.3343035091926496 255 255 255
0.2693282266619302 0.3292112363004714 1.3822889476763465 255 255 255
0.2665619211439222 0.3343782343130272 1.4168263715152762 255 255 255
0.2776383585163619 0.3513691829595834 1.3636729159815553 255 255 255
0.2768563487021517 0.3200594938094630 1.5564611917569604 255 255 255
0.2908212250046980 0.4263961331155405 1.5876213809861164 255 255 255
-17.6545716647161335 -0.9353504510999424 7.7960666636436127 255 255 255
-20.4915441008948171 -1.1194535558195147 9.7571261207404856 255 255 255
-0.1794015912462490 -0.3153633399573498 1.4208581808341345 255 255 255
0.1608443626540152 -0.3190473216274086 1.4836423681994690 255 255 255
0.1585981652384875 -0.2330219742179152 1.4539640528327484 255 255 255
0.1618136363228851 -0.1606103013877488 1.3363074177060903 255 255 255
0.1618965964471496 -0.1667714335539971 1.4126549647582611 255 255 255
0.1435201565396015 -0.0130471906946631 1.4723210606877972 255 255 255
-0.2377120522812203 0.4754333782894983 1.2551225502592898 255 255 255
0.1693573294137057 0.2170609413902871 1.5725565763423117 255 255 255
0.2329020751096590 0.2472872689720866 1.6388308628292696 255 255 255
0.2444485453829573 0.2900887207029804 1.4161268122149697 255 255 255
0.2447379888987954 0.2611995863895729 1.6236237970862519 255 255 255
0.2669274689737352 0.2779477925078906 1.5477306880042181 255 255 255
0.2755415604506676 0.3136386010769301 1.4535214932849427 255 255 255
0.2306620084251263 0.3566450758129724 1.6113003513472264 255 255 255
0.2340907606353613 0.3508609435257705 1.8288067096020120 255 255 255
0.2583102074031848 0.3671653964638513 1.7123274100550188 255 255 255
0.2607904525977849 0.4119688677059325 1.6748826495480864 255 255 255
0.2734992189530611 0.3636566393658140 1.8136644414809873 255 255 255
0.2989006294980623 0.4420099845536810 1.5735150735171741 255 255 255
0.3402326084474753 0.4792159601144386 1.4945624244516182 255 255 255
0.2541219637855724 -0.3398534838737338 1.4622984429035015 255 255 255
0.1566414919851337 -0.2029353281622132 1.5488249814928141 255 255 255
0.1391785571919539 0.1667696392624650 1.5264002255985207 255 255 255
0.2502788661395247 0.2534193755743396 1.5286520689858716 255 255 255
-10.5858439609310668 -1.9668390481935529 6.8940803173090943 255 255 255
-10.5202887116171553 -1.7577457110410599 6.4952990041097127 255 255 255
-10.7318373064656836 -1.5916743330463397 6.6801490476033996 255 255 255
-9.7143663059602599 -1.2698018185487452 5.8762265849298760 255 255 255
-3.7162500947749444 -1.0035087163587864 4.6651666956134994 255 255 255
-7.2560922293921699 0.4795959239162880 2.6938064205978214 255 255 255
-0.1691516906429794 -0.3397928572848559 1.3767286889360764 255 255 255
-0.1593788686805169 -0.3485549619720498 1.4043332167016502 255 255 255
-0.1489900141041949 -0.2692580761184294 1.1710984909197313 255 255 255
-0.1776057494428386 -0.3061609408272861 1.3697595290085030 255 255 255
-0.1894412984399588 -0.2974051464992846 1.3647603725404840 255 255 255
-0.2042265422793788 -0.2251137541318892 1.1531566467616086 255 255 255
-0.0967360751848757 -0.2236764767945408 1.0907522430732410 255 255 255
0.1541393716676855 -0.3602566087379371 1.4113811656465902 255 255 255
0.1546150243966056 -0.3344240710896851 1.4146541053884392 255 255 255
-0.0763363425497999 -0.2078196411288230 1.1100116139464995 255 255 255
-0.1071945601379609 -0.1782628641827314 1.0999964079294839 255 255 255
0.1787237378266403 -0.3443497994368958 1.4299170653124067 255 255 255
0.1484873605168389 -0.3249272124172112 1.4195069255434356 255 255 255
0.1857826517083446 -0.3336419326603301 1.4323287437348018 255 255 255
-0.1189387490600263 -0.1687769022472458 1.1119656313699848 255 255 255
0.1447597083440182 -0.2531322070330901 1.1756140879038388 255 255 255
0.1460332365940393 -0.3104747302591832 1.4175396471457646 255 255 255
-0.1059885970290445 -0.1728568107234336 1.1345184805612807 255 255 255
-0.1125372860958238 -0.1638387772674636 1.1212561760522344 255 255 255
-0.0984807895717240 -0.1746304546676878 1.1433870393169563 255 255 255
0.2170449832495906 -0.3326669717533244 1.4050575439885733 255 255 255
-16.1115128872505196 3.6501201754998469 3.1246631664290319 255 255 255
0.1415968980756081 -0.2977121946985681 1.4386851431926726 255 255 255
0.2185894131595006 -0.2529958396240103 1.1736069905337192 255 255 255
0.1475400226043683 -0.2885236858035573 1.4442841355661957 255 255 255
0.2213841607130708 -0.2462587315107345 1.1774399217309635 255 255 255
0.1331230408824631 -0.2798149611256243 1.4380309216148350 255 255 255
