ply
format ascii 1.0
element vertex 687
property double x
property double y
property double z
property uchar red
property uchar green
property uchar blue
end_header
0.2329114136653691 0.2842367184306627 1.4716780440186084 255 255 255
0.1747503247697531 0.1798768579116417 1.6023637156672756 255 255 255
0.1236320012946518 0.1639058633531152 1.6525037182314715 255 255 255
0.1708413181878668 0.1758716419145266 1.6215760304905862 255 255 255
0.2170769185371164 0.2390588898158536 1.5570089237827196 255 255 255
0.2633393840543665 0.4648090061624573 1.3601319042752453 255 255 255
0.2603224850286067 0.4444319468508462 1.4053440580481034 255 255 255
0.2171675795587815 0.3063645992135414 1.5397065786132882 255 255 255
0.2137015649098116 0.2909507251998922 1.5954384268847899 255 255 255
0.2365687213006136 0.3780395020171762 1.5267247998024016 255 255 255
0.2166307147514278 0.3551446974543714 1.5603080618326808 255 255 255
0.2497014823948391 0.4063006782381805 1.5245880944369441 255 255 255
-0.0435189099438954 0.2765966562888179 1.8176610297189000 255 255 255
0.2365161720266760 0.3813172342031994 1.5706953275649149 255 255 255
0.2771076229331852 0.4328732616442271 1.5043409187063532 255 255 255
-0.0959261791493059 0.2568165450623196 1.8846899433978355 255 255 255
0.2170285700214453 0.2851837694016550 1.6707303315492767 255 255 255
-0.0310279604704657 0.2611714138562037 1.8561334116095694 255 255 255
0.1800482545146362 0.2517557094162894 1.7287355759512648 255 255 255
0.2105120934391474 0.2943385165205494 1.6842346123446745 255 255 255
0.0113194785416036 0.2679781120208253 1.8545909371760265 255 255 255
0.2131817923093486 0.2968616483863664 1.7307335582939078 255 255 255
0.0745417977802176 0.2807253640925990 1.8306744975787985 255 255 255
0.1261321628769126 0.2914759522485508 1.7938466398906370 255 255 255
0.1750793155074970 0.3157368369412851 1.7568102580065295 255 255 255
-26.7457114990522733 5.2360061978438832 -16.8338287730823417 255 255 255
-21.9540344549488040 6.0282261883364008 -14.1386970987865723 255 255 255
-24.0076410097318451 3.3069816172016484 -7.9194409784985433 255 255 255
-20.7642651797461895 6.0071565644383442 -8.3656411586134745 255 255 255
0.1959400314910179 -0.2026117472028699 1.2424808119265744 255 255 255
0.1356376287692746 -0.1261558535869364 1.3680928536871952 255 255 255
0.1642008151426133 -0.0510298060201052 1.2942766324951989 255 255 255
0.1904771795904390 -0.0340925017908501 1.2758754361441771 255 255 255
0.1543765344591345 0.0416615165375193 1.3288567061562981 255 255 255
0.1336227792275842 0.0361013681016999 1.3646145633515003 255 255 255
0.1809338609006925 0.1859740871272638 1.3683838986033017 255 255 255
0.1542519790858545 0.1967817949471009 1.3845393549210536 255 255 255
0.1102611731856953 0.0643068305683810 1.5514832226172532 255 255 255
0.1470728501588215 0.2297410244887120 1.3989159707725296 255 255 255
0.1416881829656546 0.2219461248894440 1.4741422995971267 255 255 255
0.1740191513738256 0.2167443617857475 1.5238523595285092 255 255 255
0.1357747907351338 0.1675237655089160 1.5976633072996620 255 255 255
0.1373617362299573 0.1554929693325382 1.6090985898481185 255 255 255
0.1897545269556307 0.2219995556942045 1.5241956939238701 255 255 255
0.2155091341686141 0.2517426779369609 1.4988207134446159 255 255 255
0.1635592592951161 0.1853157932193598 1.5811397382391095 255 255 255
0.1546030394650158 0.1631098544063862 1.6113965417439093 255 255 255
0.2205325561519312 0.2758212925552567 1.5249769245715619 255 255 255
0.2018640888227884 0.2006969840308847 1.6003369183874083 255 255 255
0.2330984810900842 0.3429438652806805 1.4888155744662406 255 255 255
0.2141203739958580 0.2629561048681069 1.5636837823763154 255 255 255
0.2058827986318817 0.2066206613940048 1.6133035678345851 255 255 255
0.1962394997444232 0.1898006792425526 1.6441190214191606 255 255 255
0.2147090744595879 0.2122041731266207 1.6202076353935728 255 255 255
0.2552718415274458 0.4101328763193386 1.4534626537488620 255 255 255
0.2050359247788853 0.1949889130291850 1.6495927103101142 255 255 255
0.2331844902771118 0.3550057328884211 1.5266497507594183 255 255 255
0.2031677496723096 0.1984844879741113 1.6610094927940005 255 255 255
0.2298288807822791 0.3658368029435886 1.5408411451303510 255 255 255
0.2726356960614080 0.4018386383851671 1.5157876398393142 255 255 255
0.2140783632791639 0.3261762998821993 1.6474694891647419 255 255 255
0.2002060510459557 0.2800996818602181 1.7164633319551255 255 255 255
0.2117654224125004 0.2864406028945649 1.7095673710819592 255 255 255
-21.3337619935716951 4.7495878903870468 -13.9349304734017920 255 255 255
-23.5534118235240157 4.4188290889797637 -13.2942861767853397 255 255 255
-23.6367419250714761 5.0648894253240142 -14.3313193060462432 255 255 255
-30.1500036767200790 5.4447778057037004 -16.2847988996971331 255 255 255
-19.7692389681986604 4.9790555225368038 -12.9935875905438145 255 255 255
-23.5936360437486421 5.3883925456233568 -13.9526399726530119 255 255 255
-23.1728831333349632 3.6397066217170284 -10.4501383066901159 255 255 255
-24.1937864828185951 2.5388543985473628 -8.2664389186149876 255 255 255
-19.4285128384641652 4.1716049065438465 -9.8302801045916333 255 255 255
-23.3823726936233705 2.8710682451539919 -7.5972809324907251 255 255 255
-26.0731030351386046 3.0380643419259337 -8.0951325684585367 255 255 255
-28.8227677917357141 8.1154991200373647 -18.1406074743033336 255 255 255
-19.2291406739881587 3.3446216606214096 -7.7546197049360019 255 255 255
-21.2412649183273921 6.3539283329306890 -13.5049254112652797 255 255 255
-20.6363231756087409 4.6794470474035021 -10.1250532337759278 255 255 255
-21.1049344275862616 3.3750923827980004 -7.4954961342474062 255 255 255
-19.5775387360535120 4.9428292895235613 -10.1606683584953874 255 255 255
-20.1652544107843745 3.7474777423749934 -7.8555112612034268 255 255 255
-22.5284139361592004 3.4652610744637382 -7.4412614969742981 255 255 255
-20.7433766788207485 3.5913925521955075 -7.4914845220251340 255 255 255
-22.0165613991707758 3.0883350725038436 -6.6409259570974859 255 255 255
-19.6691004045952234 4.1790549241056825 -8.2794535141184920 255 255 255
-25.0044179628345837 6.4968310331055052 -12.5763180701392834 255 255 255
-20.9808777308716969 4.0366611318443812 -7.8191899162431024 255 255 255
-20.1177210789932204 5.0512693766825807 -9.5773088266575943 255 255 255
-20.1424997266743198 3.6057341597890491 -6.8921925729676721 255 255 255
-23.9665223663040265 3.9198051484827654 -7.4217429132543931 255 255 255
-21.5010532105543390 4.7481664676108997 -8.7445759562805812 255 255 255
-20.2527007512689110 4.2866535724285342 -7.7554332231349603 255 255 255
-29.3796075277410402 5.8261788300953139 -9.5263977165324594 255 255 255
-32.1618831177595084 5.9559793428328591 -9.2209927047517972 255 255 255
-20.4949218763588910 6.4251907432400168 -9.1897360078918719 255 255 255
-21.8092115991758462 5.0729483396393995 -6.9506421371463736 255 255 255
-30.2690755635902491 6.0709575671434317 -7.8208311026608976 255 255 255
-32.5578749734771407 8.0578892732802263 -10.0145974636677320 255 255 255
0.1376034914558484 -0.1301107946359539 1.3210242243985362 255 255 255
0.1379101184717732 -0.1047154662829682 1.3483929782480759 255 255 255
0.1314103571993106 0.0128962005532499 1.3503056956092521 255 255 255
0.1301319603726150 0.1270439164343730 1.3913203852181264 255 255 255
0.1362724385827902 0.1605083670292928 1.3806964783639164 255 255 255
0.1277527219325995 0.1361568486509521 1.4172152695453168 255 255 255
0.1667653210087147 0.1773162551180306 1.3725191751596870 255 255 255
0.1295182945408921 0.2285675562040419 1.4507569496332091 255 255 255
-0.4769802765110315 0.2771725260780293 1.7300825263272697 255 255 255
-0.4534105966074767 0.2979253253227040 1.7846461870941761 255 255 255
0.2236401526449938 0.3337919275547607 1.3986499395856273 255 255 255
-0.3538579376387729 0.2913630271055980 1.8143744481129906 255 255 255
0.2250721709304115 0.2479809443721983 1.5180860525359159 255 255 255
0.1488846844621587 0.1657940118242607 1.6333816706058424 255 255 255
0.1577437030403954 0.1920543394321817 1.6203398611490405 255 255 255
0.2062396324455231 0.2174380426983288 1.5793818946460700 255 255 255
0.1481831802618092 0.1750316126173724 1.6549628326689727 255 255 255
-0.2696168988228200 0.2812855940960532 1.8204131176383427 255 255 255
0.0769830322094804 0.1955533489518354 1.7159504954029940 255 255 255
-0.1418863503888500 0.2902488799628437 1.7998050020576459 255 255 255
0.2367404153040486 0.3782414336301922 1.5266292257105443 255 255 255
0.2237274592659158 0.3474251877777926 1.5629515118060522 255 255 255
-0.1216213476032146 0.2794853386155934 1.8344373154902687 255 255 255
0.2377985414771116 0.3822417840930107 1.5693993817818856 255 255 255
0.2127112668667603 0.2911474722360778 1.6644995752834304 255 255 255
0.0911998386853286 0.2783831228863102 1.7559528400725175 255 255 255
-0.0335581331547046 0.2626271751364363 1.8559914410675806 255 255 255
0.2130582480653586 0.2954340946112374 1.6861536433175119 255 255 255
0.0734754928107570 0.2875809054268949 1.7960254559142983 255 255 255
0.0429642919179651 0.2970210576362874 1.8147362054509668 255 255 255
0.1429085760605370 0.2930598912247179 1.7563314600970978 255 255 255
0.1781273424302064 0.2965136057523417 1.7444096506559563 255 255 255
0.1265367780417855 0.2911274752004926 1.7952599561652496 255 255 255
0.1845252196549442 0.3022359568536138 1.7608802820225415 255 255 255
-24.6326103694859420 5.6177515532151068 -12.6467562273804024 255 255 255
-21.5694160581309156 6.5345194000309368 -13.7130696849564302 255 255 255
-19.8844202009573223 3.6457617640707345 -7.9213622673698216 255 255 255
-20.4049715494900781 4.5147124462461274 -7.8150735436640115 255 255 255
-19.8004933285104592 5.2720458367962779 -8.5851154535950602 255 255 255
-24.2192904637997373 4.7722108919657575 -7.6318109844322040 255 255 255
0.1450717289346860 -0.0523592274514082 1.3083577515430016 255 255 255
0.1365055667307880 0.0434263456066047 1.3481453031064747 255 255 255
0.1400160215188140 0.2298911086535164 1.4136717050465715 255 255 255
0.1102433135946952 0.1308938314023154 1.5912092606968988 255 255 255
-19.2067571095842915 3.5044614895977659 -8.4060000079525921 255 255 255
0.1304867101477862 -0.0298901179171409 1.3757195986318411 255 255 255
0.1883776430216800 0.2212936336945209 1.3718100504236832 255 255 255
0.2079869525954274 0.2145734620388581 1.5765265212029311 255 255 255
0.2208645294042021 0.3404126062044323 1.5661993458644188 255 255 255
-23.3167062128180973 6.3526658936366855 -10.0607723930321278 255 255 255
-0.4521688509718177 0.2889451291636523 1.7887034619746660 255 255 255
-20.6887895692859978 2.9393393477131875 -8.0751003394140159 255 255 255
-19.4166581600692574 2.5954743349188356 -7.1237620898970775 255 255 255
-21.2806193357522666 2.8105698748363848 -7.3009356475886964 255 255 255
-24.6189916093854926 4.4840467252357561 -7.2878487156121565 255 255 255
-0.0629063631082630 -0.2185133278566763 1.1559054158913293 255 255 255
-0.0644352707407806 -0.2126802020451717 1.1700096484366140 255 255 255
-0.0527388679712523 -0.1946911708710121 1.1449676429908657 255 255 255
-0.0554929524456291 -0.1833419867809121 1.1582251512658344 255 255 255
0.1951980956644519 -0.2288427946129381 1.2066869664934721 255 255 255
0.2039356825205133 -0.2236580105324003 1.2077716790258586 255 255 255
0.2102353234450871 -0.2185035200288980 1.2107966567042501 255 255 255
0.1973281110229803 -0.1948474854435456 1.1770926721877377 255 255 255
0.1790251358578601 -0.2967757042159959 1.4045341402444051 255 255 255
0.1726771378402354 -0.3035452013287393 1.4201507730392384 255 255 255
0.1687202900493282 -0.3087181606175416 1.4313433495877013 255 255 255
0.1581358553784157 -0.3100468894319549 1.4445302035061192 255 255 255
0.1748975333310625 -0.3010452314479206 1.4264647982421594 255 255 255
0.1788216172846934 -0.2961556939014066 1.4208832629444179 255 255 255
0.2037973973935689 -0.1954412935440522 1.2366373348861033 255 255 255
0.2079783941495135 -0.1719735821112513 1.2131786287639272 255 255 255
0.1721005550540163 -0.2919987937046817 1.4384184223487737 255 255 255
0.1788707211232048 -0.2822523163373321 1.4232897696962117 255 255 255
0.2086195867134234 -0.1785866563128285 1.2335030655178618 255 255 255
0.1720790593271282 -0.2804420990325264 1.4430959548661102 255 255 255
0.1254296352768960 -0.1946128783843461 1.3229651874537793 255 255 255
0.1280651946097461 -0.1869514868743352 1.3255515466445087 255 255 255
0.1753908885970392 -0.2633801293199135 1.4404815587876183 255 255 255
0.1284105896497521 -0.1802889639473309 1.3316873412624750 255 255 255
0.1314128072402921 -0.1748657597519008 1.3268328223873000 255 255 255
0.1205803256754135 -0.1527899103034342 1.3137196994180877 255 255 255
0.2004537512507551 -0.1322697877617537 1.2398029818764580 255 255 255
0.1260362777698855 -0.1693989948891505 1.3441500498759757 255 255 255
0.1928952959114779 -0.1192268157892072 1.2266439235010631 255 255 255
0.1314273699713493 -0.1254143463419326 1.2865213726185394 255 255 255
0.1287171913569106 -0.1604128992610220 1.3450925886825373 255 255 255
0.1141947135703030 -0.1744891869568141 1.3758208207273379 255 255 255
0.1866969634967955 -0.1178479386412275 1.2540400392521927 255 255 255
0.1756638673911106 -0.2333734939973610 1.4425463763964714 255 255 255
0.1447002399540785 -0.1162845438247351 1.2770953369666478 255 255 255
0.1344457914080566 -0.1294349429613879 1.3071146696217726 255 255 255
0.1913971036164774 -0.1146022701683757 1.2597108751186772 255 255 255
0.2061454549481849 -0.1096277808612974 1.2444713769899838 255 255 255
0.1261470322391822 -0.1428203713605502 1.3437532025898751 255 255 255
0.1408406020418892 -0.1220272327858135 1.3062683955536309 255 255 255
0.1373311155312167 -0.1232524441308855 1.3142835652796521 255 255 255
0.1912956850702064 -0.1054496885938792 1.2590915525694668 255 255 255
0.1454739592415236 -0.1158421447949539 1.3017146013191705 255 255 255
0.1967372172566458 -0.1024304136843455 1.2530229772006563 255 255 255
0.1670642616258231 -0.2076731529709705 1.4361671983920099 255 255 255
0.1476284815872587 -0.1032262134887206 1.2875736380353302 255 255 255
0.1425377774704174 -0.1164632424319323 1.3124234598371793 255 255 255
0.1796935471282800 -0.1008612761210000 1.2709617609209936 255 255 255
0.1343641214531917 -0.1455560160772324 1.3675488369909470 255 255 255
0.2050626466401597 -0.0944941377881403 1.2529757294097132 255 255 255
0.1753617561914613 -0.2003338742614666 1.4359390329594524 255 255 255
0.1750459263921665 -0.0940164988452870 1.2767459815303692 255 255 255
0.1331756924000773 -0.1420562299893338 1.3762341050141245 255 255 255
0.1893673109645697 -0.0870670664840715 1.2641817084043003 255 255 255
0.2006533644708501 -0.0857913047877550 1.2571284634303570 255 255 255
0.1673281827179979 -0.1875471428205712 1.4353356178996484 255 255 255
0.2138793552945886 -0.0720421501824870 1.2307640941459685 255 255 255
0.1337656130195943 -0.1399292606159599 1.3847849214467578 255 255 255
0.1655602648447767 -0.1953762521567301 1.4554616047858786 255 255 255
0.2049767692091851 -0.0752845943902816 1.2512699211846938 255 255 255
0.1663519566220121 -0.1865888730250781 1.4432785586943919 255 255 255
0.1712065050109555 -0.1986558233078334 1.4630977164213070 255 255 255
0.2020636951580283 -0.0723784773883276 1.2639328166340353 255 255 255
0.1529329369333808 -0.1739826052484127 1.4510555887201493 255 255 255
0.1636687130976381 -0.1758224350449125 1.4693855736003625 255 255 255
0.1991177115615096 -0.0539552194575147 1.2714897810500057 255 255 255
0.1295689897023252 -0.0924780425822843 1.3852903400110053 255 255 255
0.1403645274976327 -0.0522354171631682 1.3306283940970218 255 255 255
0.1386363472862115 -0.0943750512607894 1.3986208582650730 255 255 255
0.1457099977099876 -0.0397172183431553 1.3251226947807064 255 255 255
0.1864479575993137 -0.0304872458578976 1.2898816464460223 255 255 255
0.1930274365926437 -0.0280532022754935 1.2855462785522389 255 255 255
0.1641800786794023 -0.1473243069940519 1.4753637295847379 255 255 255
0.1440634393236509 -0.0335190500816637 1.3289936496401105 255 255 255
0.1337467142630425 -0.0442543578050622 1.3624911370942774 255 255 255
0.1259888101553507 -0.0672770557729092 1.4055329062779351 255 255 255
0.1821887349906195 -0.0173650187731851 1.3009760628057940 255 255 255
0.1297267214370196 -0.0498227597487304 1.3853683241442558 255 255 255
0.1937892353678297 -0.0093288639050142 1.2898382497735619 255 255 255
0.1609168281788614 -0.1300511787733483 1.4914859555787670 255 255 255
0.1949006368797976 -0.0006250513730994 1.2930298704543666 255 255 255
0.1344609272690182 -0.0234460222614344 1.3666707340264657 255 255 255
0.1264771119594734 -0.0380453189482781 1.3923282193329141 255 255 255
0.1827746286569412 -0.0016518539744424 1.3056076037543551 255 255 255
0.1242722773991540 -0.0500604281403835 1.4125584579927739 255 255 255
0.1708901351355259 -0.1213152902127442 1.4805570416644893 255 255 255
0.2010404109316719 0.0211196270226394 1.2768469829164688 255 255 255
0.1244715723860449 -0.0349636703191980 1.4068972331298077 255 255 255
0.1269726660879446 -0.0190568921487203 1.3924997399456098 255 255 255
0.1349641509564802 0.0104738514734868 1.3513538959891251 255 255 255
0.1308143510446815 0.0015216475831116 1.3705996992880136 255 255 255
0.1340944821962368 0.0100863834028010 1.3604140938700469 255 255 255
0.1297347598687016 -0.0206907761993786 1.4026025786931013 255 255 255
0.1734737288487420 0.0242575775949277 1.3208877053838506 255 255 255
0.1332920401793934 0.0182573700534695 1.3644417967617122 255 255 255
0.1295545695013268 0.0015421826323759 1.3910588090426013 255 255 255
0.1271361311891606 0.0226708320759985 1.3751949327133040 255 255 255
0.1336574758610178 -0.0133935625613112 1.4243995778893590 255 255 255
0.1379687125535393 0.0401685689750721 1.3558875385393132 255 255 255
0.1885802714388509 0.0477312519097493 1.3167735337507800 255 255 255
0.1315651510376520 0.0216149273927117 1.3916984485412258 255 255 255
0.1279781948657862 0.0175708483324681 1.4015033603192073 255 255 255
0.1061680207619213 0.0470496653477526 1.3878101529310967 255 255 255
0.0867843838075194 0.1547232211538516 1.2713318276112182 255 255 255
0.1332718484645537 -0.0150664275464881 1.4565113582737022 255 255 255
0.1294030053947693 0.0233712212336870 1.4156855558957819 255 255 255
0.1649174473486919 -0.0623276496161544 1.5102052264871033 255 255 255
0.1621239833099246 -0.0659702958277949 1.5157430305334627 255 255 255
0.1274964708845465 0.0378830746909735 1.4172041627518508 255 255 255
0.1206041740812318 0.0371645368689993 1.4332084900416606 255 255 255
0.1335338286904449 0.0811137168768392 1.3714140986106522 255 255 255
0.1318184298442275 0.0682768727832820 1.4013262106481783 255 255 255
0.1322373607007479 0.0581375002256256 1.4230727797881624 255 255 255
0.1367860827329972 0.1018871118352420 1.3695276223709512 255 255 255
0.1306319215676482 0.0722315136302926 1.4111890591840546 255 255 255
0.1636418919363135 -0.0360501444891307 1.5217688970361021 255 255 255
0.1575810476036122 0.1090323878101849 1.3571248496095887 255 255 255
0.1618829788182048 -0.0348352270743569 1.5300388933970932 255 255 255
0.1270985575467747 0.0811923091528203 1.4267212980538120 255 255 255
0.1652020361253426 -0.0191198142138187 1.5178372626494685 255 255 255
0.1881583161777999 0.1223334931483247 1.3340564590593862 255 255 255
0.1346094224541895 0.1222103531125203 1.3791287982420148 255 255 255
0.1269289733299510 0.1134619739387464 1.3927087925054689 255 255 255
0.1603713375512581 -0.0251606451068787 1.5349296763154177 255 255 255
0.1563113300785758 -0.0278756024153580 1.5409187913944029 255 255 255
0.1258666021535273 0.0683793797999965 1.4562001350392779 255 255 255
-0.5793719795598964 0.2930269399247505 1.7563918892617179 255 255 255
0.1885409474028394 0.1302798786730871 1.3405258460072640 255 255 255
0.1118125680380810 0.1186854548790198 1.4140265467142445 255 255 255
0.1273078499745762 0.0970275665309141 1.4412919455508526 255 255 255
0.1361559302196697 0.0557607790833535 1.4903135461645662 255 255 255
0.1840739700801862 0.1532359477452083 1.3511667270944718 255 255 255
0.1411457597946281 0.1456785012714845 1.3956433453747215 255 255 255
0.1386422240174228 0.1340701158300679 1.4178722561952055 255 255 255
0.1264109217566994 0.1201386253018089 1.4387542751386813 255 255 255
0.1208236670897989 0.1056903268130170 1.4635172181188110 255 255 255
0.1290013420252342 0.1295199627837984 1.4436668203792311 255 255 255
0.1820453100127223 0.1741629705822736 1.3667855174254955 255 255 255
0.1354571671614221 0.1818048013675327 1.3999568542782603 255 255 255
0.1871547995962888 0.1779523187963218 1.3616578229796987 255 255 255
0.1837063909592887 0.1841440195481225 1.3696041783770114 255 255 255
0.1301343312316994 0.1577097589701721 1.4468672115554244 255 255 255
0.1632231845583882 0.0462498989584769 1.5522689302077837 255 255 255
0.1627250484184341 0.0558022098728165 1.5601803504896319 255 255 255
0.1416555794841932 0.2966783958909017 1.3227066768516886 255 255 255
0.1217125378280435 0.1602105346591128 1.4865152843995650 255 255 255
0.1210732363727191 0.1993738155706880 1.4435976763795659 255 255 255
0.1826280498963267 0.2161291758521842 1.3769882395239463 255 255 255
0.1288123629024746 0.1796135990362554 1.4701400122542236 255 255 255
0.1628774421623689 0.0683915152460620 1.5594360898548738 255 255 255
0.1800601229544130 0.2422485171877626 1.3650080616801847 255 255 255
0.1099766376286905 0.2137713952127425 1.4557877204991396 255 255 255
0.1496773750521485 0.0970306358496899 1.5466359300386068 255 255 255
0.1646008056671082 0.0786322197651593 1.5576237292060828 255 255 255
0.1859903355307495 0.2449278744905792 1.3731391372822965 255 255 255
0.1350574584705539 0.2290310230531741 1.4368023017781513 255 255 255
0.1666139539043569 0.2501160598492091 1.4060709355888439 255 255 255
0.1877258949982346 0.2562997982066908 1.3829696476528279 255 255 255
0.1229484844122384 0.2010685655169658 1.4999279654552613 255 255 255
0.1791916809664344 0.3735863713984089 1.2794176892429423 255 255 255
0.1291321064210673 0.2062675110463151 1.5019646248887357 255 255 255
0.1603401792600240 0.2459347411345369 1.4450076280015343 255 255 255
0.1476929376953720 0.2231631904575399 1.4828466834443144 255 255 255
0.1291678125872155 0.2001304143921225 1.5220233475902218 255 255 255
0.1996245529418308 0.2817266294864695 1.3774123030283942 255 255 255
0.1641946380003483 0.1355468961696200 1.5626284359743594 255 255 255
0.1616977797445042 0.1198066768906705 1.5817681609033338 255 255 255
0.2081637708845366 0.3000034173599050 1.3640588631385739 255 255 255
0.1440150462071565 0.2107663788917075 1.5104018429236639 255 255 255
0.1636021479788265 0.1338328536968407 1.5721469888784780 255 255 255
0.1718866907581833 0.2252039540777976 1.4740952643864627 255 255 255
0.2132777580711429 0.2903134110833037 1.3769848232617283 255 255 255
0.1542041956108846 0.2105985729152818 1.5169148852563106 255 255 255
0.1419254125357196 0.2008992966393313 1.5374378206087500 255 255 255
0.1775828191108283 0.2238613216509554 1.4858222018309770 255 255 255
0.1676401973581420 0.2166453008566872 1.5117141421787355 255 255 255
0.2100590346609628 0.2819478960925744 1.4081448850932450 255 255 255
0.1593250517532529 0.2109395960080518 1.5238553404214543 255 255 255
0.1953494798453790 0.2388372624325129 1.4662669055559245 255 255 255
0.1789300056585136 0.2211399468970902 1.5004657644981512 255 255 255
0.1861387879905073 0.2262242033966047 1.4919912604519801 255 255 255
0.1583046049339179 0.1495481924407678 1.5943086917716955 255 255 255
0.2278049379311720 0.3918129429590059 1.2938578810631818 255 255 255
0.2167463890946220 0.2595363172464624 1.4356753236238582 255 255 255
0.1825857155421349 0.2266655623682280 1.5050942419915012 255 255 255
0.1636725406757693 0.1667137596799237 1.5812853327806484 255 255 255
0.1986870652907065 0.2276861895298460 1.4902797811071777 255 255 255
0.1737241782172790 0.2099777948239823 1.5331206649828393 255 255 255
0.2118022228207505 0.3388973496903509 1.3726702292240209 255 255 255
0.1705311790375401 0.2082617903591082 1.5424325234848404 255 255 255
0.1313280240641345 0.1718175145615519 1.6151060697602495 255 255 255
0.2394214505628055 0.3779283624491327 1.3194229593247586 255 255 255
0.2386293111977852 0.3932049118518859 1.3111637771358289 255 255 255
0.1529192760654079 0.1655873261151084 1.6089629570489197 255 255 255
0.1808708191698645 0.2120880555274453 1.5411837387210456 255 255 255
0.2378862969060500 0.3809552276563099 1.3304229228078770 255 255 255
0.2314518664131762 0.3562543530969361 1.3623421812365415 255 255 255
0.2431890749342485 0.3906477289800184 1.3222055132121804 255 255 255
0.1949666035993883 0.2460777789036473 1.5051031521080425 255 255 255
0.2335713811677647 0.3055134908315277 1.4127530053195434 255 255 255
0.2092972851606180 0.2432711981786071 1.4984402602956208 255 255 255
0.1157778181762162 0.1590601345625459 1.6674560114990657 255 255 255
0.2341922647869286 0.2822116065303486 1.4535347975127200 255 255 255
0.1615213442575774 0.1686695794750704 1.6291888422219265 255 255 255
0.1347087440095582 0.1588495211353973 1.6637820758219994 255 255 255
0.2385764719796027 0.3917882199069116 1.3617753397952652 255 255 255
0.1537110151957179 0.1684732245904745 1.6492086570883042 255 255 255
0.2156900951164334 0.2451693865017317 1.5298359287522854 255 255 255
0.2235063098272167 0.2510512777061482 1.5246746685252393 255 255 255
0.1838556730183838 0.1836989050584802 1.6252803807921008 255 255 255
0.2018109376083844 0.1985217283021090 1.6003722568864678 255 255 255
0.2255107130959062 0.2792215201086412 1.5067310409005801 255 255 255
0.1956146536231000 0.1934474174238399 1.6163861343036741 255 255 255
0.2281307061867517 0.3174622119302428 1.4795944591235619 255 255 255
0.2374250425396546 0.3912309093568951 1.4075220013705521 255 255 255
0.1977566507162438 0.2170085562572205 1.6061245782205840 255 255 255
0.1552817129327744 0.1778387762798730 1.6837043252533186 255 255 255
0.2393593228934003 0.3462355924467357 1.4615368472057759 255 255 255
0.2125963036348424 0.2288766837966759 1.5918191104184201 255 255 255
0.2094050872334413 0.2067594632490082 1.6125563927268689 255 255 255
0.2042925378084206 0.1975856032568965 1.6249869103075065 255 255 255
0.2306685870992768 0.3038212437061610 1.5084695642157524 255 255 255
0.2621971725661116 0.4750092961868524 1.3379449685099172 255 255 255
-0.0111905564161136 0.2704871267530627 1.7813272756873657 255 255 255
0.2340083139559743 0.3197248826901546 1.5057712787811992 255 255 255
0.2417789322077051 0.3602942297739576 1.4681714636826388 255 255 255
0.2315971562888089 0.3130387662384707 1.5196888451032902 255 255 255
0.2169554690404925 0.2496739132174215 1.5913438861290488 255 255 255
0.2531118964447913 0.4288182402032159 1.4047945433987858 255 255 255
0.2116570254336158 0.2336492668834660 1.6108586727989480 255 255 255
0.2340622390992948 0.3250201866994369 1.5136139090605663 255 255 255
0.2401883419774490 0.3652620725444851 1.4769087515481423 255 255 255
0.2538864701723181 0.4534613478353517 1.3908338360756456 255 255 255
-0.0338945670831262 0.3058273090400987 1.8038285056188395 255 255 255
0.2155100632954452 0.2640947906601832 1.5987381832268603 255 255 255
0.2134093369685460 0.2476436571691609 1.6213986894962698 255 255 255
-0.0462955317288661 0.2557103848614361 1.8692250707761602 255 255 255
0.2785553491650233 0.4569555884432386 1.3802273709389805 255 255 255
0.2444635133706588 0.3637810538242434 1.4965298370868167 255 255 255
0.2430661912261973 0.3587605926579140 1.5051604981160802 255 255 255
0.2193607185902378 0.3106005902992121 1.5753038466436875 255 255 255
0.0786219526735555 0.6009727753522228 1.5014684408397261 255 255 255
0.2131182536826990 0.3411611453703650 1.5623856613893050 255 255 255
0.2076338523720594 0.2755817095966648 1.6232023315241586 255 255 255
0.2238287851424511 0.3224316500027479 1.5722560138316537 255 255 255
0.2218267307979823 0.3053603427161966 1.5876112671040596 255 255 255
0.1989411097986432 0.2624855267075436 1.6470965210737665 255 255 255
0.2545562697451512 0.4245496384424951 1.4620650309028105 255 255 255
0.2573591817635466 0.3889007015047963 1.5059327137007312 255 255 255
0.2115966523139353 0.3010171397925548 1.6383311527426463 255 255 255
0.2083241198628434 0.2801086208750269 1.6774093393312151 255 255 255
0.2214941416231678 0.3105613169614497 1.6557292418087819 255 255 255
0.3562918385547316 0.1339333969309093 1.6339187211301178 255 255 255
0.2079712963609905 0.2882347132562631 1.6984196189068383 255 255 255
0.2143264667870783 0.3245737007554549 1.6666757246612200 255 255 255
0.2371354830054375 0.3497833189703229 1.6408885517694791 255 255 255
0.2156869146549831 0.2812516877899924 1.7155170794269301 255 255 255
0.2130889535568213 0.2996416699723819 1.7302301674916758 255 255 255
0.2212207296738784 0.3225462176019164 1.7183396507933864 255 255 255
-21.4049760827516700 2.8327799109160026 -7.3489640595378658 255 255 255
-26.8522374068314313 3.6310215050960548 -8.4740550353112187 255 255 255
-23.8635802256369196 4.1585900191860903 -9.3162654703320289 255 255 255
-26.7959441823379088 4.0796788734855758 -7.5584640624901551 255 255 255
-36.1447053420129762 6.6505953557961890 -9.5759728666742134 255 255 255
-30.7586549521784747 4.6289981674819112 -5.4309664027645344 255 255 255
-23.8360392802489791 7.7044287141847292 -10.1041370021591721 255 255 255
0.1241909154427049 -0.1811002236595218 1.3067048707428450 255 255 255
0.1259319814747545 -0.1933001974133263 1.3355333703461487 255 255 255
0.1745092443619735 -0.2634945814537897 1.4406000311934606 255 255 255
0.1510497586532079 -0.1365142559101705 1.2664713764715252 255 255 255
0.1562078462631992 -0.2402914058413857 1.4526388023565688 255 255 255
0.1158842186362336 -0.1632443392105930 1.3542739136759980 255 255 255
0.1263160387684690 -0.1456901661788441 1.3325657779748028 255 255 255
0.1470058674432956 -0.1146221729107290 1.2813548575233684 255 255 255
0.1713780403129302 -0.1046403078521700 1.2731435892191179 255 255 255
0.1296423056957880 -0.1435184551593201 1.3573728791711581 255 255 255
0.1412276212965614 -0.1068075199540608 1.3482537101814500 255 255 255
0.1340542980482855 -0.1112127759760975 1.3856294982499568 255 255 255
0.1530379288709680 -0.0430636052251308 1.3768762797837066 255 255 255
0.1683533784197357 -0.0028306858813146 1.3093291305310202 255 255 255
0.1281893360476495 -0.0261969828222306 1.3912997661899369 255 255 255
0.1331359259150229 0.0302630627614844 1.3460131801867101 255 255 255
0.1551366168766014 0.0526142230091105 1.3444002452530883 255 255 255
0.1321268197734126 0.0423808162354828 1.3771650648985800 255 255 255
0.1425537167065044 0.1568342555416252 1.3808398894322600 255 255 255
0.1877607955046444 0.2588936193966851 1.4170850816470533 255 255 255
0.2222078447075326 0.3505590205400788 1.3166338566909328 255 255 255
0.1455301958250096 0.2071049081235014 1.5246857790278758 255 255 255
0.2287672663256570 0.3840462541250860 1.3138975176392091 255 255 255
0.1125662552059685 0.1545041723941050 1.6441584904910356 255 255 255
0.2475191824753176 0.3942319533471661 1.3014758802024973 255 255 255
0.2281525434520450 0.3254858824037440 1.4269430334345827 255 255 255
0.2220146765272797 0.2520855844785137 1.5200431333497348 255 255 255
0.2463465857802565 0.4404379909981216 1.3298256696281407 255 255 255
0.2484799728052140 0.3884010500809237 1.3757010621134722 255 255 255
0.2195394377611877 0.2513721530316928 1.5403224865442784 255 255 255
0.2414312240352228 0.3898443483920944 1.4357562484372699 255 255 255
-0.0715304128047458 0.2582453298494576 1.8654101906412071 255 255 255
0.2368197656336576 0.3610914079129210 1.4948961904578222 255 255 255
-0.0181434784915478 0.2781196964992487 1.8340882418484954 255 255 255
0.2777434689725669 0.4360278455602176 1.4308798653589625 255 255 255
0.0203523860682425 0.2745606621372569 1.8251878780375042 255 255 255
0.0436924975352753 0.2781924079884322 1.8058057757130170 255 255 255
-0.0147217449852100 0.2781572747036686 1.8844199791816796 255 255 255
0.2307636032464087 0.3685972202127515 1.5797500088996645 255 255 255
0.2267654449194262 0.3640394345468950 1.5982329819152792 255 255 255
0.2212996317832656 0.3255382678828368 1.6610256493187858 255 255 255
0.2402797100432549 0.3613203747667394 1.6198471801407437 255 255 255
0.1164745760499658 0.2858230303415422 1.8129143498718470 255 255 255
0.2705862540549873 0.3700273322648946 1.5963846682870644 255 255 255
0.1531452042152162 0.3026564286230708 1.7692688776790637 255 255 255
0.1084055092783011 0.2662234776742476 1.8425705303399171 255 255 255
0.1579141365239572 -0.1960057676519283 1.2318869973205189 255 255 255
0.1764029176082999 -0.2963170510635399 1.4326999609523750 255 255 255
0.1287108695137315 -0.1712406065621683 1.2496976705803140 255 255 255
0.1278863103631685 -0.1414572802541302 1.3179612274712831 255 255 255
0.1625879903236478 -0.1189695654029941 1.2705861180712239 255 255 255
0.1405018917026192 -0.1268808987208870 1.2990433745425380 255 255 255
0.1277699314084158 -0.1452754449647620 1.3430996992644717 255 255 255
0.1432904884896202 -0.1179030158908524 1.3134592028270629 255 255 255
0.1213389544883033 -0.1436574595868108 1.3905755686164281 255 255 255
0.1332276641649253 -0.1409695349315699 1.3850341305824463 255 255 255
0.1508567315245248 -0.0785207867527525 1.2977384106574075 255 255 255
0.1819703660092713 -0.0642192354933182 1.2776764427546985 255 255 255
0.1788663714395812 -0.0576049737666684 1.2875428778048481 255 255 255
0.1573937672377938 -0.1573629915746068 1.4485345823055720 255 255 255
0.1362568504467051 -0.0619429346765786 1.3283114509860892 255 255 255
0.1885670202016986 -0.0498598662318931 1.2886074729783725 255 255 255
0.1237508759746702 -0.0738928117978107 1.3775201340182144 255 255 255
0.1278626495631347 -0.0738872757818222 1.3920459722431333 255 255 255
0.1320197463139739 -0.0631788016399089 1.3851894627413555 255 255 255
0.1100798405440526 0.0187502781256246 1.3623428260446109 255 255 255
0.1341180834991976 0.0157521894513914 1.3746742880640110 255 255 255
0.1708132895946418 0.0413671589197383 1.3246868689175533 255 255 255
0.1347244169353414 0.0523184894395907 1.3824183756593831 255 255 255
0.1331982101692877 0.0683604695297420 1.3700591186254538 255 255 255
0.1318907175396770 0.0520741159690595 1.3936304606173779 255 255 255
0.0502822073399604 0.1711142524222762 1.3825799454568708 255 255 255
0.1348928564200574 0.1099263503134369 1.4075490006145503 255 255 255
0.0953187677794084 0.1137713645094088 1.4393755474175869 255 255 255
0.1312663446588271 0.1329604552247890 1.4066037059015539 255 255 255
0.1246407039894225 0.1022785878475113 1.4642088099784463 255 255 255
0.1322138068800053 0.1614336624560101 1.4197121264959502 255 255 255
0.1833167983966796 0.2202170224817825 1.3774811017260491 255 255 255
0.1086068040051066 0.1094144295610786 1.5929324014159885 255 255 255
0.1222103636922865 0.1992630143531093 1.4907214369859068 255 255 255
0.1422583921510471 0.2223970016946551 1.4747217432174868 255 255 255
0.1325127099886867 0.1646067641403058 1.5701475888156484 255 255 255
0.1800591127699632 0.2308255268859905 1.4652103996298527 255 255 255
0.1568419355021156 0.1677891049051392 1.5893760444945133 255 255 255
0.1699174780259269 0.1777099918055353 1.6486527823276236 255 255 255
0.2047529222994390 0.2531175528417507 1.5694152373016086 255 255 255
0.2261244427649285 0.5795003064827928 1.2921299698438453 255 255 255
0.2162073477493652 0.2676987422054721 1.5873849146127883 255 255 255
0.2471813117356528 0.3657107362743625 1.4835617117250117 255 255 255
0.2974978777706460 0.4561913256732829 1.3623400278997877 255 255 255
0.2397969994593260 0.3538982817680659 1.5137083097855388 255 255 255
0.2258452113149143 0.3201424241736154 1.5713108311412436 255 255 255
0.2171569264122538 0.3011444426974558 1.6232819932454803 255 255 255
0.2620096066910719 0.3513070640230586 1.5569902751993590 255 255 255
0.2347482442059017 0.3732881011727087 1.5912177484717414 255 255 255
0.2107893067638665 0.3219521299674323 1.6584056141085575 255 255 255
-24.6393250322244448 3.6850864159575116 -6.8023930427683208 255 255 255
-36.4015828529907424 6.0296927885000091 -9.7991747125066127 255 255 255
-35.7972104720388700 6.5254966917307042 -9.4838200812401574 255 255 255
0.1261667180914045 -0.1465320910420111 1.3335848054597430 255 255 255
0.1294127714217345 -0.1145774536747906 1.4078523119781872 255 255 255
0.1353598696975527 0.0495893398964425 1.3416794044303240 255 255 255
0.1283132337341285 0.0392583933785394 1.4050898335361348 255 255 255
0.1297072372342944 0.0338577428901267 1.4253493297961719 255 255 255
0.1314846118911852 0.0743328641260177 1.3807926906022301 255 255 255
0.1358722933557795 0.2335532191118602 1.4141821479756551 255 255 255
0.1810296413618089 0.2512592214213050 1.4378891477102480 255 255 255
0.1744633905732655 0.2159483234515622 1.5235327945284174 255 255 255
0.2107319057727396 0.2547454943069908 1.4929807673464952 255 255 255
0.1810333255357520 0.1903218029901841 1.5909785436569637 255 255 255
0.2125690587025308 0.3091228416406202 1.4683456547976723 255 255 255
0.2196626137622116 0.2505331797391610 1.5411990617956302 255 255 255
0.2339904395647377 0.3414550859036868 1.4716165721229626 255 255 255
0.2526874527716000 0.4325806184045282 1.3922851270331553 255 255 255
0.1873290540992116 0.1829843935261891 1.6748946571395402 255 255 255
0.2619015077611103 0.4675629129042748 1.3592595020703000 255 255 255
0.2598129095462038 0.4488774443596359 1.4048231531706039 255 255 255
-0.0209128428222843 0.2813976137866398 1.8325049089525023 255 255 255
0.0238101454248346 0.2912422178741613 1.7892140089074426 255 255 255
0.3047134974666739 0.4618299908490998 1.3761711226510405 255 255 255
0.2650423166536366 0.4284675937292615 1.4442017598363175 255 255 255
0.2028967804700098 0.3292344536776876 1.5876509361906272 255 255 255
0.2760221075013631 0.4334715348491004 1.4310339476418239 255 255 255
0.0216760470419053 0.2751792760498469 1.8220910803096586 255 255 255
0.2192075021632527 0.3124643831994966 1.5995205378300013 255 255 255
0.2077813998312144 0.2597242738462101 1.6592463514818767 255 255 255
0.2293918025413696 0.3712158512163743 1.5541702798550281 255 255 255
0.2502624169647402 0.4049171341302651 1.5111596174763597 255 255 255
0.2131862604824029 0.2677808891427395 1.6958522520523209 255 255 255
0.2233541340898508 0.3342560009922219 1.6354364050334926 255 255 255
0.1461072766217216 -0.1197010853543411 1.2870017170015815 255 255 255
0.0969873270258100 -0.1043224883457598 1.4979406963080784 255 255 255
0.1400808160992623 0.0139429818153511 1.3266915040509284 255 255 255
0.1384250433154532 0.0087907253982732 1.3821260305127845 255 255 255
0.1287393291034632 0.0689996234490201 1.3791919303101652 255 255 255
0.1357567544881850 0.0293952106413501 1.4331453335361384 255 255 255
0.1434901926403769 0.0895740518811942 1.3598411593818642 255 255 255
0.1299307974716222 0.1567875473159504 1.4752703625809400 255 255 255
0.2393771721582572 0.4402552104765824 1.3247062664952256 255 255 255
0.1556791272070131 0.3397064878580619 1.4993639534178598 255 255 255
0.0687360611757054 0.2013183855331345 1.7183547385100817 255 255 255
0.2459386536090069 0.3981643577012505 1.3982306633778210 255 255 255
0.2155359433621808 0.2452074897530419 1.5842575276695139 255 255 255
0.1664459022847085 0.2798437659265425 1.3387466241191350 255 255 255
0.0850868780459705 0.1968726128211260 1.5601338187200706 255 255 255
0.2000430346953499 0.2423334138200566 1.4671859311788618 255 255 255
0.2232231997664129 0.3513288487867108 1.3783132957271762 255 255 255
0.2395385692245153 0.3597314435251442 1.4999847009861207 255 255 255
0.1308708290481972 -0.0301512892378173 1.3760086151775186 255 255 255
0.1607985672304770 0.0772938537092460 1.3685427093453757 255 255 255
0.1259766167751979 0.1049571042741552 1.4297032431075751 255 255 255
0.2226428660132918 0.3474771587677516 1.3545058068368727 255 255 255
0.1450773219746995 0.2256628374624577 1.4033286725602230 255 255 255
-13.7248797297959744 0.6303067927774928 0.6249152288522849 255 255 255
-16.4580664508378618 1.3523359871719451 -0.2683332375187018 255 255 255
-17.8279614110484950 2.0761241706196434 0.1784649377750175 255 255 255
0.1630709180665051 -0.2941319062852715 1.3851034418345665 255 255 255
0.2210650215864928 -0.1918988426102531 1.1814240348358016 255 255 255
0.1848621093208163 -0.2932585332571157 1.4102089470814021 255 255 255
0.2209713729961693 -0.1926213825281993 1.1962597190255355 255 255 255
0.2140183133399911 -0.1800157928729988 1.1855058599631012 255 255 255
0.2168811111949242 -0.1717939037451102 1.1982900677971153 255 255 255
0.1136742208443251 -0.1721900540785454 1.3469003687632386 255 255 255
0.1223547540223350 -0.1366353986798053 1.2827069651819167 255 255 255
0.1228551398518142 -0.1418280716276507 1.3085908007624327 255 255 255
0.1364985753386474 -0.1270871313158476 1.2767874927278440 255 255 255
0.1282656958136816 -0.1356567423888766 1.3074011724966248 255 255 255
0.1780222880636056 -0.2160481362853099 1.4446676429347696 255 255 255
0.2013780420023902 -0.0904647828722327 1.2048170981913713 255 255 255
0.2049823860141809 -0.1101520120710234 1.2374933066667231 255 255 255
0.1922495389969631 -0.1113549570999940 1.2525455523816460 255 255 255
0.1484185419609576 -0.1087960921643984 1.2811203236364930 255 255 255
0.1420079464630302 -0.1276056141130928 1.3271543707606679 255 255 255
0.1361824965673905 -0.1384941280249797 1.3551857087545511 255 255 255
0.1421817145237382 -0.1202651414543561 1.3228578336479160 255 255 255
0.1461248028931838 -0.1054812448888180 1.3037599765335417 255 255 255
0.1421024534289608 -0.1233102066177251 1.3437051219248424 255 255 255
0.1445903028897566 -0.1095788621366793 1.3227256141875483 255 255 255
0.2053865396487812 -0.0839577186285595 1.2379261069524661 255 255 255
0.1831419319919649 -0.1901330829337697 1.4556517621573115 255 255 255
0.2064165487048970 -0.0661523262645572 1.2468482978270128 255 255 255
0.2047006445339105 -0.0580661524374384 1.2525901668394304 255 255 255
0.2026539103405989 -0.0581983931394753 1.2601197432878930 255 255 255
0.1352161657752228 -0.0624871095151825 1.3298236463675697 255 255 255
0.1369398277718166 -0.0575212152793002 1.3428483908408475 255 255 255
0.1358672848878692 -0.0585900590049683 1.3500721982238695 255 255 255
0.1407798491802692 -0.1024148905157084 1.4209152411744579 255 255 255
0.1628234656147789 -0.1331735551555576 1.4506144178510956 255 255 255
0.1371644748435868 -0.0432142515470705 1.3356551396518068 255 255 255
0.1325984335903423 -0.0839366885026555 1.4069229455838836 255 255 255
0.1928423508991901 -0.0243921999310473 1.2680269527123829 255 255 255
0.1182062698145886 -0.0594957342434387 1.3955279738688990 255 255 255
0.1324833528856623 -0.0426769227953098 1.3543589895064381 255 255 255
0.1297930139299873 -0.0594788473945418 1.3847216005842982 255 255 255
0.1695343425560835 -0.1276621984332188 1.4633146864883848 255 255 255
0.1334868892640949 -0.0489707644403213 1.3717218381501377 255 255 255
0.1254203762059926 -0.0566304762512006 1.4038276142697184 255 255 255
0.1687562406408818 -0.1160052754389960 1.4706448111993058 255 255 255
0.1673590426603229 -0.1091505078601800 1.4770631230540658 255 255 255
0.2014556348160736 -0.0009057960799548 1.2778000883816605 255 255 255
0.1966015174566356 0.0067445259623370 1.2890455496270870 255 255 255
0.1308254410063025 -0.0056717956389931 1.3854678110659662 255 255 255
0.1282892578400447 -0.0081355716973572 1.3949416747067358 255 255 255
0.1300683690315049 0.0014033250565233 1.3806213572859904 255 255 255
0.1252731132420182 -0.0146788671077757 1.4190619355712526 255 255 255
0.1312914856404248 0.0082800186436860 1.3843683578109716 255 255 255
0.1270130859272898 -0.0085267447862995 1.4322572730473018 255 255 255
0.1673384710927955 -0.0685003524708714 1.4843888039131634 255 255 255
0.1276500338470175 0.0144573463794209 1.4189331752725591 255 255 255
0.1299155762800702 0.0410142442321238 1.3865715105582388 255 255 255
0.1567214531438227 -0.0397318654869477 1.4918350122530899 255 255 255
0.1279899671154547 0.0288855748876319 1.4231937883286230 255 255 255
0.1313122701688052 0.0540082634516949 1.3823594391408973 255 255 255
0.1313123272287659 0.0716683562299947 1.3920471369696292 255 255 255
0.1980241973006060 0.0912038591343147 1.2998717030693265 255 255 255
0.1336225548843592 0.0891331689237362 1.3760028409611353 255 255 255
0.1337374717817559 0.0863108292148072 1.3831624493454975 255 255 255
0.1283988041693521 0.0790394112498260 1.4173393174378957 255 255 255
0.1253801897592641 0.0758626659881352 1.4427983660703978 255 255 255
0.1238148017650129 0.0642515390246665 1.4632683186758622 255 255 255
0.1981563703579220 0.1210507380976727 1.3004470556632226 255 255 255
0.1262565588325380 0.0843115317206380 1.4430142544171161 255 255 255
0.1271924615739629 0.0993158683203319 1.4263195471760926 255 255 255
0.1309284690679691 0.1181445915462180 1.3986495389488813 255 255 255
0.1316640752611698 0.1340647753373888 1.4048441203634674 255 255 255
0.1259559710293935 0.1107147861469797 1.4474759024399968 255 255 255
0.1329753026117443 0.0881812479598657 1.4825164369247403 255 255 255
0.1250175130291699 0.1123400428558644 1.4670206771958967 255 255 255
0.1924918060425599 0.1483992379088759 1.3443136923877013 255 255 255
0.1309629466644781 0.1369772951423169 1.4281745792304077 255 255 255
0.1183851521021235 0.1612526134431767 1.4179251130918746 255 255 255
0.1268767052697684 0.1420550059088872 1.4498180791902977 255 255 255
0.1266814744491950 0.1559397337922366 1.4693719343350211 255 255 255
0.1279023140475320 0.1683175884761216 1.4551745005659509 255 255 255
0.1247117856514343 0.1727933849445449 1.4900931922546767 255 255 255
0.1249942235295375 0.1864988560457578 1.4844391868356968 255 255 255
0.1298264716653914 0.2205308638036079 1.4404306529272577 255 255 255
0.1659824026674068 0.2303193094571034 1.3946083630209936 255 255 255
0.1900853709592173 0.2739906053781455 1.3464910009049418 255 255 255
0.1627457796004263 0.2467198293295208 1.4155198483794555 255 255 255
0.1606928309821944 0.1418310157508757 1.5513947647093023 255 255 255
0.1560034436851169 0.1588074102969576 1.5458722602764998 255 255 255
0.1938117120665689 0.2650205991920317 1.3667266847022932 255 255 255
0.1583780032540820 0.2236264636537446 1.4678204013897780 255 255 255
0.1702755522226251 0.2517571346614813 1.4289269761081516 255 255 255
0.1943420471262287 0.2644444330376022 1.3981318881204332 255 255 255
0.1594215447536249 0.2201125809599860 1.4969143811088148 255 255 255
0.1799770267300202 0.3626312124058456 1.2967999678243984 255 255 255
0.1494904313635111 0.2022564372496101 1.5345853638571820 255 255 255
0.2024025914642892 0.2789604771257472 1.3877003490293343 255 255 255
0.1615847497147460 0.1972678980336257 1.5496491502480001 255 255 255
0.2153880788881911 0.3046150009832436 1.3481673262768274 255 255 255
0.1887537365062365 0.2325332802803046 1.4737269004734861 255 255 255
0.1908177783614058 0.2462663799205027 1.4575105753875195 255 255 255
0.1726577095796001 0.2124507284055664 1.5218949893899452 255 255 255
0.1151091110839806 0.1467396349800854 1.6756958592386024 255 255 255
0.2005239066933277 0.2488399210797695 1.4530969048035587 255 255 255
0.1940920966153935 0.2321444964977694 1.4795745469807562 255 255 255
0.2076854477634389 0.2603844565248733 1.4321573066621847 255 255 255
0.1658764243830503 0.1893176184894261 1.5747575654324963 255 255 255
0.1814143598120014 0.2312378065373676 1.5106051166396441 255 255 255
0.2101748646740202 0.2901003218405047 1.4174649814912041 255 255 255
0.1941495593895552 0.2421330538412336 1.4946444295853003 255 255 255
0.2109075023168255 0.2561370501019679 1.4610945169321485 255 255 255
0.2003615249519202 0.2260670253469499 1.5209904542361381 255 255 255
0.2172948977454596 0.2609298493667085 1.4610276160265967 255 255 255
0.2145919020444886 0.2507754969194645 1.4869212776948539 255 255 255
0.1896585673937723 0.1862129210173478 1.6067129540749920 255 255 255
