ply
format ascii 1.0
element vertex 687
property double x
property double y
property double z
property uchar red
property uchar green
property uchar blue
end_header
0.1442484307309701 0.1192985540460743 1.4595289718905140 255 255 255
0.1515899091535759 0.0936991778267017 1.4993535638003406 255 255 255
0.1427912469971085 0.1212052340964107 1.4818011024853597 255 255 255
0.2211176258580667 0.1615982039256309 1.3428869853646901 255 255 255
0.1499523244292483 0.1492779559088567 1.4378450159257616 255 255 255
0.1498680595267156 0.1655740965663852 1.4254457024678076 255 255 255
0.1457711599082950 0.1544309578338818 1.4623385873892343 255 255 255
0.1449034825862346 0.1704584496736863 1.4846057411851774 255 255 255
0.1464524798280569 0.1845051995333978 1.4685657531722047 255 255 255
0.1425743436535155 0.1893612880290319 1.5081025747510972 255 255 255
0.1430109305398602 0.2048288604440113 1.5017345272856033 255 255 255
0.1489171672727360 0.2434002893557440 1.4520728903798998 255 255 255
0.1915094840485553 0.2527514226026664 1.4002614976123609 255 255 255
0.2185431356863240 0.3026588512130243 1.3463450824554186 255 255 255
0.1864685814834671 0.2728499702132275 1.4241169710966997 255 255 255
0.1837602057287809 0.1531584171235950 1.5776183333447822 255 255 255
0.1774483352132230 0.1731986954424111 1.5714257469579898 255 255 255
0.2218212568651416 0.2937589079360307 1.3691031825469568 255 255 255
0.1821437460180080 0.2455516799922246 1.4831357824023854 255 255 255
0.1949433672421315 0.2782209948816329 1.4392314582794963 255 255 255
0.2232232194722152 0.2916289484106413 1.4046399027737366 255 255 255
0.1821108333992415 0.2424291401364713 1.5160006694772894 255 255 255
0.2081750261375727 0.4030870170630165 1.2909774531903684 255 255 255
0.1704116057644654 0.2221700207129479 1.5585993169112253 255 255 255
0.2316041497914821 0.3090719342642039 1.3929285937897165 255 255 255
0.1841836038517885 0.2159636243251127 1.5755950971561048 255 255 255
0.2476476464563319 0.3372846031117194 1.3484917576309077 255 255 255
0.2157599028994066 0.2562492132443325 1.4899854750992374 255 255 255
0.2178386380400834 0.2720947323139102 1.4716263119253741 255 255 255
0.1967760982289112 0.2337855731211546 1.5443407894947181 255 255 255
0.1299395336618221 0.1591122569885624 1.7177635187782596 255 255 255
0.2295010173394472 0.2744474194405977 1.4667480785945941 255 255 255
0.2217924248180290 0.2557372769176341 1.4966204233782423 255 255 255
0.2375446164223800 0.2877315503198095 1.4431193064943408 255 255 255
0.1888079780239459 0.2065887461618181 1.6038697300352849 255 255 255
0.2067996745635742 0.2549688604215114 1.5316290744504266 255 255 255
0.2408774267421893 0.3207370080505292 1.4266353374187413 255 255 255
0.2219129573864851 0.2667124643700831 1.5136971344191703 255 255 255
0.2416810806551682 0.2818905367283611 1.4757340099625282 255 255 255
0.2285051746064790 0.2486718819631624 1.5435021760449894 255 255 255
0.2491084495739413 0.2871188891290088 1.4756720193602457 255 255 255
0.2453920275354908 0.2760001059377727 1.5049718309292099 255 255 255
0.2153234873210917 0.2037241926712455 1.6405107917201680 255 255 255
0.2683344088718582 0.3119694629098342 1.4530487006115977 255 255 255
-0.0725107907034483 0.2917663442194502 1.9152675694421413 255 255 255
0.2678959800911458 0.3280727626975827 1.4413982260787017 255 255 255
0.2729697805519579 0.2975589631108378 1.4813516645366804 255 255 255
0.2700808157977574 0.3977319822242093 1.3771210481916674 255 255 255
0.2676129722941260 0.3188959900245758 1.5034265894427499 255 255 255
0.2131578273222066 0.2304391696508819 1.6741005584298798 255 255 255
0.2690350940901315 0.4198666144941333 1.4072997414926602 255 255 255
0.2816862538800497 0.4858732299209762 1.3445915045435586 255 255 255
0.3048562385756440 0.4952623871582684 1.3061744294539810 255 255 255
0.2597645135849049 0.3358230522047840 1.5473310499668127 255 255 255
0.2757667879176851 0.4247577857564574 1.4331838917369353 255 255 255
0.2873799016161422 0.4667898317082312 1.3828624865533290 255 255 255
0.0352723314838352 0.3322000597899053 1.8728334968487022 255 255 255
0.2587215448817677 0.3576369421058277 1.5540289792513682 255 255 255
0.2977908611118376 0.4994725198010114 1.3806438001158314 255 255 255
0.2871512568061350 0.4275385379313808 1.4855954876624486 255 255 255
0.3024761871724208 0.5084919971578764 1.3842879531648948 255 255 255
0.2922385004665725 0.4461726025461809 1.4669510292786752 255 255 255
0.2897112280728140 0.4384633871102035 1.4970949491985559 255 255 255
0.2566877608033242 0.3790215300015541 1.6083904118684391 255 255 255
0.2606614871845310 0.3842303517904163 1.6009737331000109 255 255 255
0.2390541717188277 0.3502392579726391 1.6863755598702301 255 255 255
0.3283207966058359 0.4315645136736218 1.5702837055562673 255 255 255
0.2737201726155229 0.3782345618228090 1.7024774413058832 255 255 255
0.2425629547004458 0.3433335823735236 1.8181450291186849 255 255 255
-9.7708708770613359 0.7295151588650344 0.4594826720031390 255 255 255
-12.4772664156382334 1.4737618673099384 0.3266019517887507 255 255 255
0.2425057636076171 -0.2332324562761502 1.1971748814625269 255 255 255
0.1208351508240713 -0.2059433681365011 1.3609220589145883 255 255 255
0.1871813330722189 -0.2267294564131359 1.4303290873921921 255 255 255
0.1512996133434461 -0.0835529040097837 1.3565057870845416 255 255 255
0.1464852239274627 -0.0151932461000940 1.3995722116103284 255 255 255
0.1793033239911477 0.1202016392600638 1.3569846356787911 255 255 255
0.1399224064567014 0.1545347708988219 1.4954850383908087 255 255 255
-0.3586779023065603 0.2805394509887082 1.9373501903918278 255 255 255
0.1407591233426120 0.1915934648447838 1.4957305706035833 255 255 255
0.1344120545284867 0.1809229095448948 1.5316899751661857 255 255 255
0.2011905719035025 0.4378348954843533 1.2462951563141926 255 255 255
0.2044908760526816 0.2469065399028859 1.5315158997616682 255 255 255
0.1964718912957394 0.2281407203045190 1.5659323400116538 255 255 255
0.2722246904554348 0.3837809893613189 1.3404703277461485 255 255 255
0.2624022150359529 0.2957943977053833 1.4700093790703745 255 255 255
0.2394211421850407 0.2345681469115098 1.6075362554890309 255 255 255
0.2623920201279073 0.3112586358949114 1.5103235735579223 255 255 255
0.2769966593112076 0.3472299028860383 1.4562103122622350 255 255 255
0.2532751296665460 0.4072540650798324 1.4345696039126030 255 255 255
0.2451879725562283 0.3221411890152209 1.6128786944592199 255 255 255
0.3476935157897870 0.5079623558547831 1.3811055599479454 255 255 255
0.2400213168863040 0.3312667407321454 1.7476976242830458 255 255 255
0.2633286306717837 0.4071494171017992 1.6461260924071137 255 255 255
0.2548429596473294 0.3886501218123366 1.6909977601332762 255 255 255
0.2577019551151039 0.3802202301856754 1.7137620486666219 255 255 255
0.2485602563735116 -0.2250361465937647 1.1850562447309179 255 255 255
0.2315557032483583 -0.2174218722962809 1.2115159662226114 255 255 255
0.2434366638427827 -0.2077886327965535 1.1945065497785008 255 255 255
0.1257894313644168 -0.1837318097492153 1.3170373240052542 255 255 255
0.1284662781468785 -0.2046302420521749 1.3764014304248904 255 255 255
0.1382646669882706 -0.1932614217300886 1.3807464122636757 255 255 255
0.1485278761862708 -0.1627210571020583 1.3241591432832065 255 255 255
0.1844536814726861 -0.2294710597990306 1.4437969330389755 255 255 255
0.1508071442226140 -0.1685146439963592 1.3742867153324689 255 255 255
0.1642365301889162 -0.1267622682912756 1.3934831366916129 255 255 255
0.1414770169497336 -0.0970688821373010 1.4106738322290873 255 255 255
0.1551901889966457 -0.0328688138886814 1.3645975435429387 255 255 255
0.1431332366170423 -0.0490688013598067 1.4232400681882906 255 255 255
0.1505096211418535 0.0258057917065410 1.3886187828937433 255 255 255
0.2164370613178628 0.0968645628794336 1.3355417663322686 255 255 255
0.1576596093109040 0.0426666831461078 1.4868943841706557 255 255 255
0.1423421609898614 0.1254253430335398 1.4713003743813688 255 255 255
0.1438489485032759 0.1560894290953000 1.4841031659180879 255 255 255
0.1529113809016322 0.1222941815951516 1.5381715873931083 255 255 255
0.1446808154602189 0.1987661562621886 1.4724729757382242 255 255 255
0.1409231042711178 0.1984598987891892 1.5242681999236984 255 255 255
0.1481656538058057 0.2307369557792632 1.4768391146261719 255 255 255
0.0392660415146753 0.1714939238343862 1.7188776493406952 255 255 255
0.1684952785311110 0.2559530129639208 1.4572442728705470 255 255 255
0.1485610832533411 0.2194659485795214 1.5418266864929611 255 255 255
0.1853905144411249 0.4085220422975031 1.2758459112038754 255 255 255
0.1999698440551625 0.2811860976800048 1.4198083065325531 255 255 255
0.1665534362644083 0.1613767025802386 1.6165305065457374 255 255 255
0.1654414389381445 0.2064589128447645 1.5716245029194977 255 255 255
0.2226278049087791 0.2931145512912827 1.4030417993876310 255 255 255
0.1963627379612061 0.2484872413323258 1.5057285483935650 255 255 255
0.2113488524078478 0.2511944172195355 1.5096821642351688 255 255 255
0.1893189795123602 0.1994710234669108 1.6112494318614079 255 255 255
0.1872853906286540 0.1838827392866824 1.6435714486985626 255 255 255
0.2349239345375054 0.2277254264416922 1.5442842856546000 255 255 255
0.2630356930553453 0.3179527235747281 1.4514717222022511 255 255 255
0.2619650844333856 0.3207979637677745 1.5210637940923522 255 255 255
0.2457650539204709 0.3044013071832659 1.5848481435462007 255 255 255
0.2437821008759855 0.2263062953902053 1.6807412805144610 255 255 255
0.2838904044291599 0.5252996758743109 1.3380310840067839 255 255 255
0.2692491095523371 0.3799737409108246 1.5285294920291694 255 255 255
0.2505677164634960 0.3435052539893988 1.6317639722078920 255 255 255
0.3168807951950516 0.5065671552879805 1.3848269748429476 255 255 255
0.2901396009995117 0.4367037617166807 1.4957306943913573 255 255 255
0.2561132249047715 0.3585216037142082 1.6305022739461836 255 255 255
0.2818508268265402 0.4350095606685856 1.5411422717499763 255 255 255
0.2787195397258319 0.4377644870353617 1.5595657541298700 255 255 255
0.2471252340271139 0.3510471320504418 1.7107236595137807 255 255 255
0.2633839269958721 0.3915942943284817 1.6732586388173170 255 255 255
-13.2717051225828531 1.5804661577798773 0.2761064782211800 255 255 255
0.1306417900286633 -0.1929791460232715 1.3514709186481775 255 255 255
0.1283417436665409 -0.2051934005247628 1.3773763561379595 255 255 255
0.1360948388722353 -0.1925351581766083 1.3715089780002203 255 255 255
0.1511047640844068 -0.1635999551726285 1.3082127257061171 255 255 255
0.1472417735903914 -0.1678977477206706 1.3614639591544986 255 255 255
0.1553579618241089 -0.1513519368038700 1.3680082838797147 255 255 255
0.1851590437314556 -0.0877926569616279 1.2664211271171899 255 255 255
0.1594143607528187 -0.0720556802268153 1.3353485888371226 255 255 255
0.1495611814045608 -0.0417272912301152 1.3764105661148023 255 255 255
0.1471312174822361 -0.0383521023117852 1.3965004529662266 255 255 255
0.1613524527373136 0.0064693625203037 1.3216008102285348 255 255 255
0.1590226652382958 0.0746795362285048 1.5059903152997898 255 255 255
0.1420778848407210 0.1625121607836145 1.5029360107463912 255 255 255
0.2344441400945430 0.2997946614046223 1.4154795019665798 255 255 255
0.2311039714279340 0.2682237937042311 1.4843774673429486 255 255 255
0.0880564509452652 0.2072272290176212 1.7764149122744521 255 255 255
0.2883224534881555 0.4394203737225622 1.3034639592785582 255 255 255
0.2652667489306830 0.3565762485234849 1.4388325976719705 255 255 255
0.2749004954502418 0.3523747518346719 1.4600045453847790 255 255 255
0.2989303634224767 0.4814436402027091 1.3097654968753840 255 255 255
0.2377990458900791 0.2452026318543162 1.6579862604858617 255 255 255
0.2770175926626224 0.4081029854844609 1.4651409202995349 255 255 255
0.2912342653214909 0.4084916191522762 1.4822901474701742 255 255 255
0.2372975856217435 0.3113890429492776 1.6631780067126047 255 255 255
0.2905131407528649 0.4709584921219359 1.4359764114058127 255 255 255
0.2845639455247878 0.4320544807473161 1.5126801048441076 255 255 255
0.1355891187328341 0.3139084649441677 1.8692765639203595 255 255 255
0.1436972821079588 -0.1723812565424790 1.3677308758753091 255 255 255
0.1588000242889811 -0.1534008257612524 1.3377501457816667 255 255 255
0.1647133325206062 -0.1305155641350728 1.3180156023172358 255 255 255
0.1432272103138667 -0.0044061467323711 1.4453055639660577 255 255 255
0.2373905294726492 0.3030419556745507 1.4101554943529497 255 255 255
0.1401023708046642 -0.2213424233142799 1.3233900574190263 255 255 255
0.1581049300600471 -0.1254903988595218 1.3453944988275375 255 255 255
0.1662643516665108 -0.1175739982091386 1.3665817352069223 255 255 255
0.1377173794725093 0.2110782939511856 1.4301736203391573 255 255 255
0.1421126814754520 -0.0633019209409700 1.3993622834728578 255 255 255
-6.5427677974297040 -0.0734697632024449 2.7825722862339934 255 255 255
-8.7570852591223680 0.3236235587616626 2.4190744865450506 255 255 255
-6.3148484547251913 0.5274680285735477 1.7986411078537052 255 255 255
-5.9660164448151205 0.7105054897171343 2.1668722100512854 255 255 255
-0.1119983101722503 -0.2446698449577273 1.1279710444690751 255 255 255
0.1903499626316606 -0.3567094173474960 1.4011058939793226 255 255 255
0.1776021507611995 -0.3577493434104971 1.4229968592052409 255 255 255
0.2000700007522613 -0.2708154845483279 1.1552521766687025 255 255 255
0.1991513621363330 -0.3028959608122279 1.3948138246540143 255 255 255
0.1301179063622429 -0.1775195719616918 1.2937816452374158 255 255 255
0.1991474489156188 -0.2431039606948583 1.4397495671281546 255 255 255
0.1716922971112206 -0.2234627954070269 1.4305925577132506 255 255 255
0.1409859327740210 -0.1784623348919107 1.3498284029454946 255 255 255
0.1397463614198722 -0.1847319494414058 1.3748071086026692 255 255 255
0.1507126127572196 -0.1667162379887851 1.3082910859758843 255 255 255
0.1434083871893736 -0.1814577168529883 1.3843942801681084 255 255 255
0.1489504361958742 -0.1749203815384534 1.3919056455871421 255 255 255
0.2203795442442781 -0.1396469722168895 1.1976499432385552 255 255 255
0.2178078555711697 -0.1449643086605650 1.2417528891207037 255 255 255
0.2290906417776878 -0.1355944240073096 1.2239861978838626 255 255 255
0.1928701750926573 -0.1927757520779203 1.4499434885260432 255 255 255
0.1486127153142235 -0.0883589754351028 1.3577062107399542 255 255 255
0.1483408513600268 -0.0932943454983640 1.3949072927296073 255 255 255
0.1536250482078368 -0.0895142777505285 1.3785518713102651 255 255 255
0.1495333839698723 -0.0658202281947211 1.4012333665804224 255 255 255
0.2350281159299190 -0.0607046833708104 1.2358179234371263 255 255 255
0.1601242797204194 -0.0449479713933320 1.3459812207463395 255 255 255
0.1608059457440083 -0.0436142797527548 1.4427799184323356 255 255 255
0.1578693635751484 0.0373372056958429 1.4313110100211985 255 255 255
0.1503155952430199 0.0850537818985716 1.4020510475479500 255 255 255
0.1421865929239082 0.1244575257428555 1.4724956130871665 255 255 255
0.1422112046414657 0.1491750727792334 1.4789956460151414 255 255 255
0.1585501844191510 0.2307892127484598 1.4071881943322455 255 255 255
0.1341492686322221 0.2100100788239075 1.5441748842115464 255 255 255
0.1820977558715218 0.2264168606317159 1.5630107824277273 255 255 255
0.1904989171471297 0.2156189770141104 1.5942225542757373 255 255 255
0.2011438585088524 0.2655681697825295 1.4591607107880027 255 255 255
0.2255385062791841 0.3030681035032022 1.3713737961047572 255 255 255
0.1582833863917042 0.4137178476486241 1.2817918760133955 255 255 255
0.2235121209170353 0.3011665669201877 1.3816975214946352 255 255 255
0.2238687256180990 0.2769862645231626 1.4558863454120070 255 255 255
0.2141337235018445 0.3007771669435879 1.4409731033816471 255 255 255
0.2298321916475481 0.2478913061124425 1.5611344689268902 255 255 255
0.2582094789708253 0.3372819122370014 1.3540917438760065 255 255 255
0.2562205100482025 0.3255218522867867 1.3827581339524018 255 255 255
0.2714502913043808 0.4107353832140665 1.4310210016514662 255 255 255
0.2715824489604343 0.4189319996150315 1.4440889085436683 255 255 255
0.2703391426463627 0.3849317005308073 1.5948474832283193 255 255 255
0.2794547533942180 0.4276300249573669 1.5012643964089145 255 255 255
0.2621605029550556 0.3911706843840984 1.6190099762084946 255 255 255
0.2837596294606458 0.4663140345955277 1.4215608939906046 255 255 255
0.3141230766452458 0.4238550401153935 1.5104794736489782 255 255 255
-9.7831734707013620 0.4007683499065700 1.5773370352114608 255 255 255
-6.6775363757083248 0.1150247964034099 2.3361466809226918 255 255 255
-5.9492749767330082 0.4024906226611470 1.6512323277305601 255 255 255
-6.0307459377231645 0.4999450141598460 1.7670147136504299 255 255 255
-4.4685334724074046 0.2296593234744648 1.9660421500279703 255 255 255
-5.5141801325657873 0.9273132253530016 2.4544807660426624 255 255 255
0.1335417773247889 -0.1920841736205456 1.3696167462919915 255 255 255
0.1406595378228061 -0.1852718789295052 1.3751679058113717 255 255 255
0.1718228968020752 -0.1421353174031238 1.3749605936313147 255 255 255
0.1800659285173040 -0.1027006506078057 1.2915281888469621 255 255 255
0.1711721468736784 0.2671948462568089 1.4458746655435206 255 255 255
0.1890589549082877 0.1984796215951304 1.6117092054584263 255 255 255
0.2349305556829815 0.2690208756426476 1.4865185794082469 255 255 255
0.2588930794383087 0.3032971530714497 1.4442241348092573 255 255 255
0.2557776106629587 0.2922340028283362 1.5214472865140007 255 255 255
0.2727782523998689 0.3965647517864020 1.3179051656075997 255 255 255
0.2564286467261178 0.3603244087317074 1.6149264936681471 255 255 255
0.2476960799288548 0.3374737097559921 1.7700176316316083 255 255 255
0.3132308133640484 0.4419280478481166 1.5545849201378552 255 255 255
0.1425548012466431 -0.1796454953098459 1.3653568751669600 255 255 255
0.2278526707982411 -0.1450315855656621 1.2220974508836198 255 255 255
0.1727473957687175 -0.1861323692625999 1.4193373284307897 255 255 255
0.1869622826633066 -0.1712070692568129 1.4512421043655148 255 255 255
0.1599691342042405 -0.1174541237488502 1.3497754303964331 255 255 255
0.2272714195323832 -0.0046231147145398 1.2676162116127634 255 255 255
0.1477474031940582 0.1299169298033428 1.4500903208634359 255 255 255
0.1873444064151204 0.1563147396799072 1.6217117716831375 255 255 255
0.2253825116394017 0.3134501611790371 1.3806842466492468 255 255 255
0.2286839290096788 0.2764860340872374 1.4643223626604587 255 255 255
0.2598986998334710 0.3321930516486673 1.4416759890925834 255 255 255
0.2648785102437029 0.3034188888669545 1.5284746703555530 255 255 255
0.2479217695729408 0.2863776580855565 1.6284380562133338 255 255 255
0.2592408066680185 0.3532295834533733 1.4977621275037831 255 255 255
0.2645757880506718 0.3695000043667516 1.5544181698208388 255 255 255
0.2789955901147489 0.4626177166636185 1.3326465794601836 255 255 255
0.2544320431885907 0.3497915121175647 1.7826974870573131 255 255 255
-6.6354314402410219 -0.0449982698608597 2.4153739552727607 255 255 255
-7.4690310811427238 0.1497867247338149 2.1460949702599614 255 255 255
-6.6243444098090238 0.0244134320682047 2.2656865818755114 255 255 255
-6.6456120827756839 0.1039791425190154 2.3076581795721816 255 255 255
-5.8819636048613928 0.3976638987343900 1.4580445200828200 255 255 255
-5.9767127326860887 0.4126249757138651 1.6662404293178950 255 255 255
-5.0251521700845458 0.3651317580536393 1.7182682263687645 255 255 255
-4.7563137951342274 0.2682922642297053 1.8968767270982427 255 255 255
-5.2630125147694002 0.5133197979531954 1.9289333121596075 255 255 255
-5.8654754598281604 0.6877320467731391 2.1523207990968198 255 255 255
0.1478876197357679 -0.2166824694503327 1.2988340166073953 255 255 255
0.1556954693628373 -0.1772010777603995 1.3386045946542324 255 255 255
0.1563287000638879 -0.1344473981027688 1.3737063334032824 255 255 255
0.1541897079177447 -0.1338676114086097 1.3887524140016587 255 255 255
0.1655416336982637 -0.1132205096411944 1.3215663213260169 255 255 255
0.1623976630612301 -0.1252312730965229 1.3621085078650808 255 255 255
0.1550150228792034 0.0253289139338320 1.3441630598791536 255 255 255
0.1384888449259472 0.1605256816905520 1.4846330242382135 255 255 255
0.1999191774362647 0.2721483068806089 1.4360052218108010 255 255 255
0.2544390477041120 0.3898181104672265 1.3096188260037596 255 255 255
0.2030805722399603 0.3142770306617436 1.8563104364853174 255 255 255
0.2222072878576291 0.3339537793346109 1.7689650229073817 255 255 255
0.2375681869229742 0.3450080611362482 1.7766382235292340 255 255 255
0.2894396879021346 0.4470325019938511 1.4518311886059345 255 255 255
0.2421626701683348 0.3727155572118702 1.7328039360913270 255 255 255
0.2528935562311175 0.3637483087134239 1.7538668799226407 255 255 255
0.2975908191468532 0.4480400683417631 1.4695190956795592 255 255 255
0.3027855601937972 0.4644679735031499 1.4948204576257624 255 255 255
0.2871166314576297 0.3368484063268006 1.8020884085874944 255 255 255
0.3037818239608222 0.4343872729183765 1.5765164080820975 255 255 255
0.3004898729369541 0.4167286099073994 1.6310664601992113 255 255 255
0.3268567239266827 0.4285894796684930 1.5860667455776427 255 255 255
-5.9533182490248215 0.4250982019693500 1.6893252189390648 255 255 255
0.1533829748778701 -0.1504878438416146 1.3133565316070106 255 255 255
0.1818866423234593 -0.1239654285940177 1.2570125636271812 255 255 255
0.2188537455428028 0.3627624458023179 1.3029539804890753 255 255 255
0.2293059149348472 0.2507791940049366 1.5707563719826392 255 255 255
0.2726906558513054 0.3207718893763995 1.4902463468594478 255 255 255
0.2443053273170732 0.3702358619251295 1.7325861725239524 255 255 255
0.2828519347823963 0.4362279566857096 1.5110746377336974 255 255 255
0.2530573312920762 0.3674847054151545 1.7556348721029178 255 255 255
0.2700787994420594 0.4305496127126764 1.5987898417272077 255 255 255
0.2830158889271343 0.4579630130237976 1.3538806311665779 255 255 255
0.1619453470143043 -0.1580127725336108 1.3167911597177850 255 255 255
0.1681142804652141 -0.0747185672796443 1.3462078955725261 255 255 255
0.1602929219946223 0.0013836583753762 1.3761312181549585 255 255 255
0.1567137199881411 0.2601508891435642 1.4195243534875939 255 255 255
0.2176986981598429 0.3634915661036555 1.3019580790034266 255 255 255
-7.2055188331737980 -0.5334976545644090 3.2327695044438056 255 255 255
-7.4550518815428282 -0.6307236092777955 3.6930628482129317 255 255 255
-7.7010203904947243 -0.4749491879577414 3.6063122510101899 255 255 255
-9.2005553980473085 -0.1147849694940101 3.7346184051124500 255 255 255
-7.5270914347940501 -0.3207203449927077 3.8872394143380671 255 255 255
-7.3171722492228630 0.1252758147485664 2.6336324383864138 255 255 255
-0.0733041827809643 -0.2216934833243004 1.0801541171529729 255 255 255
-0.0803108395273692 -0.2207517223324625 1.0916534698667717 255 255 255
0.1831414264772874 -0.3377336272815269 1.3715913472489234 255 255 255
0.1912104253877035 -0.3119753498696706 1.3822270217514159 255 255 255
0.2353289160138183 -0.2320797452370744 1.1420104880055859 255 255 255
0.2389465068430815 -0.2046172418543659 1.1363440910085962 255 255 255
0.1787777930102335 -0.2446672009602472 1.4075723145788135 255 255 255
0.1355931675839843 -0.2139463664736503 1.3971812226808906 255 255 255
0.1732270359835913 -0.2333636652208990 1.4070347293900778 255 255 255
0.2487071407660686 -0.1957328612964784 1.1672560366185323 255 255 255
0.1833996692202052 -0.2361237779903665 1.4175232373128344 255 255 255
0.1920216326439616 -0.2326253436787006 1.4276332856714580 255 255 255
0.1460398757207534 -0.2038540351115606 1.4036873330892219 255 255 255
0.1792173788510451 -0.2229510752185258 1.4150338846120614 255 255 255
0.1563440737005454 -0.2072799020121265 1.4050561604183049 255 255 255
0.1401265356669187 -0.1727936886021608 1.3145170962719119 255 255 255
0.1802275801077858 -0.2172218208416526 1.4211211786717397 255 255 255
0.1741538268514811 -0.2098181366972863 1.4193460291516145 255 255 255
0.1694087302373759 -0.1904673836944177 1.4289537722312098 255 255 255
0.1703324569861481 -0.1857048739558625 1.4198111212718321 255 255 255
0.2200507813029462 -0.1218723852566684 1.1554246275278439 255 255 255
0.1906939542400117 -0.1869827916967148 1.4447789860841505 255 255 255
0.2266473489001875 -0.1233280936332571 1.1659761941799756 255 255 255
0.1752276636133027 -0.1639138023748723 1.4331377147639541 255 255 255
0.2318973112302771 -0.1130454352865817 1.1855418552964831 255 255 255
0.2333768062708476 -0.1075385168055502 1.1944494454149117 255 255 255
0.1656579346695898 -0.1374989977507406 1.4396818644841911 255 255 255
0.1471813569485646 -0.1112610771567244 1.3879043092732755 255 255 255
0.2375508239573660 -0.0914161926960042 1.2078233665144982 255 255 255
0.1663886945761272 -0.1135249901605032 1.4440101980570061 255 255 255
0.2310791881219979 -0.0614707732283923 1.2120128099716720 255 255 255
0.1582158040946676 -0.0057588038076908 1.4159514554921759 255 255 255
0.1549341004403656 0.0209956871407984 1.4272409425057542 255 255 255
0.1511448069252535 0.0311295208808358 1.4807678973366889 255 255 255
0.2289850889983856 0.1058179696088808 1.2625517268753450 255 255 255
-0.1977465165719948 0.4884946945576149 1.2132490550759936 255 255 255
0.1390852863662104 0.1949718064541973 1.5340039561992533 255 255 255
0.1598426408085498 0.1989468285424522 1.5650183182140125 255 255 255
0.1828362145230396 0.1972506975799280 1.5988807249051129 255 255 255
0.2153530436169471 0.2049221024708235 1.6405342268373342 255 255 255
0.2188358732633124 0.2689579124916229 1.4727796732623066 255 255 255
0.2172582536858010 0.2868762832767377 1.4545783405937640 255 255 255
0.2345764517788937 0.2568129286733448 1.5017197348397970 255 255 255
0.2367856976811217 0.2517001972291222 1.5443315877232620 255 255 255
0.2260729382111480 0.2975173656935710 1.4172849221197308 255 255 255
0.2293528826597156 0.2857917243319333 1.4585196307018478 255 255 255
0.2405764296262280 0.2905088094329092 1.4257284201814395 255 255 255
0.2353189731251276 0.3174398781490017 1.3724557933936636 255 255 255
0.2114545527824644 0.3580036243404177 1.3272904070674394 255 255 255
0.2467914135286068 0.2970327375688564 1.4536845250805237 255 255 255
0.1387213490559757 0.4690950248155336 1.2398043743264977 255 255 255
0.2410578693564135 0.3267669344284426 1.3684332834309012 255 255 255
0.2566945037360049 0.3117440493659815 1.4324269645102263 255 255 255
0.2060986488645724 0.4041689900172316 1.2913779018475176 255 255 255
0.2554180101692896 0.3282231787856951 1.4254717416414815 255 255 255
0.2619302922877310 0.3318544610293494 1.4083369001330892 255 255 255
0.2602858264063255 0.3477282595394941 1.3805961166399583 255 255 255
0.2510495154463350 0.3759040850461297 1.3249426615831188 255 255 255
0.2621192843560779 0.3773513104068378 1.3283335829750631 255 255 255
0.2705245597771084 0.3751335106684525 1.3572284323104462 255 255 255
0.2391158802283790 0.4344081900707950 1.2744050435750940 255 255 255
0.2700805342691177 0.4004783855185889 1.3185608703342806 255 255 255
0.2464210501208819 0.3596776967349247 1.6067483332284158 255 255 255
0.2630331530979174 0.4227856281747113 1.3027617586959348 255 255 255
0.1530329140037733 0.5829214004369064 1.1841082657953832 255 255 255
0.2568491128034519 0.3472098962420693 1.7787068734121738 255 255 255
0.2804128221639358 0.4016225207722186 1.4749644199900396 255 255 255
0.2789607835277611 0.4230038919689050 1.5261929081590286 255 255 255
0.2756989145594250 0.4099796545780717 1.6383947571911452 255 255 255
0.2859875264267309 0.4928023888478399 1.3791449091408026 255 255 255
0.2905027008427553 0.4802838494851261 1.3981491348170869 255 255 255
0.2937600507337102 0.4817085630687958 1.4168630259980159 255 255 255
0.3336660798400766 0.5182501393153868 1.3694502725428939 255 255 255
-7.2249412992857698 -0.4242654074850820 3.1411709296405954 255 255 255
-7.3069887639122850 -0.6022296546122646 3.7607657175415183 255 255 255
-6.8949948881537697 -0.6588818958160662 3.8098449967369832 255 255 255
-7.4143236119919811 -0.5230965765562891 3.6478302653441093 255 255 255
-7.7074487076905305 -0.2221842022285377 2.8349603145183719 255 255 255
-7.3359341917798151 -0.4762101328481486 3.4979123128255374 255 255 255
-7.3202459937150479 -0.3999488114952876 3.3255976691651989 255 255 255
-6.4941386503143770 -0.6866987348614643 4.0597155579456885 255 255 255
-7.3147555783409830 -0.1220414880536570 2.7958004608656082 255 255 255
-6.9893416053801554 -0.4803236866371370 3.8107215402671346 255 255 255
-7.2357019757474736 -0.5205071516035564 4.2309869311131552 255 255 255
-7.0264959098685393 -0.4439774271162568 3.9610492795631780 255 255 255
-6.2854600068028423 -0.0288816960756944 2.5625299507759660 255 255 255
-7.0462622241452912 0.1924619689432620 2.5590028005665277 255 255 255
-6.0372174759061581 0.5073336594911452 1.5963702103382411 255 255 255
0.1827689462562484 -0.3036660599408738 1.3718101462822216 255 255 255
0.2304503084917465 -0.1372109897976111 1.1754754166532648 255 255 255
0.1214992599869794 -0.0879205731616059 1.4081670376077262 255 255 255
0.1408693385196404 0.2173919132780088 1.5276401690428563 255 255 255
-0.1372952651057185 0.6087287899343883 1.1407023439426462 255 255 255
0.1823227003147518 0.2842583186980399 1.4183512469171387 255 255 255
0.1182485834284354 0.3997977133884270 1.2895675042265262 255 255 255
0.1843885386198296 0.2633020514688402 1.7860851669373259 255 255 255
0.2617110789906022 0.3003507589907495 1.4698292409076865 255 255 255
0.2470715907661577 0.3589937347731211 1.3244733448763910 255 255 255
0.2629047290166583 0.3739971990267151 1.4040410648030719 255 255 255
0.2620631919318125 0.3962367814764257 1.3045824476627328 255 255 255
0.2741397762828759 0.4061690788569272 1.3753518958378455 255 255 255
0.2856974273574877 0.3779393811835374 1.7084689361920768 255 255 255
0.3333690722168184 0.4648819312758351 1.4948144917043489 255 255 255
0.2306065706072376 -0.2357015034204418 1.1459410253247699 255 255 255
0.2104402226287176 -0.0294727531312722 1.2778586298770953 255 255 255
0.2287190519549109 0.0063441786675223 1.2388647391682392 255 255 255
0.1118657630326998 0.3345839436280209 1.2989773501681297 255 255 255
0.2465987439935892 0.3205654643960266 1.3793072472799444 255 255 255
0.2570440733030557 0.2961149301422064 1.5443624980944579 255 255 255
0.2397004707083927 0.3792426525860695 1.3132099292139794 255 255 255
0.2586530155471586 0.3427156466416527 1.3585434469649704 255 255 255
0.2534881867284020 0.3513463443524699 1.3942990174008056 255 255 255
0.2630571846875486 0.3700046133657642 1.3426927345246988 255 255 255
0.2653808194982097 0.3341620732879637 1.5299999114146412 255 255 255
0.2803136375660731 0.4357283164696860 1.5581618164825117 255 255 255
-6.9894651399021734 -0.4701793098096630 3.8082219914438666 255 255 255
-7.2804862898105531 -0.5087518269748917 4.2528875639666390 255 255 255
0.1576262056232548 -0.2201119155369451 1.4260006049410725 255 255 255
0.1477267646362976 -0.1396515485696603 1.3165169865886290 255 255 255
0.1561664688639222 -0.1519720323381401 1.3867117921856991 255 255 255
0.1343121056252116 0.0060305657888616 1.4484064166764505 255 255 255
-0.2255136084869691 0.4711747191719744 1.2254639865941481 255 255 255
0.1634119898390773 0.2299807045883267 1.5427729220414104 255 255 255
0.2245659116325314 0.2599480608355204 1.6082471832235590 255 255 255
0.2318978030985832 0.3076126119368456 1.3935713318523071 255 255 255
0.2469487883237723 0.2641939962025667 1.5880874418645405 255 255 255
0.2555633855541519 0.2931750091029213 1.5218805485964890 255 255 255
0.2619973964469171 0.3311700356918423 1.4309063850313097 255 255 255
0.2380173100437147 0.3446822492675901 1.7758439758497979 255 255 255
0.2518052068092233 0.3729437537764068 1.6754862173960019 255 255 255
0.2574681102071714 0.4114296028226646 1.6358461944511087 255 255 255
0.2748282769568607 0.3586061972408103 1.7634616443478983 255 255 255
0.2912428144174139 0.4461938649477371 1.5417992055257270 255 255 255
0.3292913845418866 0.4873869387774287 1.4676159234501334 255 255 255
0.1737285039160736 -0.1932577792207115 1.4948729302490991 255 255 255
0.1332405609183635 0.1814500454199193 1.4983593792365284 255 255 255
0.2312336281946376 0.2761834997581631 1.5099608942492202 255 255 255
-7.5498267353538049 -1.4218788168646861 5.3114929981320307 255 255 255
-7.8751532367728752 -1.3169976527589502 5.2269529711165132 255 255 255
-7.9625172002231928 -1.1843215080423450 5.3312665804491708 255 255 255
-7.4935983643176147 -0.9780068584709405 4.8709072965079461 255 255 255
-2.9744364506712282 -0.8411875293497070 3.9917984223007674 255 255 255
-4.5044011141896920 0.2465484525099617 2.0952272447739322 255 255 255
-0.1485233004236384 -0.3246976338630279 1.3349006846042519 255 255 255
-0.1296514070630784 -0.3327230744933187 1.3557098303473840 255 255 255
-0.1309960938907951 -0.2555622220551969 1.1355304740914141 255 255 255
-0.1410401361863342 -0.3031984703832294 1.3129548626365883 255 255 255
-0.1510973042384632 -0.2934163346404638 1.3082820325154902 255 255 255
-0.0892403172416023 -0.2126511767002051 1.0581061580416720 255 255 255
0.1667506721736045 -0.3481748509922830 1.3661656460523603 255 255 255
0.1784445277551849 -0.3272310414622177 1.3576178145917850 255 255 255
-0.0733364368512844 -0.1913187890887379 1.0845435194181583 255 255 255
-0.0878676011582960 -0.1795605926917970 1.0630388639134425 255 255 255
0.1917716388279826 -0.3319959804378436 1.3831399837370713 255 255 255
0.1809595453955498 -0.3171962369709398 1.3548214143506987 255 255 255
0.1983449035274421 -0.3215757512514856 1.3858249809934424 255 255 255
-0.0866646307754280 -0.1652059380470556 1.0675412755432265 255 255 255
0.1743468170077506 -0.2486556737575997 1.1228537455664511 255 255 255
0.1701787448420470 -0.3040567184034990 1.3605400171710418 255 255 255
-0.0731016567017885 -0.1694077038274965 1.0886909571341385 255 255 255
-0.0853955755325781 -0.1634246597267597 1.0778068579801037 255 255 255
-0.0728588015134627 -0.1709303263609936 1.1005754376645969 255 255 255
0.1960288893406802 -0.3091105178458516 1.3917062978015298 255 255 255
-7.0599546725418669 1.5598533246506181 1.9816964660252963 255 255 255
0.1746691278537575 -0.2910963777982681 1.3729919182319241 255 255 255
0.2250701095903161 -0.2441933149134671 1.1360308644420518 255 255 255
0.1804295374342434 -0.2823292191299407 1.3783417003743812 255 255 255
0.2244113549976887 -0.2356094536465392 1.1421269730475170 255 255 255
0.1664398399387169 -0.2739769978087238 1.3726104683699161 255 255 255
0.1947427639991418 -0.2121094471243350 1.0942544007649302 255 255 255
-0.0711688551441049 -0.1307743026384813 1.0971348959536784 255 255 255
0.2290671792938774 -0.2242278804100384 1.1398771662674583 255 255 255
-0.0658268085792354 -0.1269684129504975 1.1452863666433668 255 255 255
-0.0853707734783558 -0.1186312492112239 1.1353226612890652 255 255 255
-7.5976513549540163 2.0327188731692347 1.9343164922692695 255 255 255
-6.9845180124838295 1.9020433497544673 2.0940376277347363 255 255 255
0.2483896018892187 -0.2067108462211947 1.1630262024198434 255 255 255
0.2319327704678352 -0.1854053499595964 1.1307853554518688 255 255 255
0.1254702320905127 -0.2014525733646870 1.3768121521290850 255 255 255
-0.0808574362020740 -0.0753520186042645 1.1632166130300328 255 255 255
0.2139102980662014 -0.1614987209809234 1.1182829312893590 255 255 255
0.1387994097220317 -0.1850374033092118 1.3754585899679437 255 255 255
0.2203345185561216 -0.1527341108499960 1.1299754108101498 255 255 255
0.1463806016487381 -0.1703916978412511 1.3507525830204077 255 255 255
0.1634098873927432 -0.1860582274969164 1.4143157072715486 255 255 255
0.2119728494896352 -0.1447867232388008 1.1541153002558089 255 255 255
0.1551776321397512 -0.1557119667600872 1.3161128162540969 255 255 255
0.1495749997031384 -0.1663786732556622 1.3877666703875986 255 255 255
0.2225725505357472 -0.1407863605424585 1.1569261505531465 255 255 255
0.1528496764310630 -0.1603917800733467 1.3993747230559097 255 255 255
0.2184809612135419 -0.1296405483063084 1.1501479239082237 255 255 255
0.2375074373110837 -0.1343754269457917 1.1443660928425290 255 255 255
0.2008217539553681 -0.1173832506441421 1.1397313056687270 255 255 255
0.2000421836824696 -0.1133510135514173 1.1549201296648337 255 255 255
0.1839992173615276 -0.1025229447167240 1.1493951723822899 255 255 255
0.2390336663481746 -0.1219005885038864 1.1677870788587548 255 255 255
0.2352940804799787 -0.1197855783650517 1.1803273131752463 255 255 255
-0.0861843302588908 0.0165990363089005 1.1892824944014488 255 255 255
0.1716855566506182 -0.1256518413083883 1.4510027818227360 255 255 255
-0.0799891781496856 0.0300697032043591 1.2001254402974404 255 255 255
0.2334598583648714 -0.0977671427656085 1.1918798952161620 255 255 255
0.2303186835002283 -0.0979818397392738 1.2325250634986691 255 255 255
-0.0843076966514403 0.0492946924986572 1.2170469874790688 255 255 255
0.1666458527281942 -0.1009487090051276 1.4499385836451875 255 255 255
0.1566885865137122 -0.1149278255083241 1.5669839564731827 255 255 255
0.1442604101349442 -0.0721172740912071 1.3916043868465329 255 255 255
-0.0964892014177224 0.0803265519181343 1.1699424923825692 255 255 255
-0.0803439345464071 0.0734993473650433 1.2115925728860029 255 255 255
-0.0812890908082432 0.0927753180275194 1.2130300984576567 255 255 255
0.2241651224015273 -0.0411401598731727 1.1951467311938635 255 255 255
0.2277321483537205 -0.0441421934646726 1.2106301318177410 255 255 255
-0.0876345805879779 0.1126905463630745 1.2280975257315048 255 255 255
0.1475395623776803 -0.0312187803127770 1.4078071481043708 255 255 255
-0.0855067631512834 0.1187962495674126 1.2388971544719110 255 255 255
0.1448397718174659 -0.0247999706354855 1.4358445041986301 255 255 255
0.1714581351442435 -0.0390589009948750 1.4837180164313191 255 255 255
-0.0833891202961103 0.1284614513219554 1.2459967886485239 255 255 255
0.1471201097288944 -0.0063681051109220 1.4078073067642736 255 255 255
0.2284851689634694 -0.0159269078505526 1.2162314229603317 255 255 255
-0.1020375908203523 0.1503870551106121 1.2463093695351732 255 255 255
0.2257231533987920 -0.0002534431306168 1.2287529231704115 255 255 255
0.1659547346466107 -0.0091064026697621 1.5283257252235838 255 255 255
0.2310356519847340 0.0043841486576861 1.2403174672748836 255 255 255
0.2162445521155690 0.0187859675683431 1.2107013798522421 255 255 255
0.2338642790461568 0.0174282431325884 1.2333503292789803 255 255 255
0.1733223215772668 0.0179821276751194 1.4834995894160399 255 255 255
0.1514571191552735 0.0472647709364178 1.3976163456199859 255 255 255
0.1316774044194209 0.0444526975476555 1.4832917151690335 255 255 255
-0.0851495509036675 0.1990647351689126 1.2720391623211902 255 255 255
0.1371704677390402 0.0540577984320226 1.4662544411101612 255 255 255
0.1777361828559113 0.0372159334780198 1.4962601999934793 255 255 255
-0.0949596606946282 0.2411776943244226 1.2621952528163245 255 255 255
-0.0920400794546186 0.2515943680720710 1.2697539735666514 255 255 255
-0.0898434473323332 0.2613484022943617 1.3291757115974756 255 255 255
-0.0885749205589164 0.2749426252425637 1.2913374381861500 255 255 255
-0.0998594744464388 0.2941861752437061 1.2901119423091185 255 255 255
0.1445524897835069 0.1307583876110602 1.4498782323483002 255 255 255
-0.0621930445142323 0.2796035837321751 1.3073686851766309 255 255 255
-0.0576626373504819 0.2733377906557796 1.3333115433974467 255 255 255
-0.0424520150872124 0.2758145238991803 1.3063673886064342 255 255 255
-0.2611824417202303 0.4609091905333285 1.2544703689866483 255 255 255
0.1607998620610095 0.1670510271140054 1.4176504129575438 255 255 255
0.1503880157023805 0.1757782104588262 1.5459033234201947 255 255 255
-0.2253441360682555 0.4561598678860856 1.2462493467434679 255 255 255
-0.1946214850255567 0.4464219631004780 1.2606861947059973 255 255 255
-0.3519813336741038 0.5640142445242605 1.1897537497213853 255 255 255
-0.2282557344775307 0.4849420814452380 1.2017100580800337 255 255 255
-0.1843836219800744 0.4537235670882218 1.2561880415884117 255 255 255
0.2254014103379599 0.1718619878541027 1.2964319361122598 255 255 255
-0.1937866342573646 0.4730080326138692 1.2229530024511004 255 255 255
-0.2946009588897257 0.5481997148453239 1.2243948023952900 255 255 255
0.0224540522538908 0.3252718922185250 1.3038124041596779 255 255 255
0.1564752487235369 0.2066520924594093 1.6092857839149408 255 255 255
-0.0221075537025235 0.3576074507513676 1.3002224099887050 255 255 255
0.1632669504680758 0.2255398880737862 1.5637449280468141 255 255 255
-0.0436798362590092 0.3960681216074085 1.2676329689688435 255 255 255
0.0313579998373775 0.3412719783831246 1.2964549911757817 255 255 255
0.2015614659035777 0.2066101342220588 1.6223736943723317 255 255 255
0.1829099843170217 0.2237989897873770 1.5622904444785812 255 255 255
0.1693709883672121 0.2438917220506688 1.5398182958189524 255 255 255
0.0615925313070195 0.3409989574066376 1.3100363538537056 255 255 255
0.1823817339212611 0.2408441605814884 1.5158718942470657 255 255 255
0.0515399135506008 0.3530968225525123 1.2997846394740957 255 255 255
0.2133687758007788 0.2174162367496213 1.6162060945497243 255 255 255
0.2162375285317353 0.2128455919296407 1.6301524562104401 255 255 255
0.1910438616069068 0.2459247538230593 1.5064524484905013 255 255 255
0.0817177300679156 0.3459308837329368 1.3060900453006155 255 255 255
-0.0334179348465845 0.4348091123102628 1.2666341921277959 255 255 255
0.0741157640279001 0.3558294546740099 1.3012844103814276 255 255 255
-0.0311596460558098 0.4378624289634243 1.2513985072652865 255 255 255
0.0171999059610787 0.4093209292280780 1.2723784976859569 255 255 255
-0.0394078993494716 0.4531516873726804 1.2450447235864097 255 255 255
-0.0003363730508428 0.4262718039681511 1.2665165953636006 255 255 255
0.0335711855883287 0.4003384429231293 1.2779329764814478 255 255 255
-0.0005984511559758 0.4356423453692626 1.2485196783282970 255 255 255
0.1065265094663400 0.3548152931844000 1.2961201519240297 255 255 255
-0.0451415401311559 0.4758553125461878 1.2527024335421175 255 255 255
-0.1606147429070545 0.5880505462545228 1.1813162011463720 255 255 255
-0.0174070035745488 0.4737290109039616 1.2283017006703976 255 255 255
0.1644440684645904 0.3330026756979905 1.3044527015791001 255 255 255
0.2277019795303988 0.2759276384102549 1.4689481595899465 255 255 255
-0.0101880669147165 0.4738077549978647 1.2385459719946934 255 255 255
0.2423092423349161 0.2634850263986274 1.5281722057175613 255 255 255
0.0494272162181052 0.4478211171256492 1.2517088019138538 255 255 255
0.0921935061048020 0.4153887267403047 1.2746957218928578 255 255 255
0.2072402883319704 0.3217869193021860 1.3323803978042272 255 255 255
-0.0971278254750828 0.5808717532326967 1.2024697703125449 255 255 255
0.1959703988773958 0.3435472823253893 1.3163171790870403 255 255 255
0.2172637634677419 0.3270189761106583 1.3359589965872913 255 255 255
0.2546187502336275 0.2935139258863942 1.4726079393018334 255 255 255
0.2284992442554431 0.3292578899252707 1.4491851595591787 255 255 255
0.1605729914929672 0.3994980658509930 1.2865199229384972 255 255 255
0.1668577096607082 0.3928306220013456 1.2993201436981432 255 255 255
0.1538468418493134 0.4093135048026383 1.2784024885159013 255 255 255
0.2480978698679352 0.3318245783100786 1.3087537219610672 255 255 255
0.2684601535015125 0.3259105024729363 1.4573058600195967 255 255 255
0.2403604248935594 0.3546493482202976 1.3122723118721560 255 255 255
0.2296375380816121 0.3689916173639042 1.3084650587035169 255 255 255
0.1858933184249568 0.4090254932600989 1.2820878667752194 255 255 255
0.1806826279959935 0.4205410826822046 1.2644303008525835 255 255 255
0.2401786743571193 0.3671911067843324 1.6983926905182454 255 255 255
0.2650510666354334 0.3488425753204351 1.6292097657356230 255 255 255
0.2476808216847700 0.3637414005891711 1.7359330469878611 255 255 255
0.2698157145760920 0.3516863487990285 1.3686444178640471 255 255 255
0.2091203915289770 0.4085495593307996 1.2757191472696570 255 255 255
0.2382065648951556 0.3960301784055328 1.2912421519399813 255 255 255
0.1641761893741069 0.4687504966077942 1.2408617976935197 255 255 255
0.2600312535259560 0.3947152646581460 1.6720055538186991 255 255 255
0.2491697971660501 0.4056606446441380 1.2842963225679653 255 255 255
0.2644501464595839 0.3929459441229396 1.3059895441484870 255 255 255
0.2732360093442021 0.3863517717361860 1.3565421252603782 255 255 255
0.2653592655802327 0.4028262670185573 1.2844727019247049 255 255 255
0.2821267611818831 0.4002377337518316 1.5185867429125819 255 255 255
0.2604022080784436 0.4203969301908336 1.2941299710630987 255 255 255
0.2602123069185413 0.4312370217210674 1.2944265016252037 255 255 255
0.2706743215289940 0.4215891231567472 1.3295199085054856 255 255 255
0.2898543516077986 0.4167711586632572 1.3038618959320349 255 255 255
0.3013799436725573 0.4338539735159671 1.5607641508829533 255 255 255
0.2651159356684140 0.5039384438296463 1.2796962950894042 255 255 255
0.3076281005933580 0.4698689099944680 1.4777608556792654 255 255 255
-8.5895359144615444 -1.7385507645445863 5.8280162330960801 255 255 255
-8.5858079122498925 -1.7152864160620211 5.9899375986360033 255 255 255
-7.8560966955642968 -1.4363879105130315 5.3013100125690169 255 255 255
-8.0143144630036183 -1.3685922576903657 5.1734494524475156 255 255 255
-8.6484736436085434 -1.5473218145781840 6.0808311916771931 255 255 255
-7.8761080460867126 -1.0985796531089085 5.1280318751532663 255 255 255
-6.4800417882458623 -1.1764240001356996 5.1581767590405647 255 255 255
-7.9785200884609955 -1.0338784518755406 5.7107148173771254 255 255 255
-2.9016061403003897 -0.7938153703109252 3.8147030271305620 255 255 255
-2.4335877759840630 -0.7005742522315731 3.4905753144221641 255 255 255
-0.1695135583520257 -0.3212706590889761 1.3143581156292019 255 255 255
-4.9258772447067196 0.5191059042668653 2.0654797701233081 255 255 255
-6.3109083411989513 1.0784328032754085 2.0860686171114544 255 255 255
-6.3229560501726221 1.1815074828848104 2.0330685844812044 255 255 255
-6.1370342445673902 1.1489575615865184 2.1242091032788806 255 255 255
-7.1670575526124285 1.5403841057155800 1.8907773267954857 255 255 255
-6.1161747395825179 1.2723011917547957 2.1612582153867117 255 255 255
-6.7783220092162626 1.8424339230829259 1.9506269972532349 255 255 255
0.2329535771063382 -0.1782256195640606 1.1298180802653317 255 255 255
0.1466267612356523 -0.1755696436164577 1.3338931572548176 255 255 255
0.1591421595674919 -0.0785356135057618 1.4191544038410384 255 255 255
0.1497809646275888 -0.0627672754704460 1.3902968169318746 255 255 255
0.1694290190590530 0.1346623639812428 1.5449276947871178 255 255 255
-0.0812734329207832 0.4294569379303264 1.2602280742274596 255 255 255
0.1965781562750908 0.2183611908095469 1.6093408380141809 255 255 255
-0.0497589042012749 0.4295994245115688 1.2721670487460173 255 255 255
0.2160072966760212 0.2316213552162576 1.5970080625613348 255 255 255
0.0596297750238599 0.3780099411659245 1.2915564111250837 255 255 255
0.2086992505203869 0.2520164291528481 1.5132279171276963 255 255 255
0.2340766759514672 0.2656839462409626 1.5104518386469130 255 255 255
0.2219180350199099 0.3076844359968016 1.3644847230886914 255 255 255
-0.0830105823494313 0.5668794245365568 1.2191103023247924 255 255 255
0.1408724656718193 0.3994320528404807 1.2830500450082289 255 255 255
0.1891199592579446 0.3971780437998932 1.2922059646539421 255 255 255
0.2256838385920181 0.3721713729916026 1.2996386482396056 255 255 255
0.2651161429808581 0.3500767068712751 1.3483688573455703 255 255 255
0.2468707211605398 0.3669360449753993 1.7225065982902219 255 255 255
0.2617630521451649 0.3700784079429049 1.3450487264769708 255 255 255
0.2577039457997249 0.3861496075918504 1.3128673670094759 255 255 255
0.2580619335186591 0.3912680318481191 1.6919952676592001 255 255 255
0.2371225698010993 0.4202256572040928 1.2752601626510658 255 255 255
0.2548703214359406 0.5089149936476356 1.2649417883647778 255 255 255
