ply
format ascii 1.0
element vertex 688
property double x
property double y
property double z
property uchar red
property uchar green
property uchar blue
end_header
0.1480877938761480 0.1685097434781075 1.6540968025584462 255 255 255
-0.2562098409290540 0.2680304995481481 1.8283562746602524 255 255 255
0.0790951291547943 0.1876110685855076 1.7165675566431393 255 255 255
-0.1466124331473879 0.2910536702689178 1.8064343060305099 255 255 255
0.2347810819913755 0.3750479687371838 1.5294794239923117 255 255 255
0.2222709661363769 0.3434539401124665 1.5653014681523156 255 255 255
-0.1122434226184614 0.2669287182824785 1.8398618658101780 255 255 255
0.2366619615344756 0.3779649483868923 1.5722877939354940 255 255 255
0.2121757233924174 0.2855721574857951 1.6653041289207782 255 255 255
0.0945509602035266 0.2692118698040443 1.7582892701070432 255 255 255
-0.0261704257557970 0.2502785352392490 1.8594619515372977 255 255 255
0.2135721061705818 0.2885423407534222 1.6869577502297546 255 255 255
0.0751315010442026 0.2798476999674717 1.7991968792245472 255 255 255
0.0483972830470233 0.2860124420082324 1.8181084720495022 255 255 255
0.1455281764578640 0.2841651706625972 1.7581496687300140 255 255 255
0.1790385595738743 0.2889790642522461 1.7459811792307243 255 255 255
0.1283099563408946 0.2828180400895431 1.7975475697593302 255 255 255
0.1842337799767626 0.2963852711319706 1.7621910739452067 255 255 255
-15.3807733669532656 3.7019398524367726 -6.9915100272777018 255 255 255
-13.5829072211927855 4.3249632743127160 -7.7732147554596693 255 255 255
-13.6631310545390825 2.6484758362027736 -4.6731190832404490 255 255 255
-13.9187256402282440 3.2285647351852016 -4.5351073945446654 255 255 255
-13.4646528730810715 3.7490148117485429 -5.0422044795012262 255 255 255
-21.8566609186144802 4.6890353688692832 -6.2269627300028860 255 255 255
0.1404681497494830 -0.0518415062871779 1.3049948038463559 255 255 255
0.1315201312727141 0.0438309274146231 1.3460818567098107 255 255 255
0.1377352077434867 0.2277848784388625 1.4157804824987654 255 255 255
0.1097057655676366 0.1254927550023026 1.5902582430944221 255 255 255
-13.2327494814775051 2.5619684868092940 -5.0376525015750486 255 255 255
0.1263069744971208 -0.0303902764370207 1.3720735046022976 255 255 255
0.1848112824298000 0.2200118276050240 1.3729812689112530 255 255 255
0.2067622280206036 0.2093756195070101 1.5758598624355122 255 255 255
0.2188493758453773 0.3375281087369486 1.5682077193180590 255 255 255
-15.0711542857917635 4.2880880952062750 -5.6154407570052687 255 255 255
-0.4456701929491733 0.2849913018983958 1.8004015702268890 255 255 255
-26.5203001690849831 4.4481938148484987 -9.9886261638833993 255 255 255
-17.7050851724895786 2.6966923022258618 -5.9627071142819865 255 255 255
-26.9566884763624337 4.2201331610491923 -8.8921133773495455 255 255 255
-33.2018410533406580 6.8113575965295627 -9.4187642532241540 255 255 255
-0.0808924353168840 -0.2058043489570927 1.1486137075467620 255 255 255
-0.0796148341666075 -0.2020730773394814 1.1646502122569045 255 255 255
-0.0694459357822479 -0.1831539767328197 1.1394606053522160 255 255 255
-0.0713590336893813 -0.1722033151690936 1.1525707947762025 255 255 255
0.1840355888307787 -0.2223842078453889 1.1969209602635233 255 255 255
0.1928560764061770 -0.2173168984490419 1.1979758419041520 255 255 255
0.1993573671669860 -0.2123685842969286 1.2010329828442461 255 255 255
0.1859633321127176 -0.1886983460809874 1.1690191896523505 255 255 255
0.1771292604125476 -0.2981856279523443 1.3939795105153781 255 255 255
0.1690068679374398 -0.3045067727185018 1.4090628978894741 255 255 255
0.1651823935379713 -0.3098070692014176 1.4200469453126348 255 255 255
0.1585724499030479 -0.3136742844695374 1.4350812961114663 255 255 255
0.1713382939906443 -0.3022120179844889 1.4153056142569689 255 255 255
0.1751233835475007 -0.2972814805575751 1.4098375949283684 255 255 255
0.1973563150490560 -0.1937536540991077 1.2299803101125464 255 255 255
0.2004338583811223 -0.1694042151388470 1.2069561395089003 255 255 255
0.1686274129260325 -0.2934281441335860 1.4273377509038288 255 255 255
0.1752195626892376 -0.2835555193824561 1.4125226407716789 255 255 255
0.2020545545541730 -0.1769837148803788 1.2271229069413092 255 255 255
0.1686915406791619 -0.2820763688249507 1.4322159489570305 255 255 255
0.1206399178900498 -0.1936132811513563 1.3164271510537460 255 255 255
0.1242391864932899 -0.1866214005458625 1.3195629388817249 255 255 255
0.1719960980396828 -0.2651563420101881 1.4299676216693542 255 255 255
0.1237518939697707 -0.1796136407668623 1.3252906007734897 255 255 255
0.1266327530719801 -0.1741405338565567 1.3205541199628106 255 255 255
0.1155134949690902 -0.1516021605739026 1.3078564011533875 255 255 255
0.1939474181948385 -0.1308694270795680 1.2343387728863895 255 255 255
0.1215021250474943 -0.1689796804975121 1.3378561052845159 255 255 255
0.1857295629821636 -0.1166906936533053 1.2213680647098326 255 255 255
0.1250645206546098 -0.1226275471072658 1.2810249601617512 255 255 255
0.1242323307494371 -0.1601240543389570 1.3389412791166280 255 255 255
0.1102204858718985 -0.1745783895800034 1.3692428063975979 255 255 255
0.1836819879946704 -0.1184409883380357 1.2493638810577352 255 255 255
0.1724306467075612 -0.2354752669973312 1.4326938769957862 255 255 255
0.1365882858412738 -0.1125230408181563 1.2710447104379714 255 255 255
0.1296308374415900 -0.1284664373941033 1.3018465843818234 255 255 255
0.1852407827775907 -0.1135616039920734 1.2544854813299982 255 255 255
0.1980981901730357 -0.1066542988903115 1.2382185227572853 255 255 255
0.1220919683116756 -0.1426861894942902 1.3381586732582587 255 255 255
0.1355439732911486 -0.1209331060457940 1.3009168496696650 255 255 255
0.1327236414209178 -0.1225450594993223 1.3090572807402743 255 255 255
0.1837068954572092 -0.1027990628574782 1.2531353042143276 255 255 255
0.1406446487507238 -0.1149193718472666 1.2965757863326024 255 255 255
0.1881885326233678 -0.0984216813803956 1.2463842770747673 255 255 255
0.1637528206925310 -0.2096622679944410 1.4271393479466361 255 255 255
0.1433632852820628 -0.1026692820382712 1.2832236431190462 255 255 255
0.1387007836263242 -0.1164247630923602 1.3077267831399038 255 255 255
0.1731539967909765 -0.0994288741475018 1.2659458185056012 255 255 255
0.1324315037317373 -0.1470072807057233 1.3616970495491350 255 255 255
0.1973146815181929 -0.0918407353763123 1.2470401750041005 255 255 255
0.1740960147235188 -0.2034001542331336 1.4279420465921311 255 255 255
0.1691652499344715 -0.0931191973332259 1.2719804105035701 255 255 255
0.1316411800022713 -0.1437860643461671 1.3702003475539863 255 255 255
0.1858666760095081 -0.0877887078922416 1.2601241541285306 255 255 255
0.1943980114924476 -0.0849220221940157 1.2523483979111401 255 255 255
0.1640201082455360 -0.1896446438829170 1.4267723642503409 255 255 255
0.2098732958853096 -0.0725280654902685 1.2269961640741720 255 255 255
0.1306382520312585 -0.1409630369890685 1.3785685907448084 255 255 255
0.1624986222624527 -0.1978107465755617 1.4464999586404113 255 255 255
0.1981882086244851 -0.0737354963308538 1.2465685555952744 255 255 255
0.1631528685852839 -0.1888419067143639 1.4346560505586665 255 255 255
0.1721463597432669 -0.2041164387821571 1.4553304662612054 255 255 255
0.1958811636023743 -0.0716911779463831 1.2593037984568503 255 255 255
0.1496716923761144 -0.1761437708718449 1.4428654003348442 255 255 255
0.1607993329262392 -0.1786176128166403 1.4607447732277794 255 255 255
0.1930508741229408 -0.0534085457783094 1.2671859118268136 255 255 255
0.1255948648230517 -0.0932705184976237 1.3801221104297134 255 255 255
0.1354567728724107 -0.0520617969559480 1.3267211462813020 255 255 255
0.1358927967559132 -0.0961184760538867 1.3933248298712053 255 255 255
0.1399082843015267 -0.0386332460682464 1.3210748188963388 255 255 255
0.1807126892886160 -0.0301592696221130 1.2860604397620603 255 255 255
0.1871838357260479 -0.0277254642455940 1.2817048608160406 255 255 255
0.1614173670544678 -0.1503886629485647 1.4673115221674804 255 255 255
0.1391031623359387 -0.0333800555963699 1.3254341260470230 255 255 255
0.1298654509808057 -0.0449406967033638 1.3586632055438210 255 255 255
0.1232704497764075 -0.0690303230234843 1.4009529509990393 255 255 255
0.1766348488715276 -0.0172088364194660 1.2973764733415210 255 255 255
0.1268459455253363 -0.0511619888862608 1.3810322874736731 255 255 255
0.1880006055552741 -0.0091047375926194 1.2863172582140197 255 255 255
0.1583611098650671 -0.1334462387589332 1.4837243887532601 255 255 255
0.1891336934069197 -0.0004655861650754 1.2896274990932686 255 255 255
0.1304369761167120 -0.0239946491339965 1.3630928450507533 255 255 255
0.1225997744852478 -0.0388864355606247 1.3882754868772433 255 255 255
0.1772559123396691 -0.0015769323442135 1.3022664159003252 255 255 255
0.1206776799574938 -0.0514038861282020 1.4081460887035397 255 255 255
0.1682301021944239 -0.1247112213481389 1.4729325714185246 255 255 255
0.1958973329634716 0.0221667523549060 1.2734823377913227 255 255 255
0.1209923272464376 -0.0362372376588020 1.4028522721384242 255 255 255
0.1236466697019035 -0.0203759575343917 1.3890488789465922 255 255 255
0.1300330047847675 0.0107334025667204 1.3484940894982735 255 255 255
0.1276755766947491 0.0001765748571601 1.3678902615541109 255 255 255
0.1295837824086462 0.0097500805137119 1.3576482831914749 255 255 255
0.1268764436431443 -0.0224529365905164 1.3991258061476206 255 255 255
0.1681898697220852 0.0241978720938168 1.3180909422354881 255 255 255
0.1288392520037042 0.0178585153506326 1.3618304250119635 255 255 255
0.1255413085977030 0.0006110623903930 1.3879034574056131 255 255 255
0.1227813299409727 0.0224354110781197 1.3725551153080582 255 255 255
0.1302876313436486 -0.0152059173197862 1.4205378811989511 255 255 255
0.1333365797616239 0.0399319436447387 1.3537416811511256 255 255 255
0.1831935210538310 0.0475506481501967 1.3142441571592043 255 255 255
0.1275836754561719 0.0206318180922714 1.3889517422540685 255 255 255
0.1246460308908041 0.0161338111280400 1.3987382840801095 255 255 255
0.1032989014463409 0.0455957563653073 1.3859638432896673 255 255 255
0.0803000970152763 0.1582625714755961 1.2723050894909331 255 255 255
0.1318193168083680 -0.0186987306784719 1.4527219147396000 255 255 255
0.1262929573969952 0.0217284107294505 1.4129660307198377 255 255 255
0.1626901044425097 -0.0663631076624991 1.5037945447555952 255 255 255
0.1599661681669848 -0.0700624740982518 1.5092464591604229 255 255 255
0.1242032855546627 0.0363483253708020 1.4147528553706927 255 255 255
0.1178065869664942 0.0351332916807114 1.4307411341444332 255 255 255
0.1290670269318585 0.0807795545809678 1.3700998965745854 255 255 255
0.1285290406026705 0.0668338278166408 1.3995912364017835 255 255 255
0.1291631422829842 0.0562717893082338 1.4209413032795817 255 255 255
0.1322349454676957 0.1016526301463408 1.3686184145869142 255 255 255
0.1272464986546835 0.0707517607432936 1.4094801653326368 255 255 255
0.1615793268644845 -0.0403156540970166 1.5159097276684292 255 255 255
0.1528725159423311 0.1086924582639299 1.3561033493532424 255 255 255
0.1599300420613101 -0.0392345018252009 1.5241704417387629 255 255 255
0.1239727269188855 0.0794315573331766 1.4251578859320029 255 255 255
0.1630801045565049 -0.0233269946858257 1.5123930907529557 255 255 255
0.1829492751033131 0.1221233469500042 1.3329389385945976 255 255 255
0.1305137993459521 0.1216247019588707 1.3786676963858067 255 255 255
0.1232856530698234 0.1124371404460928 1.3921213903614260 255 255 255
0.1584949502269648 -0.0296377972903596 1.5292838913280529 255 255 255
0.1544944130003387 -0.0323877966620961 1.5352358562251192 255 255 255
0.1228418177330001 0.0662470923307572 1.4540862695618717 255 255 255
-0.6132370943373595 0.3157277424129531 1.7768760009247184 255 255 255
0.1834698336317069 0.1299291889045797 1.3395275470750581 255 255 255
0.1088979195815443 0.1169973272511054 1.4135512588892443 255 255 255
0.1234742115448001 0.0957111925097646 1.4399759310954146 255 255 255
0.1338218655870461 0.0525674572794531 1.4874481862224387 255 255 255
0.1791518151473799 0.1528792856217438 1.3506563099927960 255 255 255
0.1373583329295421 0.1446552750703692 1.3955129274499649 255 255 255
0.1352365728427924 0.1325641376364294 1.4173712509435257 255 255 255
0.1235155991975749 0.1181217107518333 1.4379992118348210 255 255 255
0.1182738090768757 0.1032040545397875 1.4624336845206469 255 255 255
0.1260378261993420 0.1275899287784298 1.4430026209274833 255 255 255
0.1773770946430988 0.1736326318371082 1.3666572208341043 255 255 255
0.1313093720258292 0.1814167185429427 1.4006316620081367 255 255 255
0.1824021409184966 0.1774669950537852 1.3615554177535101 255 255 255
0.1791163003396414 0.1835546316864770 1.3696507863724638 255 255 255
0.1269287478522528 0.1560316993196353 1.4468294531967190 255 255 255
0.1616363013935982 0.0414423907506949 1.5481850356729372 255 255 255
0.1612511891094575 0.0508718374655843 1.5562862148305061 255 255 255
0.1356167068750416 0.2997963484854386 1.3253922686536450 255 255 255
0.1193380172269296 0.1576295955365641 1.4864437962394175 255 255 255
0.1175943405901706 0.1982602995243560 1.4446755723214719 255 255 255
0.1780990741709427 0.2156920073688579 1.3777024834266700 255 255 255
0.1262397186649069 0.1771512324153431 1.4705175841119675 255 255 255
0.1614002836590740 0.0635056806556345 1.5558575400667689 255 255 255
0.1749421903502304 0.2427620574288106 1.3663458335256708 255 255 255
0.1072565733473061 0.2123882200415838 1.4573541816165483 255 255 255
0.1478346739066423 0.0928907424728499 1.5441257397177084 255 255 255
0.1631024602457875 0.0737846762490121 1.5542782457377364 255 255 255
0.1816775512589418 0.2448875038856342 1.3742534011709155 255 255 255
0.1315086998615196 0.2281949639298940 1.4383572396015027 255 255 255
0.1626266757291586 0.2493607682442038 1.4077496523412316 255 255 255
0.1831115669018311 0.2562145103261916 1.3843980267414597 255 255 255
0.1205806390969123 0.1985553346030084 1.5007224677077031 255 255 255
0.1733654012581375 0.3755854367163138 1.2845885555175307 255 255 255
0.1266833704046525 0.2039287523878850 1.5027666116989091 255 255 255
0.1582966326002043 0.2426739834020180 1.4468021576687462 255 255 255
0.1450032632029012 0.2208832047239729 1.4837874525550327 255 255 255
0.1272501633068261 0.1969822873234959 1.5225618220219099 255 255 255
0.1959142912713835 0.2803366522198363 1.3796053642270492 255 255 255
0.1627878539917650 0.1308458432339359 1.5606780116209400 255 255 255
0.1605339697407873 0.1147198356001910 1.5793620790376095 255 255 255
0.2033083042524430 0.3003254344055160 1.3661969273655601 255 255 255
0.1416952714621164 0.2080555387971955 1.5109847665960097 255 255 255
0.1623346397511402 0.1289434517407275 1.5701094476730639 255 255 255
0.1676565849101521 0.2241380932390195 1.4747856792944580 255 255 255
0.2094435711741311 0.2895382806227709 1.3785970170897541 255 255 255
0.1518022462272818 0.2077726250157363 1.5172559134267070 255 255 255
0.1404867992315107 0.1967740688744502 1.5378397468510658 255 255 255
0.1754573621755718 0.2205346872689454 1.4863001130951761 255 255 255
0.1636881015046876 0.2151470811820721 1.5122557630236921 255 255 255
0.2061122614157166 0.2809023802866559 1.4097554769858771 255 255 255
0.1573273499885779 0.2075912568959442 1.5240770797266656 255 255 255
0.1923218775413002 0.2365915530034670 1.4668151258840283 255 255 255
0.1769609664162405 0.2175447704365446 1.5007589815321616 255 255 255
0.1824820586871898 0.2244522337660831 1.4923994723243121 255 255 255
0.1573462314893179 0.1444102508567331 1.5926538723986252 255 255 255
0.2212932812510338 0.3951435094919428 1.2977423008177411 255 255 255
0.2133513740038046 0.2576465864630873 1.4364395582144711 255 255 255
0.1802792541622546 0.2234643629544732 1.5053468715355089 255 255 255
0.1625420087073916 0.1618351415520630 1.5800259458094816 255 255 255
0.1956198208394554 0.2252337615122322 1.4903771877417036 255 255 255
0.1718768546135928 0.2061945824919486 1.5329923739993978 255 255 255
0.2074692945100681 0.3389245580767143 1.3756195599016201 255 255 255
0.1687165836234217 0.2044128372057671 1.5423281305222738 255 255 255
0.1310973043184719 0.1663639366643766 1.6144144020867528 255 255 255
0.2336338443265251 0.3799294566408972 1.3227994410855834 255 255 255
0.2326104878672697 0.3957469414159614 1.3148786519317948 255 255 255
0.1542319447510045 0.1580658631179098 1.6076360245356391 255 255 255
0.1792208212894322 0.2079237291491277 1.5409712508554159 255 255 255
0.2323229509476034 0.3824726717726997 1.3339696548989386 255 255 255
0.2265389481461186 0.3567643916037063 1.3653838232193027 255 255 255
0.2374375937818516 0.3927354728462716 1.3257679604745811 255 255 255
0.1925507993216262 0.2430239544378213 1.5055609945502604 255 255 255
0.2297633978062783 0.3041532596858930 1.4143493627005908 255 255 255
0.2064981419310982 0.2404706971839847 1.4988180376686715 255 255 255
0.1148834511567622 0.1539760532813852 1.6669298177631606 255 255 255
0.2311737022979470 0.2795883480476232 1.4543926132141733 255 255 255
0.1610150304329606 0.1629730879008645 1.6278034345129548 255 255 255
0.1345803663286875 0.1529434941507275 1.6625557075150004 255 255 255
0.2344340346158010 0.3913696141639090 1.3656720101457367 255 255 255
0.1534842303692180 0.1625168684345050 1.6478904441804845 255 255 255
0.2141787384347448 0.2405733683621592 1.5297779675166165 255 255 255
0.2217272326938658 0.2468846463544741 1.5246424283051121 255 255 255
0.1833974558153413 0.1777213613020270 1.6238393475600095 255 255 255
0.2028849892424247 0.1906356477914977 1.5989612181402524 255 255 255
0.2233011494330605 0.2757717477270446 1.5074305014257505 255 255 255
0.1951144808961331 0.1874301719743366 1.6149894889738738 255 255 255
0.2256005442995661 0.3147045389304910 1.4812748980855528 255 255 255
0.2331452385782264 0.3913589771663339 1.4109376803670217 255 255 255
0.1964816939193741 0.2119906311802333 1.6054504163761083 255 255 255
0.1555153030370595 0.1712925384551219 1.6824799607648613 255 255 255
0.2364514348716052 0.3441293022951101 1.4637562361690282 255 255 255
0.2118676649221822 0.2233226758773331 1.5911338094440375 255 255 255
0.2088530048333645 0.2006908612939391 1.6112472784682563 255 255 255
0.2039330321702759 0.1912760857454422 1.6234822715630883 255 255 255
0.2284644290760043 0.3004918143380225 1.5096444005624012 255 255 255
0.2572643512701465 0.4763452757845257 1.3427628625354460 255 255 255
-0.0156437331860983 0.2704432841308141 1.7872139102901081 255 255 255
0.2319318172820791 0.3163257617982975 1.5072817179232540 255 255 255
0.2390604715272985 0.3580820679658805 1.4706531629221264 255 255 255
0.2296085122009777 0.3094949757383707 1.5210109274569219 255 255 255
0.2161660529629879 0.2442684725242469 1.5911014243169852 255 255 255
0.2499032721603958 0.4273017793674816 1.4091433331264585 255 255 255
0.2111207160336692 0.2277621354133409 1.6102035280077032 255 255 255
0.2321110561029135 0.3215259217092683 1.5152194622000421 255 255 255
0.2377502720579174 0.3626249913023037 1.4796435773423788 255 255 255
0.2492663922663250 0.4548110228731862 1.3953806426327993 255 255 255
-0.0395134337046501 0.3075132997567427 1.8115555784142106 255 255 255
0.2148442568627429 0.2586073034986714 1.5988359249229418 255 255 255
0.2130728137172520 0.2416698192685313 1.6210457384875214 255 255 255
-0.0451796517526285 0.2504467265720198 1.8746259455100418 255 255 255
0.2746295236327828 0.4570645542430534 1.3843867078830681 255 255 255
0.2422521502486237 0.3609350443069184 1.4989393747755475 255 255 255
0.2407468920057461 0.3559274520179252 1.5074174981483237 255 255 255
0.2183813129658548 0.3059497301802465 1.5765993912051182 255 255 255
0.0735209487087121 0.6061964795640032 1.5127410340378249 255 255 255
0.2133050116562362 0.3349365160308879 1.5646570630769487 255 255 255
0.2073201790594821 0.2698862834986562 1.6236655758129490 255 255 255
0.2239976667442220 0.3159701146602000 1.5738233541025513 255 255 255
0.2193491799830788 0.3023289219079172 1.5889311701290496 255 255 255
0.1989213472963453 0.2564079352184456 1.6473199204359532 255 255 255
0.2517525873960190 0.4231725063807484 1.4658366309726678 255 255 255
0.2538247169258078 0.3875701153474553 1.5088250769688065 255 255 255
0.2115315002803365 0.2952229652089435 1.6393329917887329 255 255 255
0.2083789778178001 0.2738224498447481 1.6779072964058643 255 255 255
0.2214407648577275 0.3046321197191993 1.6568085266107619 255 255 255
0.3551422969900137 0.1252942834065655 1.6280752175997457 255 255 255
0.2087232144847128 0.2813115214188099 1.6990139385245877 255 255 255
0.2147238814853301 0.3184348150347082 1.6681716743410899 255 255 255
0.2373016380516058 0.3434248559665989 1.6427778995256888 255 255 255
0.2166869374744264 0.2738205756280294 1.7157269328387006 255 255 255
0.2143538490560679 0.2921275327177790 1.7309627427338830 255 255 255
0.2223696232426368 0.3153423303184023 1.7195490314036959 255 255 255
-27.1536514519797798 4.2581180517366564 -8.9636822453062805 255 255 255
-36.1126008809095396 5.7310099852323724 -10.9326887378064246 255 255 255
-32.4778113953390886 6.4796758167950754 -12.2395673432795054 255 255 255
-36.3069403534179429 6.3516647533644353 -9.7958156630663602 255 255 255
-57.2612175869566613 11.7918922232021259 -14.4924910605219015 255 255 255
-42.6267574375393110 7.2725566839736944 -7.0439890046183553 255 255 255
-36.7672390036158774 12.8023356411087850 -15.1028662875912385 255 255 255
0.1191389997895755 -0.1797965066487952 1.3006803515191794 255 255 255
0.1223812973823161 -0.1932408356972782 1.3294553204324326 255 255 255
0.1711263763141311 -0.2652622610823073 1.4300983534520271 255 255 255
0.1452095644778915 -0.1349316750322167 1.2614058522666196 255 255 255
0.1522329706031179 -0.2418405984840912 1.4430578343946621 255 255 255
0.1113801771920829 -0.1626978599937554 1.3482541248697111 255 255 255
0.1220242670367713 -0.1452619817556784 1.3269775520238567 255 255 255
0.1418505329698322 -0.1132510499838297 1.2763206755270053 255 255 255
0.1656191388930104 -0.1033065629202251 1.2682044557787056 255 255 255
0.1251589654311208 -0.1434287753868161 1.3514731277514407 255 255 255
0.1353823921820518 -0.1055789862421710 1.3423497751744506 255 255 255
0.1295941210472305 -0.1113794892523631 1.3796266208866210 255 255 255
0.1490846557994880 -0.0439657433079355 1.3724911951766579 255 255 255
0.1629428333949181 -0.0026119660795678 1.3061777731868573 255 255 255
0.1255261621164173 -0.0278417073064712 1.3876409245410728 255 255 255
0.1294138012787332 0.0295699025275616 1.3439232631820435 255 255 255
0.1504241980347974 0.0522551412037960 1.3423443730293649 255 255 255
0.1281168247870628 0.0416320157032450 1.3750435680347470 255 255 255
0.1380946879405746 0.1565927468975116 1.3809470164411812 255 255 255
0.1841597819679202 0.2577153705460444 1.4182404168028613 255 255 255
0.2162886022615327 0.3521637803603446 1.3200081824651295 255 255 255
0.1434769582846856 0.2040034180964676 1.5250784912761237 255 255 255
0.2250845574067850 0.3848360002398115 1.3173726817646378 255 255 255
0.1120575792943430 0.1493840088201888 1.6433569176491767 255 255 255
0.2425829433964735 0.3955703258772402 1.3053896355102692 255 255 255
0.2246590078972559 0.3240409159286700 1.4290366019654925 255 255 255
0.2199270007547267 0.2483566625497341 1.5201775354324711 255 255 255
0.2406993395434035 0.4431388465072916 1.3343532198320065 255 255 255
0.2439099744663310 0.3885397581175373 1.3791168962943343 255 255 255
0.2179937346499947 0.2468205920283658 1.5402807766499480 255 255 255
0.2385721570116838 0.3877114137392496 1.4389838092578948 255 255 255
-0.0766409515295715 0.2582667402940014 1.8731093594942285 255 255 255
0.2347001258075385 0.3584022287171493 1.4974331116509680 255 255 255
-0.0184371215338055 0.2735948420113439 1.8389434177505801 255 255 255
0.2738604277979632 0.4360935651081684 1.4341402211884993 255 255 255
0.0173099533734024 0.2729407926659956 1.8308332025063196 255 255 255
0.0448408521442787 0.2725421117820047 1.8096748146355635 255 255 255
-0.0179820393395005 0.2766357585633047 1.8914923878148977 255 255 255
0.2295094761089852 0.3643611898358307 1.5823929521511293 255 255 255
0.2247542058209773 0.3613416523627471 1.6007838953417717 255 255 255
0.2239898104827054 0.3154177856987780 1.6623184979839620 255 255 255
0.2401540678216117 0.3559009529780016 1.6218785795336019 255 255 255
0.1181311488562498 0.2788282571425652 1.8154261934648881 255 255 255
0.2699633039879349 0.3643978262182918 1.5982810005123347 255 255 255
0.1545565708258057 0.2957855822024483 1.7713916944739241 255 255 255
0.1109481186033422 0.2564145736689530 1.8447620797909068 255 255 255
0.1519038058017704 -0.1936579378526387 1.2261184953052524 255 255 255
0.1766594308383927 -0.2999958700838406 1.4233799899583368 255 255 255
0.1224682711703842 -0.1686526535164317 1.2444516375301220 255 255 255
0.1207689347965874 -0.1388048993244399 1.3115517627918005 255 255 255
0.1542897060470300 -0.1151187419053847 1.2641457980386883 255 255 255
0.1371728859801674 -0.1271201080103086 1.2943584469960343 255 255 255
0.1252019645326955 -0.1458979802678174 1.3373522413407428 255 255 255
0.1408858479043674 -0.1187536174561593 1.3085905459627707 255 255 255
0.1174600434700660 -0.1442619730708600 1.3843611390632791 255 255 255
0.1289281396786139 -0.1412909957247897 1.3785768802465277 255 255 255
0.1468452337324553 -0.0784207163454817 1.2937613416478435 255 255 255
0.1781992442251108 -0.0646106540938651 1.2738611456784739 255 255 255
0.1731028764566599 -0.0564705520320409 1.2830062545091958 255 255 255
0.1552898008675967 -0.1601045388576680 1.4407110091913249 255 255 255
0.1308401777450937 -0.0612497077862107 1.3242331660884805 255 255 255
0.1819132519994736 -0.0482567747361808 1.2837772920035198 255 255 255
0.1194814493852099 -0.0742012723113015 1.3727924937547411 255 255 255
0.1239988680154097 -0.0748435443325905 1.3872493191909385 255 255 255
0.1286109821206988 -0.0642639884500692 1.3806519392032428 255 255 255
0.1063098106500639 0.0183248555307587 1.3602434522390261 255 255 255
0.1306678528997174 0.0147218630701628 1.3720492690625561 255 255 255
0.1655933455456248 0.0412944238591679 1.3222609651066815 255 255 255
0.1307887984340520 0.0514422627282334 1.3804240525783809 255 255 255
0.1287092562768646 0.0680275022577594 1.3684806600807098 255 255 255
0.1289482406878452 0.0502910858076925 1.3917405965443288 255 255 255
0.0436980422260055 0.1745267544019893 1.3838477558074183 255 255 255
0.1310444994958546 0.1088579033312173 1.4065815349311603 255 255 255
0.0926251581033853 0.1118437193145309 1.4389303109113958 255 255 255
0.1275301615376409 0.1320250296550849 1.4062444308040718 255 255 255
0.1221288366938938 0.0997437272893244 1.4629286158167012 255 255 255
0.1285236917636939 0.1603674466062955 1.4198704567211466 255 255 255
0.1794866526768926 0.2193101577752815 1.3781198724330710 255 255 255
0.1103708133643007 0.1018390145131340 1.5913634640892529 255 255 255
0.1195938502131862 0.1972087821818597 1.4915445807291463 255 255 255
0.1396222652062451 0.2198731963108208 1.4760056020049099 255 255 255
0.1341259392921631 0.1569805206396532 1.5696109908708467 255 255 255
0.1771010992102895 0.2285408513383267 1.4658194032558967 255 255 255
0.1558239309468050 0.1627671418364927 1.5883814678986892 255 255 255
0.1695419462833589 0.1714071918894242 1.6477478722634513 255 255 255
0.2039478587401747 0.2476458365072634 1.5697469523638206 255 255 255
0.2200788274902073 0.5854084795390544 1.3000633603423082 255 255 255
0.2158904574996228 0.2614766096126678 1.5877320162456923 255 255 255
0.2447138306225856 0.3628606477533984 1.4861422448631345 255 255 255
0.2927426290032087 0.4572359199577001 1.3662431243842579 255 255 255
0.2379049074613189 0.3505905943134298 1.5159053264284421 255 255 255
0.2248504693033840 0.3155176082074805 1.5727306235385454 255 255 255
0.2182866222237771 0.2933837766274452 1.6241659630033591 255 255 255
0.2604919874339294 0.3472202340066159 1.5585715087760783 255 255 255
0.2335140261260870 0.3689079661442232 1.5939211908690989 255 255 255
0.2110399684098663 0.3160181180698908 1.6599258027009574 255 255 255
-32.4083767726732290 5.5816334925079092 -8.5504359433961028 255 255 255
-56.8221512916298011 10.6663760998099146 -14.6176668114891886 255 255 255
-56.2929364545728674 11.4969817461801078 -14.2466685967426869 255 255 255
0.1219248971645549 -0.1461432826845719 1.3279759640037578 255 255 255
0.1257492265295994 -0.1155409969912384 1.4017499711084147 255 255 255
0.1304385671508816 0.0497701454840953 1.3398961959052966 255 255 255
0.1249242189572465 0.0378298808355278 1.4027566012926294 255 255 255
0.1269876681629567 0.0316467110408047 1.4228085376600070 255 255 255
0.1278354443563617 0.0733829970725213 1.3792706016389453 255 255 255
0.1315860323533032 0.2337231706962202 1.4156495877105146 255 255 255
0.1779574613286225 0.2494041134264901 1.4391336669636985 255 255 255
0.1742298037449336 0.2100797103505852 1.5238362934570264 255 255 255
0.2092716454218668 0.2502247056635281 1.4935506495295698 255 255 255
0.1825695890430813 0.1820425120037417 1.5899886883226071 255 255 255
0.2099778436044929 0.3066051109652110 1.4700030497857648 255 255 255
0.2180855394690823 0.2460094114057470 1.5411327003988020 255 255 255
0.2321398761441566 0.3376458807829086 1.4739634367448626 255 255 255
0.2475219950923505 0.4339605167242446 1.3964760218005494 255 255 255
0.1877640024174294 0.1754463473545378 1.6734022705636968 255 255 255
0.2566931446779869 0.4695437520485146 1.3642859045493929 255 255 255
0.2552623887439427 0.4497320858983338 1.4093955231784998 255 255 255
-0.0190390839848104 0.2739414867787980 1.8372159425116854 255 255 255
0.0245910356993020 0.2864165811832945 1.7938712106647401 255 255 255
0.3010830433325082 0.4605102565339636 1.3804092094332265 255 255 255
0.2622098612856357 0.4264098776211988 1.4478748854761898 255 255 255
0.2006494848398355 0.3266054766130470 1.5897167054575227 255 255 255
0.2728352355414070 0.4318447344285898 1.4345693853869224 255 255 255
0.0259759403204855 0.2655345293130286 1.8255955306928158 255 255 255
0.2186177980102579 0.3073459107005594 1.6007807427673166 255 255 255
0.2098187232256957 0.2506942077840218 1.6589550467150296 255 255 255
0.2281334431758269 0.3675126758223689 1.5568642928238421 255 255 255
0.2496782075977491 0.3991693474621405 1.5147859159580492 255 255 255
0.2141683907171380 0.2597528322960125 1.6959778429382348 255 255 255
0.2248286388337115 0.3261604923593597 1.6369661011404344 255 255 255
0.1403211615341908 -0.1179631429521031 1.2815557018025181 255 255 255
0.0944784257763438 -0.1068284568321164 1.4919408612099867 255 255 255
0.1348860990011300 0.0144642094765340 1.3242181345733219 255 255 255
0.1342600660927806 0.0079088540116918 1.3790555153867721 255 255 255
0.1245430470657137 0.0684256398313154 1.3776524440675746 255 255 255
0.1337926920392478 0.0262520546188267 1.4305342147882552 255 255 255
0.1387917460457765 0.0893827923681600 1.3586192123179883 255 255 255
0.1273331234145510 0.1543281346335013 1.4750468099801954 255 255 255
0.2335797868768461 0.4432500821802183 1.3293571081638982 255 255 255
0.1531705938175183 0.3376378131454458 1.5028375942443457 255 255 255
0.0669635071009815 0.1975098376924373 1.7200229198144739 255 255 255
0.2420551413539151 0.3977641436347703 1.4018521401664901 255 255 255
0.2147170687271891 0.2397389662437645 1.5839235312288884 255 255 255
0.1606567109325270 0.2817612499878729 1.3412310663144207 255 255 255
0.0831136308979821 0.1938803509354229 1.5612575430192446 255 255 255
0.1974111261676697 0.2395186956473482 1.4676149007064778 255 255 255
0.2180586644658212 0.3522369970549116 1.3812371609950695 255 255 255
0.2372484858408759 0.3566702743834326 1.5023839240796590 255 255 255
0.1270791765184232 -0.0309209885475754 1.3722825039547917 255 255 255
0.1574849391231300 0.0756317526228204 1.3668064270713460 255 255 255
0.1230269865947023 0.1030136480932190 1.4287212055391567 255 255 255
0.2177170888573880 0.3482072494993846 1.3574688401863859 255 255 255
0.1415240844580338 0.2246345115667150 1.4046975528122549 255 255 255
-17.8262029047983006 1.0993652683386499 0.7313441918720845 255 255 255
-23.3472045395450145 2.3036547936546112 -0.4852038927939152 255 255 255
-26.3950413292557613 3.4837304087107350 0.1426575592779013 255 255 255
0.1643695246465746 -0.2958230186710481 1.3749463160999107 255 255 255
0.2219680255562476 -0.1929869840133227 1.1756034169431406 255 255 255
0.1862616238305411 -0.2956654903502629 1.3992960617263261 255 255 255
0.2119950581951532 -0.1882108356364197 1.1881496564763510 255 255 255
0.2113152985720635 -0.1797372295984426 1.1802621630040149 255 255 255
0.2163863185577216 -0.1728462204707005 1.1931788702896606 255 255 255
0.1100430663735238 -0.1720384736962863 1.3411466891674084 255 255 255
0.1180482647526288 -0.1355669423785826 1.2779858442578100 255 255 255
0.1175218233321373 -0.1401535141243742 1.3030372918169757 255 255 255
0.1320631655131635 -0.1261018517056351 1.2719582360168662 255 255 255
0.1237874548740907 -0.1347780561694963 1.3020105942048177 255 255 255
0.1772886480368449 -0.2190988853838823 1.4348509177876367 255 255 255
0.1929710776099290 -0.0865794243630174 1.1992117921323080 255 255 255
0.2041716794927749 -0.1116147446933936 1.2330379432785783 255 255 255
0.1862692708739569 -0.1099991688987978 1.2473428139460414 255 255 255
0.1441863603599359 -0.1081582653322463 1.2764453012085228 255 255 255
0.1387114183531573 -0.1279327489806555 1.3217205529045970 255 255 255
0.1344268251548306 -0.1398139986057728 1.3490056000825870 255 255 255
0.1413646661277864 -0.1218508297757532 1.3173299460242058 255 255 255
0.1417977413198978 -0.1051329910467080 1.2989393796133164 255 255 255
0.1412725108789338 -0.1250816623439656 1.3378964868713838 255 255 255
0.1405564651870375 -0.1094037597934237 1.3173204397537792 255 255 255
0.1992854149050938 -0.0820859813023121 1.2326336996845466 255 255 255
0.1832106808684319 -0.1945391693700175 1.4474546911732000 255 255 255
0.1999879854135955 -0.0647057816123931 1.2423112889569405 255 255 255
0.1983666318813717 -0.0567322056961729 1.2481881759171440 255 255 255
0.1965516559487438 -0.0570699219942509 1.2556937063213731 255 255 255
0.1299664055747844 -0.0616107435953625 1.3254002653372168 255 255 255
0.1333076924323828 -0.0580611193251362 1.3387755386761258 255 255 255
0.1324593275898639 -0.0593271849614248 1.3459241212273829 255 255 255
0.1390649137113593 -0.1051363376098290 1.4155039853054865 255 255 255
0.1622241565305158 -0.1368231565014863 1.4429326719418647 255 255 255
0.1322117328984668 -0.0426745764654168 1.3315940448187373 255 255 255
0.1307400199777771 -0.0860405714323958 1.4017087777064547 255 255 255
0.1863530743825977 -0.0230177073480781 1.2643208863450845 255 255 255
0.1158730352474168 -0.0611654444644774 1.3912093316537111 255 255 255
0.1290562294713412 -0.0434534310707306 1.3505576678852198 255 255 255
0.1273514551776208 -0.0610953378738096 1.3803023439784829 255 255 255
0.1700013102530711 -0.1319370663771903 1.4556313793721285 255 255 255
0.1306240914842433 -0.0502706096764833 1.3675985642345923 255 255 255
0.1224063182416299 -0.0580563940839283 1.3992042775123632 255 255 255
0.1692557295166232 -0.1204599873488500 1.4631480750717913 255 255 255
0.1679124480667654 -0.1137405575290974 1.4696690676977346 255 255 255
0.1959012157876308 -0.0001550041655317 1.2739022823263977 255 255 255
0.1910976908627190 0.0074006774573121 1.2853227060389023 255 255 255
0.1278206142671497 -0.0071036666914881 1.3821977587466308 255 255 255
0.1252857299465630 -0.0095895832795986 1.3915064195979236 255 255 255
0.1267568204156182 0.0002814291687757 1.3774557710964441 255 255 255
0.1227979752749805 -0.0167639462521630 1.4156354200849164 255 255 255
0.1276133588982861 0.0073312079821816 1.3812784878482258 255 255 255
0.1252127012060418 -0.0111678689456389 1.4285342565489041 255 255 255
0.1675349038967631 -0.0732180125451589 1.4778943762256282 255 255 255
0.1248469286479889 0.0125726274407666 1.4160634995004497 255 255 255
0.1263969332793667 0.0399327665045456 1.3842743854637187 255 255 255
0.1567889123739361 -0.0444499698094233 1.4861385302398122 255 255 255
0.1253738355300928 0.0267292247927764 1.4203658342306196 255 255 255
0.1275211187123806 0.0531183860110237 1.3803350340850093 255 255 255
0.1276123113745822 0.0706114746378646 1.3904205199928346 255 255 255
0.1920185242277139 0.0920396563314555 1.2981455715549477 255 255 255
0.1293806301166829 0.0886191632568648 1.3748303278239573 255 255 255
0.1297666090150388 0.0855360237587573 1.3818455202147837 255 255 255
0.1252620736948865 0.0773781500289992 1.4157343141184642 255 255 255
0.1228652976359780 0.0735463773876393 1.4409741366294131 255 255 255
0.1218598371863779 0.0613572583780836 1.4610336254179943 255 255 255
0.1950868595952678 0.1197383388631338 1.2994254182339582 255 255 255
0.1227786868943173 0.0827213391855953 1.4414571964367542 255 255 255
0.1239937364678115 0.0976577655261502 1.4251418705997754 255 255 255
0.1269070138393431 0.1173524714794746 1.3980192337472990 255 255 255
0.1282183679367107 0.1327019263901255 1.4045536281075626 255 255 255
0.1231691593606630 0.1085920709715432 1.4464393087990590 255 255 255
0.1311019595069963 0.0849558005357072 1.4805582922446645 255 255 255
0.1225597703580813 0.1098107228853636 1.4659016410386989 255 255 255
0.1882088834733274 0.1475208141810238 1.3435182593827404 255 255 255
0.1275178271978778 0.1355320553278526 1.4277726855089337 255 255 255
0.1150924658465354 0.1598320093096018 1.4182062860575542 255 255 255
0.1228929259772441 0.1409190146882333 1.4497111341267697 255 255 255
0.1239325276934182 0.1537038899676072 1.4692351989648207 255 255 255
0.1247193833485412 0.1665756227115018 1.4553988745876707 255 255 255
0.1222123606637997 0.1702687293998106 1.4902791539867077 255 255 255
0.1221828604701270 0.1843272909287724 1.4850015145391016 255 255 255
0.1258395830497131 0.2197949008204049 1.4419251131697981 255 255 255
0.1647901413112239 0.2271393307810123 1.3963137746291676 255 255 255
0.1852061077216512 0.2741356560150899 1.3486190042756294 255 255 255
0.1582708098440582 0.2464211257879192 1.4171205780144092 255 255 255
0.1614600302746350 0.1351295593998385 1.5495345903929969 255 255 255
0.1548601120777322 0.1543464766359550 1.5447648745115294 255 255 255
0.1884055779311394 0.2657268591088915 1.3683606361701939 255 255 255
0.1561836775961002 0.2205135515674905 1.4688256342260435 255 255 255
0.1667134526688556 0.2506049209611639 1.4301473371625975 255 255 255
0.1907056508204607 0.2629061758062059 1.3997455154355529 255 255 255
0.1565620765859388 0.2178533889716750 1.4974957104812257 255 255 255
0.1760042355548158 0.3641193587257653 1.3005389662487887 255 255 255
0.1477083945873589 0.1986499353964419 1.5347874664229573 255 255 255
0.1973840367115679 0.2791891854799554 1.3894202446240762 255 255 255
0.1580757975517490 0.1950544381978528 1.5498992749575702 255 255 255
0.2117866703902726 0.3040024348899777 1.3499091592347634 255 255 255
0.1858080490659326 0.2300931050817328 1.4742392312214119 255 255 255
0.1880142889989165 0.2437953750353155 1.4581828774792172 255 255 255
0.1704275112275452 0.2091486185274311 1.5219866605617101 255 255 255
0.1131873575305327 0.1426514578913516 1.6755013170757616 255 255 255
0.1975064456316153 0.2464639535610512 1.4539648337797759 255 255 255
0.1913043215081797 0.2294596600824526 1.4799442149645663 255 255 255
0.2038155419871641 0.2590401141427970 1.4331749604614299 255 255 255
0.1607545278761562 0.1880045262299287 1.5752118236342412 255 255 255
0.1793219796739904 0.2277761016938589 1.5109465728661462 255 255 255
0.2060828119849285 0.2892918946666358 1.4191327407841268 255 255 255
0.1921264300143712 0.2385333685230344 1.4952250326229655 255 255 255
0.2069350609071486 0.2547007396866752 1.4620872875442483 255 255 255
0.1984012486456284 0.2222578370238474 1.5208790264352681 255 255 255
0.2136600342408325 0.2591375068236707 1.4618047537396397 255 255 255
0.2113324159861683 0.2484913657446705 1.4874138813529971 255 255 255
0.1897820075221401 0.1793829440213267 1.6055726135192747 255 255 255
0.2307871009828751 0.2810159963708000 1.4418001943302179 255 255 255
-0.0727031036664700 0.2688123254151404 1.8646476715724940 255 255 255
0.2304465967012529 0.2952253093186186 1.4317980793519482 255 255 255
0.2359935136983323 0.2668550236845363 1.4663132079983014 255 255 255
0.2308412029191986 0.3594714005436963 1.3761066549358620 255 255 255
0.2316287534976746 0.2858827630634861 1.4862789318166525 255 255 255
0.1897871638902932 0.2014583251579705 1.6352757192549794 255 255 255
0.2304560484998245 0.3791633013785486 1.4031637262141314 255 255 255
0.2408573339589782 0.4391984227442436 1.3482208845704906 255 255 255
0.2601920955029960 0.4486595776915097 1.3141623240162923 255 255 255
0.2254715157193191 0.3007468400684442 1.5255385300538618 255 255 255
0.2370597960645796 0.3827489198740449 1.4262189543511206 255 255 255
0.2462274940167620 0.4217150793885841 1.3821029831039298 255 255 255
0.0327316648185209 0.2943238244493752 1.8185169512104291 255 255 255
0.2246133387620154 0.3204157969131972 1.5319460140711088 255 255 255
0.2565939677052425 0.4509785670094582 1.3797005499592756 255 255 255
0.2468858346291140 0.3861845434840503 1.4724122880594417 255 255 255
0.2600898492051764 0.4586467120591051 1.3830780470969093 255 255 255
0.2522562342989443 0.4017613942512022 1.4559767464186293 255 255 255
0.2505519301829195 0.3944284986699660 1.4826011142993321 255 255 255
0.2239814119546584 0.3389274323828728 1.5805001675408936 255 255 255
0.2272355187493587 0.3438196397122511 1.5739990936602175 255 255 255
0.2104297267841029 0.3116039240740358 1.6490697642663878 255 255 255
0.2862747926843164 0.3861960485001847 1.5462848989112339 255 255 255
0.2405802689758575 0.3366030291373783 1.6631756964457021 255 255 255
0.2155400233297495 0.3037045978128212 1.7653671215447111 255 255 255
-17.0173282301975810 1.3620097938575606 0.1405844561759334 255 255 255
-31.3194743498179236 3.8526622513156052 -0.5740684576849825 255 255 255
0.2049094980991560 -0.1948929646335164 1.2115811571543289 255 255 255
0.1022420001494774 -0.1742641666480415 1.3563304152354054 255 255 255
0.1658363266250041 -0.1952950047201909 1.4145930172806218 255 255 255
0.1289443814629224 -0.0683831505621675 1.3532802604343708 255 255 255
0.1256471222037525 -0.0095782423755653 1.3918803516468645 255 255 255
0.1533766861760615 0.1094925840945528 1.3561200058307048 255 255 255
0.1192062862900361 0.1400615447695011 1.4786882970090589 255 255 255
-0.3383277401371594 0.2618516755688208 1.8977736420415539 255 255 255
0.1176075114988734 0.1746489832132138 1.4801151855857106 255 255 255
0.1148812530350486 0.1627776011194309 1.5113343211649630 255 255 255
0.1668268180783315 0.3996467304134614 1.2619610996982775 255 255 255
0.1768991034348178 0.2209505496380575 1.5109735125199752 255 255 255
0.1706740853149151 0.2038148465754885 1.5409337056075942 255 255 255
0.2324327576446998 0.3470890196992009 1.3436731568167768 255 255 255
0.2272818082289679 0.2643575000918703 1.4565384977330402 255 255 255
0.2098320908723939 0.2082746593715362 1.5765527567554252 255 255 255
0.2282136839675143 0.2774217218761219 1.4923073136215781 255 255 255
0.2405235333018900 0.3101121313113203 1.4447449766974871 255 255 255
0.2168912323513156 0.3676505290290117 1.4274169123496059 255 255 255
0.2150234676145195 0.2858281507056057 1.5832861057769918 255 255 255
0.3011819098461901 0.4557050676721776 1.3795251002200966 255 255 255
0.2113147677969685 0.2946389304886094 1.7031060484146108 255 255 255
0.2323597763376668 0.3606718055746955 1.6140531362144102 255 255 255
0.2265028259754325 0.3423965900642691 1.6531208080542321 255 255 255
0.2260377915042427 0.3394006111430034 1.6738744017652227 255 255 255
0.2100326037980285 -0.1876805895427213 1.2010916781643917 255 255 255
0.1978179200727635 -0.1825280134094395 1.2251100368492398 255 255 255
0.2055293664463127 -0.1728138077890262 1.2095178127225370 255 255 255
0.1065421528396552 -0.1550949687387039 1.3181056912677542 255 255 255
0.1081948860130548 -0.1728980286001459 1.3691083926534713 255 255 255
0.1194462478224245 -0.1646426249328912 1.3730170874781866 255 255 255
0.1295790655858376 -0.1387797809052669 1.3246976274025921 255 255 255
0.1603968109474240 -0.1963720848485566 1.4268806602210875 255 255 255
0.1278281414381350 -0.1416268283690726 1.3673940716018453 255 255 255
0.1427493797970913 -0.1073831651882867 1.3847234635831276 255 255 255
0.1219325716118562 -0.0813546696127121 1.4008662601955368 255 255 255
0.1326110117090629 -0.0245001923057260 1.3611093025195447 255 255 255
0.1229703816153532 -0.0393862750519425 1.4119579622141702 255 255 255
0.1283831651179690 0.0267364608624996 1.3828671215084565 255 255 255
0.1868437905140951 0.0876867143602130 1.3367131137657777 255 255 255
0.1369696282002622 0.0397604109986172 1.4685694683693535 255 255 255
0.1219472673761344 0.1136854429119075 1.4567812319619649 255 255 255
0.1230909993326919 0.1409236061976173 1.4685567618134283 255 255 255
0.1324871828994099 0.1096687009430698 1.5152197617566769 255 255 255
0.1226965838395615 0.1794444393394639 1.4593199125093861 255 255 255
0.1208103238249464 0.1780769154457865 1.5049382077564439 255 255 255
0.1257184815933658 0.2079803982975273 1.4637293069594322 255 255 255
0.0305638817219060 0.1563556015157930 1.6796846683502527 255 255 255
0.1430297958661558 0.2308076164868451 1.4465044744033226 255 255 255
0.1275639502342384 0.1967933045385629 1.5207234674375156 255 255 255
0.1530458257056901 0.3729815818588532 1.2881250230767067 255 255 255
0.1725931740900049 0.2522456333404179 1.4138119995578948 255 255 255
0.1460851001522439 0.1432016271165160 1.5846872274604644 255 255 255
0.1436746363349871 0.1844714345929178 1.5460311410810970 255 255 255
0.1902127353255411 0.2641905623184865 1.3983676405523713 255 255 255
0.1697692384683880 0.2220466914390071 1.4883051003360379 255 255 255
0.1833302891898797 0.2239824580079174 1.4915067537640194 255 255 255
0.1659270375328828 0.1770163508635831 1.5803437081196403 255 255 255
0.1653353084834592 0.1625452326976621 1.6081250480924714 255 255 255
0.2047619289955499 0.2024166741954642 1.5209989698620734 255 255 255
0.2187063231661106 0.2961558687546653 1.4426114460693009 255 255 255
0.2281647877812709 0.2856739859565509 1.5019491869997839 255 255 255
0.2159696926316362 0.2691660510987076 1.5579162401681590 255 255 255
0.2177529410768862 0.1963740925282359 1.6398453592744331 255 255 255
0.2428288898306705 0.4768764047843382 1.3422415564841845 255 255 255
0.2339995733651627 0.3401803394848621 1.5093964303379281 255 255 255
0.2210539491336042 0.3035751804708138 1.6000997481727419 255 255 255
0.2722141073601688 0.4576493107886680 1.3839508388561188 255 255 255
0.2510375906608197 0.3924334117240497 1.4815452000274565 255 255 255
0.2259218546801380 0.3169941687253917 1.5992057533628539 255 255 255
0.2445879135009756 0.3903333323314192 1.5219265780333813 255 255 255
0.2422681337264042 0.3930104021125427 1.5378922237633250 255 255 255
0.2167490877007073 0.3131673241471492 1.6707578617848462 255 255 255
0.2307669124757795 0.3495675797099481 1.6379829510262691 255 255 255
-37.7713544484881183 4.6820943868886795 -0.9288336416654707 255 255 255
0.1115723316442656 -0.1636491407189340 1.3482052397073632 255 255 255
0.1081356226942360 -0.1734183744132136 1.3699478210091822 255 255 255
0.1148388180628231 -0.1623623781794839 1.3648930656952956 255 255 255
0.1309244050414813 -0.1388185365621018 1.3107413122572220 255 255 255
0.1284982335102983 -0.1434634994712300 1.3565491959899727 255 255 255
0.1354162801715053 -0.1290542047199280 1.3623169473836068 255 255 255
0.1571741337687045 -0.0710145098532750 1.2748295680832584 255 255 255
0.1354333176888584 -0.0579354582168258 1.3349087841605896 255 255 255
0.1273902837977561 -0.0320266863371920 1.3714163973786833 255 255 255
0.1256252558161637 -0.0294291712155720 1.3887958015275774 255 255 255
0.1350053951996887 0.0120809277514442 1.3237787875961120 255 255 255
0.1377253831890881 0.0678842450534047 1.4861041815036693 255 255 255
