ply
format ascii 1.0
element vertex 684
property double x
property double y
property double z
property uchar red
property uchar green
property uchar blue
end_header
0.0346607182397927 0.3772288202688864 1.2751690731453533 255 255 255
-0.1180282307067994 0.3785385817727180 1.2742093869382847 255 255 255
-0.0369886924408263 0.3780218210497895 1.2642053520285854 255 255 255
-0.0180527012237414 0.3824785061573495 1.2669300845052485 255 255 255
-0.0513352453502971 0.3867956768253754 1.2571190980209539 255 255 255
-0.1560280739744732 0.4442154857767323 1.2480462697133221 255 255 255
-0.0856224650509012 0.4450973663700756 1.2394184916972577 255 255 255
-0.1673410394796844 0.4495315403528887 1.2340940360248813 255 255 255
0.1968017939902121 0.4619321209666225 1.2367000783453059 255 255 255
0.0961378496799287 0.4705764155050440 1.2328878070509028 255 255 255
-0.0643106133932765 0.4689238657508982 1.2210903090623313 255 255 255
-0.1508347194037788 0.4692749087044184 1.2153766403273585 255 255 255
-0.0750753752764654 0.4884753296414306 1.2212649531873214 255 255 255
-0.0957483622433698 0.4875183326423534 1.1857090603009970 255 255 255
-0.9810428968189722 -1.4104120651067982 4.0672106859623707 255 255 255
-1.1552420786369055 -1.4315187004946306 4.1464167725100216 255 255 255
-1.0721287215503774 -1.3822589313693654 4.1403564311371719 255 255 255
-1.6408783445309545 -1.4065413236348940 4.4516427888291155 255 255 255
1.7346138172436996 -1.4575739370809915 6.1133796684977222 255 255 255
0.0853586416746055 -0.1913840210350623 1.2347378976788645 255 255 255
0.0499765705267999 -0.1409611848467973 1.2099952910231826 255 255 255
0.0687365671440852 -0.1124678356884395 1.1953451936969235 255 255 255
0.0905708043755887 -0.1112782504417689 1.1890070818358993 255 255 255
-0.0380779058307892 -0.0911640589130279 1.1853269616181790 255 255 255
-0.0691937317814874 -0.0605140115511303 1.1921286668783810 255 255 255
-0.0151269932566853 -0.0348361917363318 1.2041743484747853 255 255 255
0.0878468565842567 -0.0285960897139663 1.2190685204220959 255 255 255
0.0329484764858557 0.1338015043891891 1.2821275688311669 255 255 255
-0.0912526879958272 0.1438716681861222 1.2752046294226984 255 255 255
-0.0522954558147196 0.1688409742025256 1.2976129304609472 255 255 255
-0.0492268230436532 0.2039017191632259 1.3164773606066740 255 255 255
0.0711578981459370 0.2389268777961273 1.3359395003163679 255 255 255
-0.0325206041527543 0.2713531283665466 1.3428446760152191 255 255 255
0.0746013022512664 0.2814194607193528 1.3407524431958253 255 255 255
0.0316235004415429 0.3126537864375267 1.3217954447551743 255 255 255
0.0552764647110219 0.3099152069713786 1.3177543043746485 255 255 255
0.1123550232911049 0.3159953686642715 1.3058410385227472 255 255 255
-0.0008638149338208 0.3222932773036329 1.3051191462809941 255 255 255
0.0261098414929830 0.3274593023933580 1.3017442284702592 255 255 255
0.0631733802312933 0.3361117503187803 1.3078474004026368 255 255 255
0.0963304908027054 0.3422389778666007 1.3070671272682712 255 255 255
0.1495645991000383 0.3447640671029841 1.2953368465107760 255 255 255
-0.0617223349109132 0.3601045274122753 1.2852272943428564 255 255 255
-0.0370107884602775 0.3596353959948642 1.2790358978006848 255 255 255
-0.0121099797925817 0.3689605004612275 1.2816743440268974 255 255 255
-0.2688587119997675 0.3775333387044730 1.3062087489593421 255 255 255
-0.2168655785612230 0.3806614443161043 1.2869335812618363 255 255 255
0.0157896946474758 0.3875872216346056 1.2739369597297971 255 255 255
-0.2854144143632980 0.4013377921631169 1.3115379746582123 255 255 255
-0.3174659090614488 0.4105530727888947 1.3450097221646431 255 255 255
0.1782440116569591 0.4091141510228142 1.2653805525493991 255 255 255
-0.2984508589534020 0.4176712975037404 1.2966912450599855 255 255 255
0.1161697396274950 0.4114062670600678 1.2395836427018183 255 255 255
-0.2461977420671834 0.4183230107768515 1.2788372470990319 255 255 255
-0.0022901988439953 0.4254369101059955 1.2636496154147399 255 255 255
-0.1711295297763212 0.4282570067524609 1.2535157419243137 255 255 255
-0.2435039990339697 0.4369751434442902 1.2509668194370089 255 255 255
0.1197978362364270 0.4425717733440846 1.2536970187221645 255 255 255
0.0182396584947960 0.4491959305737278 1.2650414646622890 255 255 255
-0.2033505916832070 0.4437572449045304 1.2390735330519309 255 255 255
-0.0429937412963112 0.4478615513160897 1.2402542383732986 255 255 255
0.2162044918773589 0.4477287742342519 1.2334543591461857 255 255 255
-0.0702764736736492 0.4548470936244278 1.2367361340897796 255 255 255
-0.2920759647713039 0.4596525027691734 1.2143278556467532 255 255 255
-0.1273434996805702 0.4617584603080536 1.2185065490416924 255 255 255
-0.0210316316440663 0.4713332358177165 1.2270937208820680 255 255 255
-0.1810892135234914 0.4760648415060175 1.2339312235423598 255 255 255
0.0620443587111701 0.4763548729742296 1.2269831429700260 255 255 255
0.1071770897312165 0.4839723892428291 1.2402753043644452 255 255 255
0.1629154333058943 0.4862139176785245 1.2345959706899676 255 255 255
-0.3425911242277390 0.4765965155429612 1.2104391906751397 255 255 255
0.2115791195550202 0.4950415952338353 1.2349362680028539 255 255 255
0.1425404658242393 0.5070053098558114 1.2533441557439731 255 255 255
0.1817009485476499 0.5001430296399627 1.2388411545975666 255 255 255
-0.3699646418392631 0.4954460419736390 1.2187021331723034 255 255 255
-0.0429047147025972 0.5020283372327052 1.2299072920670333 255 255 255
0.1216073728203104 0.5152738336818212 1.2366944672101725 255 255 255
-0.0790074313310405 0.5143416243340572 1.2257734719440470 255 255 255
-0.2990796369013634 0.5074041882724516 1.2058320209686038 255 255 255
-0.1445444427951179 0.5129757322746369 1.2146599248645329 255 255 255
0.1651612192857200 0.5228577395594397 1.2262349612697732 255 255 255
-0.3463889909152074 0.5145411730740845 1.2040014293494601 255 255 255
0.1350608267304478 0.5406657819966368 1.2646586964564746 255 255 255
-0.2727168222621961 0.5210636669639354 1.2025834086255613 255 255 255
-0.0108017944084225 0.5606104738864645 1.2486790556128273 255 255 255
-0.2452611667921534 0.5604385180839413 1.2435589766771395 255 255 255
0.0310074955373318 0.5562002553977063 1.2361957938260906 255 255 255
0.1937687639717409 0.5660333957826077 1.2281619320143489 255 255 255
-0.0942216807660814 -0.1048173494229043 1.1425845227348288 255 255 255
0.0804912274582426 0.2842156367640231 1.3352587595287906 255 255 255
0.0529824854364244 0.3789351471746776 1.2901625949209345 255 255 255
-0.0042410340887775 0.3774762857298968 1.2791762826137134 255 255 255
-0.1221626019838856 0.4147391664369213 1.2587839248546806 255 255 255
-0.2145042094239202 0.4210437190925320 1.2417730598715160 255 255 255
-0.0916856871577305 0.4282033537479240 1.2587974181104027 255 255 255
0.2198529198369634 0.4361278822814032 1.2483915236622305 255 255 255
-0.0645041202459492 0.4468920129414943 1.2298805724311197 255 255 255
-0.2191104778336767 0.4914474179188867 1.1893936921555754 255 255 255
0.0347964959706757 0.5115942656468954 1.2251372041957818 255 255 255
0.1522869375546328 0.5241053554426474 1.2478488153688065 255 255 255
0.1945021683546460 0.5225652876443855 1.2437536963249105 255 255 255
0.1266168028688131 0.5195854425611693 1.2435264588078707 255 255 255
-0.1422210584605890 0.5118684828385789 1.2085902918068179 255 255 255
0.1186949587772710 -0.1249216120957418 1.1781096386938887 255 255 255
0.0345094969591943 -0.0833188872064661 1.1968971736499348 255 255 255
-0.0312164415067908 0.2291380697596983 1.2645987590237917 255 255 255
-0.0115957074306870 0.2841304685851915 1.3154539069362545 255 255 255
-0.0016924173404291 0.4284642330214471 1.2600670597038606 255 255 255
0.0788046725377746 0.4346562598042930 1.2372048660850465 255 255 255
0.0346927546063497 0.4563263189781090 1.2219229838315180 255 255 255
0.2145250646746793 0.4957514899567594 1.2546227908098646 255 255 255
0.1240960786280554 0.4959394494649611 1.2387429558735492 255 255 255
-0.0649739396344812 -0.1240909008299340 1.1848277680723764 255 255 255
-0.1025698217853189 -0.1001553041149428 1.1410027374190275 255 255 255
-0.0099881870141267 0.1985240211421801 1.2928550368999641 255 255 255
0.0184206886989797 0.2325785134252061 1.3093169678889589 255 255 255
-0.0504301835214027 0.3577491403445112 1.2819565263116770 255 255 255
-0.0312031566312103 0.3972838351830997 1.2602023577385078 255 255 255
-0.2191937420292989 0.4357180201337768 1.2897094551599870 255 255 255
0.1211760010662962 0.4671872594097163 1.3041972383239848 255 255 255
-0.0894166088772338 0.4383190981435902 1.1784706487869385 255 255 255
-0.2206610602477663 0.4623211947307586 1.2386056792505973 255 255 255
0.0227481205402458 0.0432668768415089 1.2521611809821325 255 255 255
-0.0504218326674672 0.1684890363839057 1.2945941035486799 255 255 255
0.2842346280169579 -1.2095558434788822 3.8644201171804582 255 255 255
2.2231302386356497 -1.6375191412864136 6.6009535683036331 255 255 255
0.1330721094018797 -0.2028020778839592 1.1084711710710395 255 255 255
0.1008792249718193 -0.1913802938495718 1.1477924047042840 255 255 255
-0.1634294683976615 -0.1899312254722851 1.0446468119196768 255 255 255
0.1351929123161482 -0.1683393318873359 1.1148186256644381 255 255 255
-0.1742234753844504 -0.1684126851878546 1.0793351675183176 255 255 255
-0.0767277814842583 -0.1677461798399558 1.1193426107520810 255 255 255
0.1752989674510712 -0.1252500706593546 1.1366088143700790 255 255 255
0.1217716050796073 -0.1260708127984339 1.1487890847990094 255 255 255
0.1475242845207002 -0.1207875383554279 1.1524859977809028 255 255 255
-0.0032859350196082 -0.1298617729737773 1.1981759702025951 255 255 255
0.1130215571369042 -0.1164709403818584 1.1666963834746493 255 255 255
-0.0128396611877969 -0.1220853765351377 1.2131212374710745 255 255 255
0.1674569700477858 -0.1048069823769594 1.1426107324450445 255 255 255
-0.0169740202419622 -0.1123559375237651 1.1872046563640795 255 255 255
0.0084235498060623 -0.1071352955885206 1.1987735443936298 255 255 255
-0.0120369200324466 -0.1036554754102138 1.1845455183066840 255 255 255
-0.1708644823940430 -0.1050827744517692 1.1004003825756001 255 255 255
0.0137720799023127 -0.0921905824577239 1.1792205118261574 255 255 255
0.0963331935879494 -0.0762680962282569 1.2013439062497206 255 255 255
-0.0166867903280289 -0.0853480633036335 1.1980874186753541 255 255 255
-0.1881063103473325 -0.0857862519246011 1.1073805028033437 255 255 255
-0.1748243043418184 -0.0838772521961856 1.1018975658932102 255 255 255
0.0746264835202170 -0.0660256734914887 1.2020710303931574 255 255 255
-0.1806608956119305 -0.0753240569467146 1.1083095499474096 255 255 255
-0.1867121678828799 -0.0688775089930075 1.1161082309226527 255 255 255
-0.1756033044879155 -0.0621154654604445 1.1075940045882766 255 255 255
0.0491774160459975 -0.0452304948062492 1.2248836642514140 255 255 255
0.0268940442917429 -0.0428285249543036 1.2233865256182741 255 255 255
0.1106455200224882 -0.0290869567713582 1.1955983484933890 255 255 255
-0.1729630350978634 -0.0381879657729519 1.1361021803289282 255 255 255
-0.0100769779620769 -0.0192950507462059 1.2267674311071024 255 255 255
0.0160953389077448 -0.0141072528178537 1.2302548443561943 255 255 255
0.1090476451507938 -0.0058624025857240 1.2049594452058370 255 255 255
0.1040574844525851 0.0033678157833748 1.2145738782160327 255 255 255
-0.1749897165126487 -0.0225772860626505 1.1425497475897695 255 255 255
-0.0176866716676415 0.0195729565979888 1.2258427375395686 255 255 255
-0.0807764446879740 0.0278241715770769 1.1921531222993016 255 255 255
-0.0152459696665652 0.0441928412806443 1.2560355143565196 255 255 255
0.1080284401020617 0.0576034273655699 1.2273961540498104 255 255 255
-0.1686491595648358 0.0301158365502805 1.1418885751789081 255 255 255
-0.1680379857594825 0.0585261599200692 1.1549569545155349 255 255 255
-0.0507572829442628 0.0795629364859616 1.2611383732976653 255 255 255
-0.2219082992594743 0.0664395664085146 1.2822218202617088 255 255 255
-0.1835538005079314 0.0687941598114173 1.1697662331044869 255 255 255
-0.0954963300619838 0.0856052871161215 1.2062726468734535 255 255 255
-0.1930555054593502 0.0822400126911079 1.1808824121042056 255 255 255
-0.0290691568362586 0.1427423716080907 1.2944146255311890 255 255 255
0.1028495833860757 0.1719696695306786 1.2670721850269415 255 255 255
0.0653446155927956 0.1837165228479853 1.2981408068169866 255 255 255
0.0852489437449251 0.2036849646702818 1.3214421253062649 255 255 255
-0.0129228279423732 0.1991939087762688 1.3092926534480931 255 255 255
-0.0119082242200961 0.2083298298927949 1.2927933265435794 255 255 255
-0.3118782060088612 0.2898366618702966 1.4948998127106896 255 255 255
0.1148252763622444 0.3053554386746825 1.3003046042773390 255 255 255
-0.0509704570267017 0.2914599350023881 1.3028665281924885 255 255 255
-0.2999477479382502 0.2959656356473363 1.4545019873559908 255 255 255
0.1394669776231228 0.3271022445714556 1.2946172183676954 255 255 255
-0.1065180526361001 0.3356381951533111 1.2849284678371218 255 255 255
-0.2768913281583871 0.3544244511381987 1.3664478168077914 255 255 255
-0.2090623152417642 0.3545283175068402 1.2924588846512592 255 255 255
0.0332821832171229 0.3758913941668520 1.2757840085093259 255 255 255
-0.2897351097590246 0.3579154161280528 1.3316792864418299 255 255 255
0.0816489395505977 0.3855936185487310 1.2695949735607059 255 255 255
-0.3709110100760875 0.3762480994490957 1.4262835866768853 255 255 255
-0.0935664311982365 0.3755142744348420 1.2782233622276125 255 255 255
0.0279128524413390 0.3920700667903793 1.2705395101283490 255 255 255
-0.0154101767488087 0.3846972264676618 1.2797119716735528 255 255 255
0.1504760107898161 0.4034018243079726 1.2724795694774518 255 255 255
-0.2857606650053526 0.3652766471322516 1.2870365015156964 255 255 255
-0.0341073780004166 0.3949697720621299 1.2533085142636753 255 255 255
-0.3510748686635858 0.3939963501843988 1.3797960423377020 255 255 255
0.1073124690582016 0.4201247835422419 1.2558627852344681 255 255 255
0.1575183148608827 0.4248402481250328 1.2422677608108201 255 255 255
-0.0920883298908908 0.4057299337715449 1.2551274338888891 255 255 255
0.0765138082792375 0.4243855913134064 1.2454178198037231 255 255 255
-0.0193010893263792 0.4155260706209253 1.2519351005083168 255 255 255
0.1226269250119691 0.4280555994788822 1.2165901417914846 255 255 255
-0.4153399854565706 0.4079004127707106 1.3844237177084440 255 255 255
-0.2647424411550707 0.3920853301597323 1.2640974613834774 255 255 255
0.1359010413837611 0.4453074814177487 1.2417467160710371 255 255 255
-0.3344638002328563 0.4162526121685533 1.3314402889994172 255 255 255
0.0179753299943736 0.4398761641034974 1.2428878410163262 255 255 255
0.1795642526110384 0.4607109616725978 1.2370670496383702 255 255 255
-0.0680161666440091 0.4348537638524191 1.2446580523849653 255 255 255
0.0318116858974740 0.4495508462977894 1.2398796213942960 255 255 255
0.1713733359626855 0.4674280289777437 1.2358537891300687 255 255 255
0.1536016937371232 0.4773903463591620 1.2335858765630949 255 255 255
0.0222021456247236 0.4628057504689175 1.2305643880449411 255 255 255
-0.1142283039139569 0.4488677888729219 1.2397024006711383 255 255 255
0.0100741476271375 0.4596537079687547 1.2162601806870978 255 255 255
-0.0026328863195328 0.4727627857554051 1.2264728987162856 255 255 255
0.1389483811945176 0.4884557312349516 1.2291769528675787 255 255 255
-0.0855134945514219 0.4691922019303699 1.2211536916947927 255 255 255
-0.0570469699889097 0.4771526385710996 1.2249074899109884 255 255 255
0.0462283137067992 0.4973383226491719 1.2315319454867306 255 255 255
-0.2403689961971848 0.4636514718017501 1.2121068392822836 255 255 255
-0.2313362031430979 0.4685824740236763 1.2062438585689665 255 255 255
-0.1726877225349508 0.4395332013101332 1.1250958671350986 255 255 255
-0.3916316227588860 0.4627630913432975 1.2366582156468313 255 255 255
-0.2500386086500268 0.4718539469611751 1.2047490024815906 255 255 255
-0.0047903590310941 0.5192059520117880 1.2162943969740319 255 255 255
-0.1827628455823449 0.5034463062909542 1.2039356577099765 255 255 255
0.0696711179815186 0.5664842272655725 1.2214191941629255 255 255 255
-0.2153163762357225 0.5286784429691080 1.1963138822190185 255 255 255
0.0171770580799356 0.5734760657510294 1.2101906043733679 255 255 255
-0.0414989223449094 0.5684652678768959 1.2164566898351461 255 255 255
0.0887321442557080 0.5824364963914904 1.1864340306198153 255 255 255
-0.4140405052278280 0.5480197228352337 1.2323381891876766 255 255 255
-0.3221369512286883 0.5957411081096885 1.2678117387944694 255 255 255
-0.2432102376998329 0.5799629633222275 1.2033159881391182 255 255 255
-0.1554804734078494 0.5841289693464112 1.1975655091660700 255 255 255
3.6204808807683002 -2.4850567270951465 7.4803743260820692 255 255 255
3.6171792533481320 -2.3263792350693104 7.4031240997827181 255 255 255
2.4805802945806419 -2.1869888076161854 6.9338951657865708 255 255 255
3.0228636392896200 -2.1888662542391941 7.1158079304049657 255 255 255
2.6977070795664817 -1.6976988029180444 6.9872299241337013 255 255 255
2.1942498659480378 -1.4990718918299031 6.5071219085835112 255 255 255
0.0746994246325794 -0.0918212570440423 1.1946457489417646 255 255 255
0.0542699983420583 -0.0768924786774720 1.1956232125207515 255 255 255
-0.0709546308153447 -0.0652109199390875 1.1858687287742395 255 255 255
0.0492207397619561 0.0084782084737900 1.2443101895544877 255 255 255
-0.0229463122364198 0.0195551507290133 1.2422938053276122 255 255 255
0.1096237139469366 0.2253455247896102 1.3119190086994581 255 255 255
-0.3773740504315688 0.2888142255883827 1.7280564106302858 255 255 255
-0.2593196562234416 0.3431026036175333 1.3383420073916052 255 255 255
-0.2312259214662119 0.3521806077728379 1.3150251120889174 255 255 255
0.1484984286671955 0.4017177705585996 1.2896144086375652 255 255 255
-0.3829933268723915 0.3917652333383912 1.4115533104289650 255 255 255
-0.3113771004006951 0.3915781856150295 1.3484605941021814 255 255 255
0.1198303402254547 0.4412885233965411 1.2517212489232914 255 255 255
-0.1457437117140128 0.4080110247481371 1.2511285108162498 255 255 255
-0.2445368455849288 0.4202398772866543 1.2790286431764724 255 255 255
-0.5756554117647500 0.4568469710249100 1.4898203855018959 255 255 255
-0.2017239094909623 0.4447903535647928 1.2521325999358648 255 255 255
-0.2650689543630955 0.4498886542743239 1.2443237348834157 255 255 255
-0.3448096338220483 0.4680174262506358 1.2073578836158012 255 255 255
-0.0778205108460886 0.5172412635799136 1.2288421366011932 255 255 255
0.0883698165430864 0.5574186493417941 1.2488803322585871 255 255 255
-0.1525339654877716 0.4956960766730646 1.1718516040295843 255 255 255
-0.2836733984859004 0.4968129519529293 1.2018497481318282 255 255 255
-0.0230272361851341 0.5336506859542397 1.1959933892081136 255 255 255
0.1048360509712681 0.5672743055145496 1.2227327530378040 255 255 255
-0.2236654321455373 0.5347203003082700 1.1784876178464760 255 255 255
-0.2414791505226533 0.5859002881781594 1.1755632775804938 255 255 255
1.9621354572913212 -1.5954506864829998 6.4087245689747059 255 255 255
-0.0867011683117720 -0.0742016831055722 1.1195272526383997 255 255 255
0.0374934114762737 -0.0698693123483728 1.2030904949602690 255 255 255
0.0113674328412951 0.0661633571435286 1.2714094495291934 255 255 255
0.0315350891423967 0.1355237075927289 1.2924921864701968 255 255 255
0.0688138362200501 0.1834037460593340 1.3140766964934087 255 255 255
0.0421745491102905 0.3356354732728791 1.3404547531975071 255 255 255
0.2239817620548755 0.3734902382354568 1.3341945957188823 255 255 255
0.0505738571321334 0.3549653629153635 1.2941678182676499 255 255 255
-0.1076025983417963 0.3892232442127626 1.2551333983071846 255 255 255
-0.1699137255834645 0.3941746194323507 1.3058661001175387 255 255 255
-0.0119517972379236 0.4064782397677565 1.2709045644398898 255 255 255
-0.0696651762707690 0.4023307459195911 1.2602111116240435 255 255 255
-0.1579384284780515 0.3995456754443314 1.2629372571092230 255 255 255
-0.0504846104938596 0.4242435109098678 1.2588959164731894 255 255 255
0.0169518801949369 0.4389018154132214 1.2423895178254365 255 255 255
-0.2643284277351153 0.4270589711418194 1.2831326401280871 255 255 255
0.0774980744559177 0.4500561432356063 1.2163589335713219 255 255 255
0.0967799016491751 0.4702671477939128 1.2325132437602209 255 255 255
-0.1401455808520879 0.4496333031312180 1.2420144044258785 255 255 255
0.0301399174526084 0.4773521716483085 1.2297336091061755 255 255 255
0.1255911785763192 0.4975858780375274 1.2523275808981664 255 255 255
-0.2244587217664963 0.4495441043118926 1.2356820317740700 255 255 255
-0.3521551172746269 0.4461273864027906 1.2254636975385398 255 255 255
-0.2317590773487943 0.4744820536279188 1.2183898066391308 255 255 255
-0.2401940142243578 0.4850129266960451 1.2070336995492839 255 255 255
-0.2057543859293211 0.5070572320047628 1.2119734067547108 255 255 255
2.8849747956748977 -2.1517394241159478 6.8924448708311203 255 255 255
2.6557828633498399 -2.1457992173546439 7.0112299558534721 255 255 255
2.2135538043934040 -2.0794665533828320 6.8207853031106094 255 255 255
2.4849585478956535 -2.0372876634812505 6.9659982539939849 255 255 255
2.5757584327043617 -1.6384937089675999 6.7446446141482008 255 255 255
2.4807836810246853 -1.6714378950959916 6.8871716467461210 255 255 255
2.3172079689448015 -1.5493709032445246 6.7980968910926212 255 255 255
0.0770610440266358 -0.0911109608914616 1.1939155136912392 255 255 255
0.0472043560850880 -0.0486210485470555 1.2486177272260326 255 255 255
0.0404110034363563 0.0329403784798574 1.2435122055282337 255 255 255
0.1455954141163266 0.0873402181495041 1.3748246985698203 255 255 255
-0.0251430165936675 0.1956108130627170 1.3101124571845018 255 255 255
-0.4782575948055386 0.3802243510670349 1.6895617178128834 255 255 255
-0.4653063231177073 0.3376443161466759 1.4906885148448845 255 255 255
-0.0116565291722675 0.3432777289097825 1.2954082911872207 255 255 255
-0.0843017029357235 0.3412111051390753 1.3004377125158120 255 255 255
-0.2562128004734850 0.3412407185329891 1.3394155717633871 255 255 255
-0.2342771530995210 0.3496204160467881 1.3139971965142627 255 255 255
-0.1959575017114223 0.3684073179540486 1.2849414538239874 255 255 255
0.0700517785682802 0.3975863001186833 1.2662986860582179 255 255 255
0.2850435871442503 0.4323544671055255 1.2860223602757896 255 255 255
-0.2312507301953891 0.3942273425224287 1.2869526224031285 255 255 255
-0.0023901997659425 0.4208080545970704 1.2506907385156736 255 255 255
0.2198657853125651 0.4474168991944721 1.2370573625962373 255 255 255
-0.1207933930623040 0.4206097935968847 1.2569877636265094 255 255 255
0.1784968852842492 0.4677432276374536 1.2488535352357233 255 255 255
-0.2118298286051123 0.4254455623046337 1.2601600837786071 255 255 255
0.1295375572227290 0.4689495518830712 1.2517940397068679 255 255 255
0.0797113615027839 0.4651854736283744 1.2434176997354101 255 255 255
0.1960496159817345 0.4802223937310751 1.2373633708551757 255 255 255
-0.2732846877766088 0.4422932970192393 1.2302551227509693 255 255 255
-0.2895431951731889 0.4562673685726878 1.2553344664899282 255 255 255
-0.0159464978051489 0.5129831039084976 1.2257642202052867 255 255 255
0.1075177460384487 0.5695938160263095 1.2293126148880369 255 255 255
-0.2228935096338506 0.5165572819707319 1.2052747485898803 255 255 255
-0.1106871435389390 0.5573953446423212 1.2408095301073292 255 255 255
-0.0952966000756667 0.5457501013986884 1.2206726429468866 255 255 255
-0.2201994982514102 0.5646620548496334 1.2405480744453494 255 255 255
-0.1877144415033890 0.5753899264009190 1.1890361156922205 255 255 255
2.1967869058075165 -2.0437659250652436 6.6982084805606279 255 255 255
2.4875031822488309 -2.0224851462912090 6.9873080228861211 255 255 255
0.0195977304123119 -0.1211572897886420 1.1959882608237866 255 255 255
0.0101377529130258 0.2388761355137177 1.3174019754539117 255 255 255
0.1409850124862183 0.4579537169603012 1.2910423906338524 255 255 255
-0.1269502082174909 0.4668049659496082 1.2258262864733880 255 255 255
0.2144166559278453 0.4484135656207821 1.2765781413994359 255 255 255
-0.2453537899699001 0.4176024067360466 1.2769008992608757 255 255 255
0.0881904014410728 0.4666104236487611 1.2418155466351442 255 255 255
-0.1194395927174473 0.4749316871383120 1.2103214964831570 255 255 255
-0.0514828370641072 0.4968215890784668 1.2316532555087258 255 255 255
-0.1703496075999938 0.4940641110375075 1.2163683576701656 255 255 255
-0.0491649336004558 0.5540948540159694 1.2215999519775069 255 255 255
0.1743437314409824 0.2290766063780028 1.2959746118474926 255 255 255
-0.1688589167102255 0.4327930485466547 1.2615494063545909 255 255 255
-0.1271924659107269 0.4432300408475486 1.2483686395225602 255 255 255
0.0177419763307327 0.4690967704690711 1.2403808671809007 255 255 255
-0.0930937048738159 0.4641300060526169 1.2523682577432635 255 255 255
0.1269581695616152 0.2167621204609014 1.2788108599000962 255 255 255
0.0992637744416437 0.2751570545338609 1.3162958253404247 255 255 255
3.9541182170886979 -2.4859210689072477 5.9037257094155935 255 255 255
4.1283397285147903 -2.3987125911250380 5.9101884906707651 255 255 255
4.2405438654334633 -2.3571750125378279 6.0166000262987680 255 255 255
4.1546200063037038 -2.2694881784014553 5.9932232484953358 255 255 255
4.4843713399191945 -2.0509288137959030 5.8713362202847836 255 255 255
4.0926865530011005 -2.1156164036937866 6.1616359952307063 255 255 255
4.0740547427858269 -2.1151228236047888 6.2875213148748941 255 255 255
4.0554222096539831 -1.8619310194751242 5.7713128528474105 255 255 255
4.1526244874710185 -1.9752006726189473 6.2060933959290319 255 255 255
4.0283487479547393 -1.8560407296855483 6.0344303097637679 255 255 255
4.2518093531576913 -1.7237409845329579 5.6051127592019538 255 255 255
3.9686713749228120 -1.7050194792185269 5.8598647316733796 255 255 255
3.5426506229317969 -1.7343406510427308 6.1795062634972640 255 255 255
3.5133582484876276 -1.9705541532075932 7.5989542499325955 255 255 255
4.0553693759139717 -1.5531497708768447 5.9142919261705647 255 255 255
3.9200578833696453 -1.6609814196065777 6.4143999216752805 255 255 255
7.8390524135337127 -2.0026394807782975 8.5831593907562009 255 255 255
3.8738662772275130 -1.5308605403588569 6.3012641342446516 255 255 255
5.1394802548725620 -1.4831202384475404 6.3446575637421612 255 255 255
3.8441814583951284 -1.8748305748481839 8.0950667336391202 255 255 255
3.3937971633532857 -1.4022749396659813 6.0731169711092807 255 255 255
3.7845193120570344 -1.3381347998387920 6.0695476098247214 255 255 255
4.9979582411984609 -1.3530325424620899 6.3533951545016869 255 255 255
5.1141433294369412 -1.0923530528145518 5.7834230986371624 255 255 255
4.0146621810964147 -1.1701265204800562 6.0261271881876004 255 255 255
-0.1940077173944892 -0.3282164371144680 1.3435066878567055 255 255 255
-0.2239324842907700 -0.3061481317824223 1.3093736746145364 255 255 255
0.1048717775473968 -0.2331911342297381 1.1100111247882574 255 255 255
-0.2164450489512471 -0.2801292896577086 1.3103979892685476 255 255 255
0.0972877234537394 -0.2294394605204919 1.1194868760729739 255 255 255
-0.2285732375438047 -0.2719884582759505 1.3174397325800409 255 255 255
-0.2004774206613341 -0.2696823474388607 1.3133840433312292 255 255 255
-0.2129323643491511 -0.2638952338553333 1.3169163891120570 255 255 255
-0.1986832876797246 -0.2588046367951953 1.3154566469082749 255 255 255
-0.1704285547110825 -0.2229047635198030 1.0842182382826735 255 255 255
-0.1997523706494458 -0.2244582572498697 1.1098632859015822 255 255 255
0.1049850555317616 -0.1882186197718839 1.0899614152813037 255 255 255
-0.1418504287769706 -0.2131722179974479 1.0750386369658715 255 255 255
0.1156507125477797 -0.1710992935142501 1.1294614576371018 255 255 255
-0.1930185556552544 -0.2074560260944524 1.3350433873205847 255 255 255
-0.1669205551933937 -0.1879131836319363 1.1060264043802037 255 255 255
0.1153162967250070 -0.1552684755152591 1.1498104025488309 255 255 255
-0.2054019181262514 -0.1836764279233263 1.0717732654205372 255 255 255
-0.1764603833479947 -0.1852061362405397 1.3510997732856873 255 255 255
-0.2009605564060097 -0.1745233404272232 1.0692317432288718 255 255 255
-0.1939426006298818 -0.1607234230680525 1.3654535188200052 255 255 255
-0.1851072542633456 -0.1536675984659317 1.0648042855689583 255 255 255
0.1780931268731422 -0.1044169558118908 1.1914432832754414 255 255 255
0.0040079163021204 -0.1287460068030021 1.2131750551677756 255 255 255
0.1234139121655913 -0.1096123120376553 1.1536623113024607 255 255 255
-0.2135431505077653 -0.1491208311383470 1.3815278316867854 255 255 255
-0.2018341551516535 -0.1419065361664069 1.3737704802434900 255 255 255
-0.1768671567455849 -0.1236550788001562 1.3568137626514438 255 255 255
0.1107465350140229 -0.0854276411423460 1.1738694018909139 255 255 255
-0.2068208422781714 -0.1248670427305071 1.3809354979761852 255 255 255
-0.1405018122242128 -0.1096696499629367 1.0829433649913764 255 255 255
-0.1895854936597711 -0.1052478539569920 1.1256759372629044 255 255 255
-0.1844511024107346 -0.1028768429856742 1.1023453471822464 255 255 255
-0.0167797691063296 -0.0703691369437872 1.1953296478734265 255 255 255
0.1031160125924621 -0.0480458415612464 1.1958360022066199 255 255 255
0.0995513281865125 -0.0393428723876136 1.2109681703409350 255 255 255
-0.1954936889199865 -0.0704814877792529 1.4066324847750236 255 255 255
0.1045577200118950 -0.0272100828787787 1.2070880952383145 255 255 255
-0.1855362550845954 -0.0572533113641939 1.1223461918635207 255 255 255
0.0306389013474929 -0.0189045210554120 1.2341098486676640 255 255 255
-0.1952202394198378 -0.0592952693583397 1.1361408319784294 255 255 255
-0.1759276845609881 -0.0487987257534053 1.1172457666883209 255 255 255
-0.2551358070729485 -0.0197606239611373 1.5311612150095397 255 255 255
-0.1935957814880371 -0.0154351403217748 1.4379618196181649 255 255 255
0.0912621636437040 0.0176370391748059 1.2089825188276084 255 255 255
0.1136952823068295 0.0244869656261365 1.2067116781967526 255 255 255
0.1033529735617305 0.0475787847732346 1.2312475736890953 255 255 255
-0.1906950852779116 -0.0072345748815894 1.1365538156753074 255 255 255
-0.1907440033844855 0.0054415370576120 1.1511132371128019 255 255 255
0.1217860275785402 0.0745178826847122 1.2514980124460970 255 255 255
-0.1752216851659565 0.0138697610942288 1.1400668861236103 255 255 255
-0.1972637723794860 0.0253098524070609 1.1554953525169245 255 255 255
-0.2130046325446185 0.0581790797375902 1.4482101409517116 255 255 255
0.1119189030799475 0.0942354128829123 1.2339485124791718 255 255 255
0.0952812467169867 0.0966192937829383 1.2585725319422760 255 255 255
-0.1955451622126018 0.0397719726081770 1.1669350583137585 255 255 255
0.0978543197693372 0.1440334540263020 1.2792290790615064 255 255 255
0.0645201542037484 0.1425244988743427 1.2932054582039219 255 255 255
0.0985178101427175 0.1692468485713992 1.2791562131013714 255 255 255
-0.1655743490747900 0.1071672237762491 1.2146386311666388 255 255 255
-0.1995612629885682 0.1637376075648743 1.5449221302676064 255 255 255
-0.1885493435632194 0.1215410573710862 1.1924566656064524 255 255 255
-0.2071668486548328 0.1693910791597944 1.4991048358975148 255 255 255
-0.3037160289756249 0.2093473731577212 1.7266737053105778 255 255 255
-0.1839956824039880 0.1451806565996593 1.1944643941043593 255 255 255
-0.2259594552345376 0.1931094406713323 1.5161443194409017 255 255 255
-0.2400964446154565 0.1985903256304132 1.5174266536581564 255 255 255
-0.1774269502734226 0.1688744040629795 1.2040253865951931 255 255 255
-0.2389263167174806 0.2171793712678224 1.4270181723423276 255 255 255
0.0936451821805362 0.2764091312704210 1.3256161038580574 255 255 255
-0.2111996308539250 0.2245765385251368 1.3747093079161450 255 255 255
-0.3745372543792541 0.2713632353396110 1.6784385964384989 255 255 255
-0.2655128421196131 0.2661696191461231 1.4578487002804108 255 255 255
-0.1950539593952434 0.3463248723509674 1.6550763084697466 255 255 255
-0.2364812546193847 0.2861890733535263 1.3962768057242148 255 255 255
-0.2099441657154519 0.2859765019838883 1.3632108659343769 255 255 255
-0.1914276838261169 0.2962066986701003 1.3679840476862370 255 255 255
0.0306382118590723 0.3301235978300900 1.2895496717673203 255 255 255
-0.0541735359635644 0.3195356515418756 1.2953048201599680 255 255 255
0.1722837094223431 0.3828270451741548 1.3038666654763598 255 255 255
0.2602575734874173 0.4054309668613448 1.2921201125721007 255 255 255
-0.3066181370056871 0.3109033542115904 1.4403458255454658 255 255 255
-0.3041465082155800 0.3062335891645245 1.4122292360684483 255 255 255
-0.3506170966821190 0.3200074764572093 1.5012090423059379 255 255 255
-0.1967435733046882 0.3039984221707911 1.3041113571387768 255 255 255
0.2083497281356419 0.3939413007957405 1.2525951469750800 255 255 255
0.2033422414319652 0.4021495068588909 1.2679078303717599 255 255 255
-0.4169103358622480 0.3259877220427989 1.5626024695518519 255 255 255
-0.0244145370785835 0.3746746150438737 1.3587688676063183 255 255 255
-0.0677730305280563 0.3554184331610385 1.2806183888930034 255 255 255
-0.0515032288959728 0.3703352939241251 1.2806756497881022 255 255 255
0.2068322294759689 0.4242351186555676 1.2461040338005784 255 255 255
-0.0410447429151264 0.3697993617273364 1.2708406678513677 255 255 255
-0.1671033453615387 0.3412605561882180 1.2754192482256952 255 255 255
-0.2252788643755524 0.3450402531989157 1.3202380704934462 255 255 255
-0.3463746856515940 0.3434850872337963 1.4227093053329187 255 255 255
-0.1921326559567035 0.3500748723088860 1.2968659690814486 255 255 255
0.1659409106307136 0.4315938879138795 1.2602266474382031 255 255 255
0.1274939376355416 0.4385504508270696 1.2534698870417416 255 255 255
-0.4150187253361039 0.3610061606380787 1.4650616991319483 255 255 255
-0.2175218107422447 0.3683342801383079 1.2984254163856754 255 255 255
-0.4218706128824639 0.3704044936229115 1.4636589203866519 255 255 255
-0.2294938043013215 0.3715289341156900 1.3077974540351609 255 255 255
0.1617204973619315 0.4629439268304397 1.2341630472598737 255 255 255
-0.1855027832977707 0.3814504076437323 1.2741361100426376 255 255 255
-0.1283442629697269 0.3972595524789046 1.2629843436057897 255 255 255
0.1422909978939679 0.4644582863168182 1.2380341732789735 255 255 255
-0.4455496506781942 0.3871271913406171 1.4892175982144491 255 255 255
-0.3656166097428766 0.3847282433839986 1.4080646142898441 255 255 255
-0.0801259997750718 0.4193169809276855 1.2545846806244054 255 255 255
-0.5374867309474649 0.4121457037427305 1.6126687497931411 255 255 255
-0.4337427342272571 0.3874028129576482 1.4409769718672183 255 255 255
-0.0158297260752569 0.4401549203680815 1.2373568897880056 255 255 255
0.1354233266587364 0.4797337283352540 1.2330868350678443 255 255 255
-0.1475433482394548 0.4078886620278186 1.2510358906744270 255 255 255
-0.3950039453939747 0.3948344663101844 1.4077167164491260 255 255 255
-0.3501531067903744 0.3955702033707162 1.3736859992783088 255 255 255
-0.3314070502726135 0.3973744811588723 1.3612972245405228 255 255 255
-0.4232014376906620 0.3942484559141112 1.4173355248097894 255 255 255
-0.4258069319427126 0.3845425485436688 1.3872069631427948 255 255 255
-0.4574857390915156 0.4058793204374649 1.4363787841448330 255 255 255
-0.3697347907517660 0.4125556772397576 1.3627798472204296 255 255 255
-0.0744817763552002 0.4597792659637850 1.2250222744289132 255 255 255
-0.4704809919573532 0.4497202668122931 1.5108898657095680 255 255 255
0.0636094609398556 0.5034609923609262 1.2317937236140493 255 255 255
-0.3916542468378076 0.4161284092421701 1.3614622179549243 255 255 255
-0.4125672417120456 0.4216386436914272 1.3740983095617394 255 255 255
-0.0347907127612442 0.4834916576111772 1.2279015780942808 255 255 255
-0.4307188293489321 0.4274506633058966 1.3735661247578794 255 255 255
-0.1795566918254167 0.4573429579042370 1.2302354327570746 255 255 255
-0.0951062343143512 0.4860160039077946 1.2177535134242068 255 255 255
-0.4848886286367416 0.4639172642733709 1.4698309543652210 255 255 255
-0.4425127739501276 0.4312361611125415 1.3365180711847191 255 255 255
-0.3452630183413861 0.4336052031188167 1.2678277828687665 255 255 255
-0.0142192254911700 0.5169483432014267 1.2286423294500046 255 255 255
0.1452410588595173 0.5681792008472225 1.2321726879454611 255 255 255
-0.4850933049002165 0.4925020117079363 1.5334631309293099 255 255 255
-0.2592715568355813 0.4657274370146592 1.2091461120743450 255 255 255
-0.1766462790283595 0.5100958829432128 1.2367683530759528 255 255 255
-0.5140216437908746 0.5001304371879450 1.4795058949088318 255 255 255
-0.3875185284579169 0.4447244463611807 1.2427579568165898 255 255 255
-0.3618465885905979 0.4598124780485444 1.2366329298683281 255 255 255
-0.1300703277095498 0.5214721875744853 1.2096609817190025 255 255 255
-0.5482461349704798 0.4805333445144352 1.4269090279350118 255 255 255
-0.4113199541130388 0.4732955528811059 1.2964820604868061 255 255 255
0.0050851721266432 0.5701881447384671 1.2155732693182928 255 255 255
-0.4348859630003625 0.5019075456232255 1.3644956185269788 255 255 255
-0.4005077821115702 0.4717371676932289 1.2600963356824713 255 255 255
-0.4709755118805644 0.5056643716969789 1.3796777980836537 255 255 255
-0.3826394102377388 0.5119663442705386 1.2399692428480036 255 255 255
-0.2218251279176580 0.5346540482231219 1.1874825374985891 255 255 255
-0.2317782337848391 0.5726443361513721 1.1971704873536784 255 255 255
-0.4524880167037575 0.5401712059863631 1.2914761468459568 255 255 255
-0.2386542406173019 0.7192694222138308 1.4820395366262464 255 255 255
-0.4541187512921571 0.5451258281875272 1.2690447243765932 255 255 255
-0.2876430328867191 0.5741545682851148 1.2094747625191768 255 255 255
-0.2650739656989732 0.5791524764063131 1.2013935926077339 255 255 255
-0.3349890144123888 0.5763582211337203 1.2049209141355666 255 255 255
-0.3724539360725597 0.5739468373734693 1.1911526391045921 255 255 255
3.9008876273051638 -2.1625654460860679 5.9068514855597591 255 255 255
4.1670120858714954 -2.2001106891206041 6.0365335039549270 255 255 255
4.2136537207890585 -2.1699080876951964 6.1284457030399704 255 255 255
4.2407014166740753 -2.0103338754462090 5.5617675515432454 255 255 255
4.1916849553314623 -2.0114549256118259 5.6644950747841545 255 255 255
3.8121893683799519 -2.4481215353971133 7.4033036399220391 255 255 255
4.0750577952078428 -2.0492275153299144 6.1906151082587595 255 255 255
4.1978852400372881 -1.9071021305312497 5.8144015601236312 255 255 255
4.0293162764984052 -2.3470475314165138 7.4029474490749783 255 255 255
3.8252789863726364 -2.0964429333870371 6.6655922886327428 255 255 255
4.0234287251056857 -1.9398937041731628 6.2269458745082087 255 255 255
3.7344852257987693 -2.1189753029770420 7.1482534738962880 255 255 255
1.5314967948306728 -1.5146548553221273 5.0012415772550920 255 255 255
4.0515516248731211 -1.7977321911761868 6.2806046867487630 255 255 255
4.1414892685319566 -1.6698705806787535 5.8149278013794596 255 255 255
4.0340222738225258 -1.6432425385256921 5.8701121739342117 255 255 255
3.4689026206098634 -1.7217152534937148 6.3568693172987008 255 255 255
3.5689928890083564 -1.9317089354099610 7.4433741210086675 255 255 255
3.9088396623472530 -1.6642734783853192 6.4013791006277048 255 255 255
3.6938751183303822 -1.6364637494580216 6.3210163595123889 255 255 255
3.4313586888567542 -1.6392051423459524 6.4126936294171539 255 255 255
4.1633012092827748 -1.5692934450684179 6.2926568871766042 255 255 255
4.2289501562106242 -1.4420070923905732 5.6612871480908158 255 255 255
3.5062394639995618 -1.7866755529852372 7.1700794566697530 255 255 255
3.3543799841614095 -1.8085467457172550 7.3157220482307217 255 255 255
2.5265970077188729 -1.6998988895270353 7.0100811779861845 255 255 255
2.6409844417855810 -1.4238747221719923 5.8204041126336641 255 255 255
4.3381505882494853 -1.3657486900090197 5.8939378416787180 255 255 255
3.8569859293453166 -1.3834375264899363 6.0017419434668851 255 255 255
3.3663989285672011 -1.4766940038865590 6.4579220545318794 255 255 255
3.7245490863021318 -1.3330226214630709 6.1594927280061960 255 255 255
3.4876172747011926 -1.3368888783878763 6.1889704502955922 255 255 255
4.1590797757538613 -1.3132026846817755 6.1490428977034810 255 255 255
3.1944852839607352 -1.1272657229706360 5.5720357606184132 255 255 255
3.1188136081989439 -1.0660382362683176 5.6842875393139858 255 255 255
1.7718873722008026 -1.0624613510290679 5.5078323033731991 255 255 255
-0.2260786465997502 -0.2807531796464190 1.3319864663765335 255 255 255
-0.1579943250892601 -0.1345709527087841 1.1126897752283831 255 255 255
0.0855517078938048 0.0060657704988328 1.2376636070558498 255 255 255
-0.1973517921404868 -0.0158676530162687 1.1455816551031557 255 255 255
-0.3643612175215479 0.2489119294924272 1.6847180149405889 255 255 255
0.2064998866497946 0.3092116340565310 1.2248894948707107 255 255 255
-0.2739177791068851 0.2638919825591980 1.5254546852828748 255 255 255
0.0148313687660885 0.3089244479910466 1.3060554026184441 255 255 255
0.0881646584873105 0.3662090110057633 1.2912526680560790 255 255 255
-0.0684269513906645 0.3548095558972502 1.2797349128742501 255 255 255
-0.3167900775854671 0.3290870952521288 1.3945429332436485 255 255 255
-0.2114595434583751 0.3425775519860291 1.3023418451336306 255 255 255
-0.0818942289377407 0.3738349643023927 1.2755465524098180 255 255 255
0.0345641712292612 0.4098356998333796 1.2737993774782770 255 255 255
-0.5755901853385336 0.3708807369612376 1.7052880610390337 255 255 255
-0.3995463204607384 0.3558631933698180 1.4538954196160656 255 255 255
-0.3506061637194904 0.3645875744507824 1.4249577110051586 255 255 255
-0.3151254454509949 0.3547441652967311 1.3621380865945878 255 255 255
0.0176556571942829 0.4259185473738941 1.2605687697657837 255 255 255
-0.3872173827155671 0.3771576319328389 1.4309329777474897 255 255 255
-0.3807472007940236 0.3908087029784057 1.4101913094147582 255 255 255
-0.1118955700827995 0.4251085939428953 1.2646221377833384 255 255 255
0.0065909750349662 0.4572949611613680 1.2326473895136048 255 255 255
-0.2851499634851072 0.4007386045047797 1.3023085436760915 255 255 255
-0.4066377277682559 0.4028381568541400 1.4089539022563320 255 255 255
-0.1142476617690009 0.4493900455236914 1.2393938803438080 255 255 255
-0.4372134220400642 0.4201178077451671 1.4054534079960475 255 255 255
-0.2397473572319549 0.4583570913568080 1.2276388283008135 255 255 255
-0.4807315788178088 0.4881115816694737 1.4270130246856896 255 255 255
-0.4056654336776204 0.4416206535994401 1.2458141718174760 255 255 255
-0.4901396544480940 0.5104655263845235 1.3825668022827022 255 255 255
-0.3237070964054921 0.5066040751460097 1.1999050675859133 255 255 255
-0.4180801227538294 0.5205685369231562 1.2389539179637825 255 255 255
-0.1676183063561914 0.5956447944914027 1.1622443237742361 255 255 255
4.1676634136023551 -2.0389669199075131 6.0113780091977862 255 255 255
4.1634611654022571 -1.9798555836623304 6.2168883147845433 255 255 255
4.1228605647836103 -1.8697621951726646 5.8458684446604687 255 255 255
3.3570779969342412 -1.4045898196184432 6.3994891423848781 255 255 255
-0.2099857925314621 -0.1231009654183476 1.3837780565507947 255 255 255
0.0967240109524422 0.0632149926694218 1.2524988178451797 255 255 255
0.1237024590207847 0.2718369736416034 1.3060975518070908 255 255 255
0.0294394078634191 0.2795747605562677 1.3155822856921868 255 255 255
-0.1183009751611580 0.3337297394806442 1.3383696618559502 255 255 255
-0.3194990847160965 0.3165535094649624 1.4495648504560132 255 255 255
-0.0910508420281225 0.3709529827964005 1.3089110857574142 255 255 255
-0.2077619120837376 0.3532779480833915 1.2880371303432441 255 255 255
-0.4127350900739593 0.3754824826806652 1.4507752867997354 255 255 255
-0.0387954978576627 0.4119977207841813 1.2545338870312133 255 255 255
-0.3342690014957927 0.3831974621582244 1.3671644033607497 255 255 255
0.0610967132143993 0.4732274391386945 1.1923117101852216 255 255 255
-0.3603045909777008 0.4281607781998512 1.3367315025226389 255 255 255
-0.3856010116607591 0.4431155489826735 1.2756224981834330 255 255 255
4.2637331087142805 -2.2335205509852356 5.9918922242428145 255 255 255
4.2897820064516381 -2.0326665133118453 5.6172152329872578 255 255 255
4.0230511089824343 -2.2028014620552696 6.2611160373693586 255 255 255
4.2234703178963731 -2.0273126428029520 5.7141982538764768 255 255 255
3.4407513142940083 -2.4122237403060836 7.1908210925196450 255 255 255
3.7135377650762473 -2.4003772212180854 7.1656951501479753 255 255 255
4.2305254005072630 -2.0773517058979842 6.2575413736821011 255 255 255
3.6375731835057685 -2.3427454560881920 7.4102287851880737 255 255 255
3.9324957075382252 -2.2962341491113429 7.2329650730867590 255 255 255
4.0356859855418277 -2.0662567311106246 6.4810233936268560 255 255 255
4.1212282402101348 -1.9774173327813542 6.3557363065198480 255 255 255
3.9700518690090276 -1.7949029560548249 5.7910295546185786 255 255 255
3.7289264232822021 -2.1044662929570808 7.1535789577605744 255 255 255
4.2745227556486416 -1.7196653988560473 5.7605748009418960 255 255 255
3.9953520013945787 -1.7129838768857129 5.9966316490580844 255 255 255
4.1649244296477175 -1.6704587922586913 5.8451467836954167 255 255 255
3.9546390871892161 -1.8230173472692783 6.5189783163130697 255 255 255
3.4769671145485583 -1.7372918452283843 6.3691485023003827 255 255 255
3.3738618710436832 -1.8029273294514834 6.6832071087654787 255 255 255
3.6597510737417087 -1.9971980530816271 7.6020879340979537 255 255 255
3.8672489254700886 -1.6583760263896716 6.3454034118770535 255 255 255
3.7138811045452229 -1.6538886080321620 6.3830375324522759 255 255 255
2.6309006455270154 -1.3859369289892445 5.3669825938313354 255 255 255
3.2854401539413312 -1.7703095277691041 7.2093072122192261 255 255 255
4.6876710024308190 -1.4432094758234546 6.2901431927628666 255 255 255
3.9510234208486463 -1.4108294418563136 6.0955460462473603 255 255 255
3.3925418679737716 -1.4705412741776811 6.4780035010128580 255 255 255
3.7575282562963914 -1.3549457601723698 6.2126010125869975 255 255 255
3.3484218122481186 -1.3134040620563117 6.0165096787862717 255 255 255
4.7634060530812752 -1.3717561592296457 6.5665981254686310 255 255 255
5.0103778576038760 -1.2134417298069291 6.3103704343060238 255 255 255
3.1866255225200750 -1.1172373634458963 5.5473752218569707 255 255 255
3.4588874301389474 -1.1266781573197142 5.6461566110927919 255 255 255
3.1293556868966914 -1.0518762795885941 5.7206366051985755 255 255 255
3.3021326253208207 -0.9613961902325022 5.3618658517368640 255 255 255
-0.1731433280269979 -0.2892240713174074 1.3232219695777350 255 255 255
-0.1946926634128366 -0.1979955271610850 1.3514402959642415 255 255 255
0.0928786008676311 -0.1169461732084955 1.1982452651164019 255 255 255
-0.1985282134956092 -0.0912134971156079 1.1137982098597436 255 255 255
-0.2613929977449548 0.0205194387545740 1.5400438037353013 255 255 255
-0.3446047809742313 0.2647303624550336 1.7416408372368051 255 255 255
0.2598886214219645 0.3512526114762906 1.3382034345825111 255 255 255
-0.3205852992833318 0.2715057497337116 1.5450274596662998 255 255 255
-0.4628194182737146 0.3166865941020811 1.8014774351159359 255 255 255
-0.5234868341331196 0.3159710684150855 1.8416653739458471 255 255 255
-0.0136700079774791 0.3386277401489050 1.2764915531811292 255 255 255
-0.2752766408229625 0.3191043899153741 1.3714833947889296 255 255 255
-0.4064200120207431 0.3157371999844901 1.4715208868238021 255 255 255
-0.0646879426189599 0.3551145089380981 1.2822800674676962 255 255 255
0.1202935586355252 0.4157095994247718 1.2652412906678268 255 255 255
-0.4883344771395525 0.3738829628085472 1.6697141495488614 255 255 255
-0.3491703709294079 0.3655246997107141 1.4266447281238401 255 255 255
0.1735677002244044 0.4529356024791353 1.2498384639457230 255 255 255
0.1306458641347761 0.4690317770452495 1.2503896265169865 255 255 255
-0.0904123210835483 0.4288818343017534 1.2583069962931195 255 255 255
0.0131630582843591 0.4652695389784484 1.2398748490456395 255 255 255
