ply
format ascii 1.0
comment PCL generated
element vertex 1046
property float x
property float y
property float z
property uchar red
property uchar green
property uchar blue
element camera 0
property float view_px
property float view_py
property float view_pz
property float x_axisx
property float x_axisy
property float x_axisz
property float y_axisx
property float y_axisy
property float y_axisz
property float z_axisx
property float z_axisy
property float z_axisz
property float focal
property float scalex
property float scaley
property float centerx
property float centery
property int viewportx
property int viewporty
property float k1
property float k2
end_header
-0.49834627 0.2561028 1.8496965 226 227 213
0.43806458 0.2561028 1.8496965 251 253 244
-0.58347452 0.26218337 1.8496965 230 231 217
-0.57739395 0.26218337 1.8496965 228 229 215
-0.57131338 0.26218337 1.8496965 228 229 215
-0.54091036 0.26218337 1.8496965 223 222 208
-0.51658803 0.26218337 1.8496965 223 221 207
-0.51050746 0.26218337 1.8496965 222 220 206
-0.58347452 0.268264 1.8496965 227 228 214
-0.57739395 0.268264 1.8496965 227 227 212
-0.57131338 0.268264 1.8496965 226 226 211
-0.56523275 0.268264 1.8496965 224 224 209
-0.55915213 0.268264 1.8496965 224 223 209
-0.55307156 0.268264 1.8496965 223 222 208
-0.54699099 0.268264 1.8496965 222 220 205
-0.51658803 0.268264 1.8496965 220 218 203
-0.51050746 0.268264 1.8496965 219 217 202
-0.57131338 0.27434456 1.8496965 224 221 206
-0.56523275 0.27434456 1.8496965 223 222 207
-0.55915213 0.27434456 1.8496965 221 220 206
-0.55307156 0.27434456 1.8496965 220 219 204
-0.54699099 0.27434456 1.8496965 219 216 201
-0.51050746 0.27434456 1.8496965 214 211 195
-0.56523275 0.28042513 1.8496965 220 218 202
-0.55915213 0.28042513 1.8496965 218 216 200
0.45630634 0.31082809 1.8496965 248 251 240
0.46238697 0.31082809 1.8496965 248 251 240
0.46846759 0.31690872 1.8496965 248 250 239
0.28604984 -0.50397098 1.8557771 206 204 184
0.27388871 -0.48572922 1.8557771 201 199 181
-0.10310793 -0.47356802 1.8557771 210 211 199
-0.10310793 -0.46140686 1.8557771 211 211 198
-0.12134969 -0.44316506 1.8557771 198 199 187
0.41982281 -0.44316506 1.8557771 187 181 166
-0.054463148 -0.41884273 1.8557771 198 197 185
0.47454822 -0.40668154 1.8557771 171 164 153
-0.79629517 -0.35195622 1.8557771 171 162 147
-0.81453693 -0.32763386 1.8557771 147 139 122
0.38941991 -0.3033115 1.8557771 96 93 81
-0.54699099 -0.18778029 1.8557771 214 215 195
-0.82669812 -0.18169969 1.8557771 220 217 202
-0.82061756 -0.17561913 1.8557771 221 218 202
-0.81453693 -0.17561913 1.8557771 220 217 200
-0.80845636 -0.15129673 1.8557771 226 223 208
-0.83277869 -0.1269744 1.8557771 231 228 216
-0.83277869 -0.12089381 1.8557771 233 230 218
-0.83885932 -0.096571445 1.8557771 234 231 219
-0.83885932 -0.090490848 1.8557771 234 231 219
-0.83885932 -0.066168487 1.8557771 236 233 222
-0.83885932 -0.060087889 1.8557771 236 233 223
-0.69900572 -0.029684961 1.8557771 237 237 227
-0.55915213 -0.029684961 1.8557771 234 237 228
0.46238697 -0.017523766 1.8557771 245 247 239
-0.70508635 -0.0053625703 1.8557771 239 239 231
-0.72940868 0.006798625 1.8557771 239 239 229
-0.37065387 0.018959761 1.8557771 233 239 228
-0.85102046 0.025040388 1.8557771 239 238 227
-0.85102046 0.031120956 1.8557771 240 239 228
-0.69900572 0.07368511 1.8557771 241 241 229
-0.80237579 0.079765677 1.8557771 241 241 229
-0.58955514 0.22569984 1.8557771 242 242 229
-0.61995804 0.23178041 1.8557771 241 241 229
-0.61387748 0.23178041 1.8557771 241 241 229
-0.58955514 0.25002217 1.8557771 234 235 221
-0.57739395 0.2561028 1.8557771 231 232 218
-0.57131338 0.2561028 1.8557771 230 231 217
-0.55307156 0.2561028 1.8557771 226 227 213
-0.54699099 0.2561028 1.8557771 225 226 212
-0.56523275 0.26218337 1.8557771 226 227 213
-0.55915213 0.26218337 1.8557771 225 226 212
-0.55307156 0.26218337 1.8557771 224 225 211
0.45022583 0.26218337 1.8557771 253 255 246
-0.50442684 0.28042513 1.8557771 210 207 191
0.43806458 0.28650576 1.8557771 250 252 241
0.43806458 0.29258633 1.8557771 250 252 241
0.4441452 0.29258633 1.8557771 249 252 241
0.45022583 0.29258633 1.8557771 249 251 240
0.45022583 0.29866695 1.8557771 249 252 241
0.45630634 0.30474752 1.8557771 250 252 241
0.42590344 0.66350234 1.8557771 249 247 213
0.42590344 0.66958296 1.8557771 249 246 204
0.42590344 0.67566347 1.8557771 246 243 201
0.048906803 -0.49180979 1.8618577 196 195 180
0.27996933 -0.48572922 1.8618577 203 201 184
-0.1091885 -0.44924566 1.8618577 205 205 192
-0.80845636 -0.41276214 1.8618577 187 179 162
-0.80845636 -0.40668154 1.8618577 186 178 161
-0.036221385 -0.40668154 1.8618577 196 197 184
0.48670936 -0.33371446 1.8618577 169 167 161
0.48062873 -0.32155329 1.8618577 151 149 143
0.37725878 -0.26074737 1.8618577 96 86 71
0.38333929 -0.24858618 1.8618577 92 80 63
-0.82669812 -0.23034441 1.8618577 181 172 155
-0.82061756 -0.18169969 1.8618577 219 216 200
-0.83277869 -0.14521617 1.8618577 226 224 210
-0.70508635 -0.1269744 1.8618577 222 221 208
-0.56523275 -0.041846126 1.8618577 232 235 226
-0.84493989 -0.029684961 1.8618577 239 236 225
-0.55915213 -0.029684961 1.8618577 234 237 228
-0.84493989 -0.023604363 1.8618577 239 236 225
-0.55307156 -0.023604363 1.8618577 235 238 229
-0.37065387 0.012879193 1.8618577 235 241 229
-0.85102046 0.037201524 1.8618577 241 239 229
-0.85102046 0.043282151 1.8618577 243 239 230
-0.63819981 0.049362719 1.8618577 240 242 231
0.46238697 0.055443287 1.8618577 249 252 244
0.46238697 0.061523914 1.8618577 250 253 245
-0.69900572 0.067604482 1.8618577 240 240 228
-0.5226686 0.091926873 1.8618577 240 242 233
-0.74765044 0.12232983 1.8618577 241 241 229
-0.37065387 0.15881336 1.8618577 239 243 231
-0.58955514 0.23786104 1.8618577 238 239 226
0.43198407 0.25002217 1.8618577 250 252 244
-0.50442684 0.26218337 1.8618577 224 224 210
-0.51050746 0.268264 1.8618577 219 217 202
-0.50442684 0.268264 1.8618577 220 218 203
0.45630634 0.268264 1.8618577 252 254 246
-0.50442684 0.27434456 1.8618577 215 213 197
0.45630634 0.27434456 1.8618577 251 253 244
-0.50442684 0.28042513 1.8618577 212 209 193
0.45022583 0.28042513 1.8618577 249 251 242
0.45630634 0.28042513 1.8618577 249 251 243
-0.49834627 0.28650576 1.8618577 211 207 190
0.4441452 0.28650576 1.8618577 249 252 241
0.45022583 0.28650576 1.8618577 248 251 240
0.4441452 0.29258633 1.8618577 250 252 241
0.45022583 0.29258633 1.8618577 249 251 240
0.43198407 0.66350234 1.8618577 250 249 214
0.43806458 0.66350234 1.8618577 252 251 216
-0.017979622 -0.50397098 1.8679383 199 199 181
-0.80237579 -0.49789038 1.8679383 200 191 179
-0.80845636 -0.4370845 1.8679383 190 182 166
-0.80845636 -0.4310039 1.8679383 189 181 165
0.42590344 -0.37627858 1.8679383 162 158 149
0.43198407 -0.36411741 1.8679383 167 161 151
0.40158105 -0.2972309 1.8679383 106 98 86
0.39550054 -0.28506973 1.8679383 105 96 80
0.38941991 -0.26682797 1.8679383 89 77 62
-0.82669812 -0.24250561 1.8679383 163 153 136
0.48670936 -0.22426385 1.8679383 146 135 119
0.46238697 -0.19994146 1.8679383 150 136 116
0.46846759 -0.19994146 1.8679383 147 136 120
0.48062873 -0.19994146 1.8679383 135 127 113
0.45630634 -0.19386089 1.8679383 146 132 110
0.45630634 -0.18778029 1.8679383 160 145 123
0.45022583 -0.16953853 1.8679383 178 162 139
0.45022583 -0.16345793 1.8679383 191 174 153
0.45022583 -0.15737733 1.8679383 189 174 151
0.46846759 -0.1269744 1.8679383 183 172 160
0.46846759 -0.12089381 1.8679383 183 173 160
-0.83885932 -0.10873261 1.8679383 234 231 219
-0.84493989 -0.054007292 1.8679383 237 234 223
-0.84493989 -0.047926724 1.8679383 238 235 223
-0.84493989 -0.0053625703 1.8679383 239 238 227
-0.84493989 0.00071799755 1.8679383 240 239 228
-0.72332811 0.00071799755 1.8679383 238 239 229
-0.71724749 0.00071799755 1.8679383 238 239 229
-0.74156988 0.006798625 1.8679383 239 239 229
-0.72940868 0.006798625 1.8679383 239 239 229
-0.72332811 0.006798625 1.8679383 239 239 229
0.46846759 0.012879193 1.8679383 251 253 245
-0.85102046 0.018959761 1.8679383 240 239 227
-0.85102046 0.025040388 1.8679383 241 240 229
-0.54699099 0.031120956 1.8679383 240 241 233
-0.80845636 0.085846245 1.8679383 241 241 229
-0.51658803 0.085846245 1.8679383 241 244 235
-0.85102046 0.11016864 1.8679383 242 240 229
-0.85102046 0.1162492 1.8679383 243 241 230
-0.85102046 0.12232983 1.8679383 243 241 230
-0.85102046 0.1284104 1.8679383 244 242 231
-0.86318171 0.14665216 1.8679383 245 241 232
-0.37065387 0.16489393 1.8679383 240 243 232
-0.67468339 0.17097455 1.8679383 243 243 231
-0.87534285 0.18921632 1.8679383 244 240 228
-0.87534285 0.19529688 1.8679383 243 239 227
0.46238697 0.21961927 1.8679383 252 254 246
0.4441452 0.22569984 1.8679383 252 254 246
0.43198407 0.23786104 1.8679383 251 253 244
-0.58955514 0.24394161 1.8679383 235 236 223
-0.55307156 0.24394161 1.8679383 230 231 218
0.43198407 0.24394161 1.8679383 251 253 244
-0.58347452 0.25002217 1.8679383 233 234 221
-0.57739395 0.25002217 1.8679383 233 233 220
-0.55915213 0.25002217 1.8679383 230 230 217
-0.5226686 0.25002217 1.8679383 228 228 215
-0.57131338 0.2561028 1.8679383 229 230 216
-0.56523275 0.2561028 1.8679383 228 229 215
-0.49834627 0.27434456 1.8679383 218 217 201
-0.49834627 0.28042513 1.8679383 213 212 196
-0.80237579 -0.49180979 1.8740189 200 191 179
0.061068058 -0.49180979 1.8740189 197 194 180
-0.80237579 -0.48572922 1.8740189 199 192 178
-0.10310793 -0.47356802 1.8740189 210 210 197
-0.12134969 -0.44316506 1.8740189 192 193 180
-0.80845636 -0.4249233 1.8740189 187 180 163
0.48062873 -0.40060094 1.8740189 169 163 152
-0.79629517 -0.33979505 1.8740189 165 156 140
-0.82061756 -0.33371446 1.8740189 153 144 128
0.39550054 -0.3033115 1.8740189 94 91 79
0.48670936 -0.25466678 1.8740189 147 134 118
-0.82061756 -0.24858618 1.8740189 155 146 124
0.48062873 -0.24858618 1.8740189 145 131 112
0.48062873 -0.24250561 1.8740189 154 140 121
0.48670936 -0.21818325 1.8740189 144 133 117
0.48670936 -0.21210265 1.8740189 135 127 115
0.45022583 -0.16953853 1.8740189 178 161 139
-0.83885932 -0.13913557 1.8740189 228 226 212
-0.50442684 -0.13913557 1.8740189 230 233 216
-0.83885932 -0.13305497 1.8740189 229 227 213
-0.83885932 -0.1269744 1.8740189 232 229 216
-0.84493989 -0.072249085 1.8740189 236 233 221
-0.84493989 -0.066168487 1.8740189 236 233 222
-0.69900572 -0.041846126 1.8740189 237 237 227
-0.70508635 -0.023604363 1.8740189 238 238 228
-0.70508635 -0.017523766 1.8740189 239 239 229
-0.64428043 -0.017523766 1.8740189 238 238 230
0.46846759 -0.011443168 1.8740189 246 249 241
0.46846759 -0.0053625703 1.8740189 248 251 244
0.46846759 0.00071799755 1.8740189 248 252 245
0.46846759 0.006798625 1.8740189 251 254 246
-0.74765044 0.012879193 1.8740189 240 239 231
-0.50442684 0.018959761 1.8740189 240 243 235
-0.75373101 0.025040388 1.8740189 240 240 230
-0.75373101 0.031120956 1.8740189 240 240 230
-0.75373101 0.037201524 1.8740189 240 240 230
-0.75373101 0.043282151 1.8740189 240 240 230
-0.55307156 0.055443287 1.8740189 241 242 234
-0.55307156 0.061523914 1.8740189 242 243 235
-0.80845636 0.085846245 1.8740189 241 241 229
-0.80845636 0.091926873 1.8740189 242 241 229
-0.3645733 0.13449097 1.8740189 240 244 236
-0.650361 0.15273273 1.8740189 243 243 231
-0.6625222 0.15881336 1.8740189 243 243 231
-0.65644157 0.15881336 1.8740189 242 242 230
-0.66860282 0.16489393 1.8740189 242 242 230
-0.66860282 0.17097455 1.8740189 242 242 230
-0.67468339 0.17705512 1.8740189 243 243 231
-0.67468339 0.18313569 1.8740189 244 244 232
-0.55915213 0.22569984 1.8740189 238 239 226
-0.52874923 0.23178041 1.8740189 235 237 225
-0.57131338 0.25002217 1.8740189 231 232 219
0.45630634 0.28650576 1.8740189 248 251 240
0.45630634 0.29258633 1.8740189 248 251 240
0.47454822 0.31690872 1.8740189 248 250 239
0.43198407 0.66958296 1.8740189 249 248 213
0.43806458 0.66958296 1.8740189 251 250 215
0.054987431 -0.49180979 1.8800995 198 197 183
0.48670936 -0.41276214 1.8800995 170 163 153
0.48670936 -0.40668154 1.8800995 171 165 153
0.48670936 -0.32155329 1.8800995 158 156 153
0.38941991 -0.26074737 1.8800995 93 83 68
0.43198407 -0.24250561 1.8800995 129 115 95
0.43806458 -0.24250561 1.8800995 141 127 107
0.43198407 -0.23642501 1.8800995 130 117 95
0.43806458 -0.23642501 1.8800995 140 127 105
0.43806458 -0.23034441 1.8800995 148 133 112
0.46238697 -0.14521617 1.8800995 192 176 156
0.46846759 -0.13305497 1.8800995 189 177 161
-0.63819981 -0.096571445 1.8800995 225 227 215
-0.84493989 -0.090490848 1.8800995 234 231 219
-0.56523275 -0.054007292 1.8800995 230 233 223
-0.69900572 -0.047926724 1.8800995 236 236 226
-0.56523275 -0.047926724 1.8800995 231 234 225
-0.56523275 -0.041846126 1.8800995 232 235 226
-0.70508635 -0.029684961 1.8800995 237 237 227
-0.85102046 0.006798625 1.8800995 240 239 228
-0.85710108 0.031120956 1.8800995 240 239 227
-0.85710108 0.037201524 1.8800995 241 240 228
-0.55307156 0.037201524 1.8800995 240 241 233
-0.55307156 0.043282151 1.8800995 241 242 234
-0.55307156 0.049362719 1.8800995 241 242 234
-0.85102046 0.055443287 1.8800995 242 240 230
-0.84493989 0.061523914 1.8800995 242 241 229
-0.70508635 0.079765677 1.8800995 242 242 230
-0.52874923 0.098007441 1.8800995 240 242 233
-0.86318171 0.10408807 1.8800995 243 240 230
-0.37065387 0.15273273 1.8800995 239 242 232
-0.37065387 0.15881336 1.8800995 239 242 232
-0.88142347 0.20137751 1.8800995 244 240 228
-0.88142347 0.20745808 1.8800995 244 240 228
-0.58955514 0.23178041 1.8800995 241 241 228
-0.55915213 0.23178041 1.8800995 236 237 224
0.4441452 0.23178041 1.8800995 252 254 246
-0.58955514 0.23786104 1.8800995 238 238 225
-0.55915213 0.23786104 1.8800995 234 234 221
0.43806458 0.23786104 1.8800995 251 253 244
-0.58955514 0.24394161 1.8800995 235 236 223
-0.58347452 0.24394161 1.8800995 235 236 223
-0.57739395 0.24394161 1.8800995 235 235 222
-0.56523275 0.24394161 1.8800995 232 232 219
0.43806458 0.24394161 1.8800995 251 253 244
-0.57739395 0.25002217 1.8800995 233 233 220
0.43806458 0.25002217 1.8800995 250 252 244
0.4441452 0.25002217 1.8800995 251 253 244
0.43806458 0.2561028 1.8800995 250 252 244
0.45022583 0.2561028 1.8800995 252 254 245
0.45630634 0.2561028 1.8800995 252 254 245
0.43198407 0.26218337 1.8800995 250 252 244
0.46238697 0.268264 1.8800995 253 255 246
0.46846759 0.268264 1.8800995 253 255 246
0.46238697 0.27434456 1.8800995 251 253 245
0.46238697 0.28042513 1.8800995 250 252 244
0.46238697 0.28650576 1.8800995 248 250 241
0.46238697 0.29866695 1.8800995 249 252 241
0.43806458 0.67566347 1.8800995 251 248 209
0.048906803 -0.49789038 1.88618 196 195 179
0.26780808 -0.48572922 1.88618 166 163 151
-0.10310793 -0.47964862 1.88618 210 211 199
-0.10310793 -0.45532626 1.88618 208 208 195
-0.12134969 -0.44924566 1.88618 191 192 180
0.43198407 -0.44924566 1.88618 185 179 164
-0.81453693 -0.41884273 1.88618 185 177 160
-0.81453693 -0.41276214 1.88618 185 177 160
0.4441452 -0.27290857 1.88618 137 123 105
-0.71116692 -0.26682797 1.88618 115 107 89
-0.74156988 -0.25466678 1.88618 137 129 110
-0.83277869 -0.24858618 1.88618 159 149 131
-0.83277869 -0.23034441 1.88618 182 173 156
-0.83277869 -0.22426385 1.88618 190 182 166
-0.83885932 -0.19386089 1.88618 221 215 200
-0.83885932 -0.18778029 1.88618 222 216 201
-0.54699099 -0.18778029 1.88618 217 218 200
-0.71116692 -0.1269744 1.88618 222 221 208
-0.71116692 -0.12089381 1.88618 224 223 211
0.47454822 -0.12089381 1.88618 183 173 160
-0.85102046 -0.060087889 1.88618 236 233 222
-0.85102046 -0.054007292 1.88618 237 234 223
-0.55915213 -0.023604363 1.88618 235 238 229
-0.64428043 -0.017523766 1.88618 238 239 231
-0.85710108 0.006798625 1.88618 239 238 226
-0.37065387 0.006798625 1.88618 235 242 230
-0.85710108 0.012879193 1.88618 240 239 227
-0.37065387 0.012879193 1.88618 235 242 230
-0.85710108 0.018959761 1.88618 240 239 227
0.47454822 0.018959761 1.88618 251 253 244
-0.44362092 0.025040388 1.88618 238 241 232
0.47454822 0.025040388 1.88618 251 253 245
-0.64428043 0.049362719 1.88618 240 242 231
-0.69900572 0.055443287 1.88618 240 240 228
-0.70508635 0.067604482 1.88618 240 240 228
-0.55307156 0.067604482 1.88618 241 242 234
-0.80845636 0.07368511 1.88618 241 241 229
-0.70508635 0.07368511 1.88618 241 241 229
-0.80845636 0.079765677 1.88618 241 241 229
-0.51658803 0.079765677 1.88618 240 243 234
-0.80845636 0.085846245 1.88618 241 241 229
-0.80845636 0.091926873 1.88618 243 242 230
-0.37065387 0.16489393 1.88618 240 243 233
-0.37673444 0.17705512 1.88618 240 244 232
-0.88142347 0.21353865 1.88618 245 241 230
-0.88142347 0.21961927 1.88618 245 241 230
-0.50442684 0.268264 1.88618 222 221 207
0.47454822 0.268264 1.88618 253 255 246
0.47454822 0.27434456 1.88618 252 254 246
-0.49834627 0.28042513 1.88618 215 214 199
0.46846759 0.28042513 1.88618 250 252 244
0.47454822 0.28042513 1.88618 250 252 244
0.46846759 0.28650576 1.88618 247 250 239
-0.80845636 -0.50397098 1.8922607 200 191 179
-0.11526906 -0.49789038 1.8922607 210 212 199
-0.81453693 -0.44316506 1.8922607 189 181 166
-0.81453693 -0.4370845 1.8922607 189 181 164
0.41982281 -0.37019801 1.8922607 175 170 162
0.42590344 -0.37019801 1.8922607 173 168 160
0.43198407 -0.37019801 1.8922607 176 172 162
0.40766168 -0.29115033 1.8922607 106 96 82
0.40158105 -0.27898914 1.8922607 101 90 73
0.39550054 -0.26682797 1.8922607 96 84 69
-0.82061756 -0.24858618 1.8922607 159 150 129
-0.81453693 -0.24858618 1.8922607 158 148 130
-0.83277869 -0.24250561 1.8922607 166 157 139
0.47454822 -0.19994146 1.8922607 155 142 122
0.48670936 -0.19994146 1.8922607 134 126 112
0.46846759 -0.19386089 1.8922607 158 142 122
0.46238697 -0.18169969 1.8922607 172 156 134
0.45630634 -0.15129673 1.8922607 180 164 140
-0.51658803 -0.13913557 1.8922607 231 234 217
-0.85102046 -0.08441025 1.8922607 235 232 220
-0.63211924 -0.08441025 1.8922607 227 229 218
-0.85102046 -0.078329682 1.8922607 236 233 221
-0.61995804 -0.066168487 1.8922607 233 234 225
-0.70508635 -0.035765529 1.8922607 235 235 225
0.47454822 -0.029684961 1.8922607 239 239 231
0.47454822 -0.023604363 1.8922607 242 244 235
-0.85710108 -0.011443168 1.8922607 239 238 226
-0.71116692 -0.0053625703 1.8922607 239 239 231
-0.75373101 0.012879193 1.8922607 240 239 231
0.47454822 0.012879193 1.8922607 250 252 244
-0.55307156 0.061523914 1.8922607 242 243 235
-0.51658803 0.085846245 1.8922607 240 243 234
-0.80845636 0.091926873 1.8922607 242 241 229
-0.37065387 0.14665216 1.8922607 239 242 233
-0.37065387 0.15273273 1.8922607 239 242 232
-0.6625222 0.16489393 1.8922607 242 242 230
-0.66860282 0.17097455 1.8922607 242 242 230
-0.67468339 0.17705512 1.8922607 242 242 230
-0.68076396 0.18313569 1.8922607 243 243 231
-0.57739395 0.24394161 1.8922607 233 234 221
-0.50442684 0.26218337 1.8922607 227 226 213
0.48670936 0.28042513 1.8922607 251 253 245
0.48670936 0.29866695 1.8922607 249 250 242
0.47454822 0.30474752 1.8922607 249 252 241
0.48670936 0.30474752 1.8922607 249 250 242
0.4441452 0.6817441 1.8922607 250 248 207
0.43806458 0.68782473 1.8922607 248 245 203
-0.80845636 -0.49180979 1.8983412 199 192 178
-0.81453693 -0.46140686 1.8983412 193 185 170
-0.12743026 -0.44316506 1.8983412 196 197 184
0.48670936 -0.40060094 1.8983412 167 161 149
0.43806458 -0.39452034 1.8983412 159 153 145
0.43806458 -0.38235918 1.8983412 159 153 144
0.42590344 -0.37627858 1.8983412 167 162 155
0.43198407 -0.37627858 1.8983412 167 162 155
0.43806458 -0.37627858 1.8983412 163 157 148
0.45022583 -0.37019801 1.8983412 177 171 161
0.45630634 -0.37019801 1.8983412 179 173 163
-0.82669812 -0.33371446 1.8983412 147 138 121
0.4441452 -0.24858618 1.8983412 140 127 107
0.45022583 -0.24858618 1.8983412 139 126 106
0.45630634 -0.24858618 1.8983412 140 127 108
0.4441452 -0.24250561 1.8983412 141 128 106
0.45022583 -0.24250561 1.8983412 148 135 113
0.45630634 -0.24250561 1.8983412 148 134 113
0.4441452 -0.23642501 1.8983412 142 128 107
0.46846759 -0.19386089 1.8983412 154 139 117
-0.84493989 -0.13913557 1.8983412 229 226 212
-0.84493989 -0.13305497 1.8983412 231 228 215
-0.84493989 -0.1269744 1.8983412 232 229 217
-0.63211924 -0.090490848 1.8983412 226 228 217
-0.85102046 -0.072249085 1.8983412 236 233 221
-0.85102046 -0.066168487 1.8983412 237 234 223
-0.70508635 -0.041846126 1.8983412 237 237 227
-0.71116692 -0.023604363 1.8983412 239 239 229
-0.55915213 -0.011443168 1.8983412 235 237 229
-0.85710108 0.006798625 1.8983412 240 239 228
-0.86318171 0.025040388 1.8983412 240 239 227
-0.75981164 0.025040388 1.8983412 240 240 231
-0.54699099 0.025040388 1.8983412 240 241 233
-0.86318171 0.031120956 1.8983412 240 239 227
-0.75981164 0.031120956 1.8983412 240 239 231
-0.75981164 0.037201524 1.8983412 240 240 231
-0.75981164 0.043282151 1.8983412 240 240 230
-0.75981164 0.1162492 1.8983412 241 241 229
-0.75981164 0.12232983 1.8983412 241 241 229
-0.75981164 0.1284104 1.8983412 242 242 230
-0.75981164 0.13449097 1.8983412 243 243 231
-0.88750404 0.22569984 1.8983412 244 240 228
-0.88750404 0.23178041 1.8983412 243 239 227
-0.58955514 0.23178041 1.8983412 240 241 228
-0.58347452 0.23178041 1.8983412 239 240 227
-0.57739395 0.23178041 1.8983412 238 239 226
-0.57131338 0.23178041 1.8983412 238 239 226
-0.58955514 0.23786104 1.8983412 238 239 226
-0.58347452 0.23786104 1.8983412 237 238 225
-0.57739395 0.23786104 1.8983412 237 237 224
-0.57131338 0.23786104 1.8983412 235 236 223
-0.57131338 0.24394161 1.8983412 233 233 220
0.48670936 0.27434456 1.8983412 253 255 246
0.48670936 0.28042513 1.8983412 251 253 245
-0.49834627 0.28650576 1.8983412 211 210 195
0.47454822 0.28650576 1.8983412 248 250 241
0.48062873 0.28650576 1.8983412 249 251 242
0.48670936 0.28650576 1.8983412 249 251 243
0.47454822 0.29258633 1.8983412 248 250 239
0.48062873 0.29258633 1.8983412 248 250 239
0.48670936 0.29258633 1.8983412 248 250 239
0.46846759 0.29866695 1.8983412 249 251 240
0.47454822 0.29866695 1.8983412 249 251 240
0.48062873 0.31082809 1.8983412 249 252 241
0.48670936 0.31082809 1.8983412 249 252 241
0.43806458 -0.45532626 1.9044218 182 176 161
-0.82061756 -0.4310039 1.9044218 185 177 161
-0.82061756 -0.4249233 1.9044218 184 176 160
-0.04838264 -0.4249233 1.9044218 196 196 183
-0.030140758 -0.41276214 1.9044218 196 197 185
-0.81453693 -0.36411741 1.9044218 171 164 144
-0.80845636 -0.35803682 1.9044218 171 162 147
0.40158105 -0.27290857 1.9044218 92 80 64
0.45022583 -0.27290857 1.9044218 138 124 106
0.38941991 -0.26074737 1.9044218 99 89 74
-0.83885932 -0.23642501 1.9044218 176 167 149
0.45022583 -0.23642501 1.9044218 149 136 114
0.45630634 -0.23642501 1.9044218 152 139 117
-0.83885932 -0.23034441 1.9044218 185 176 159
-0.55307156 -0.19386089 1.9044218 213 214 194
-0.82669812 -0.18169969 1.9044218 220 217 200
-0.54699099 -0.18169969 1.9044218 222 223 205
0.46238697 -0.16953853 1.9044218 182 165 144
-0.82061756 -0.16345793 1.9044218 224 221 206
-0.82061756 -0.15737733 1.9044218 224 222 207
-0.64428043 -0.096571445 1.9044218 225 227 215
-0.57131338 -0.054007292 1.9044218 230 233 223
-0.57131338 -0.047926724 1.9044218 231 234 225
-0.57131338 -0.041846126 1.9044218 231 234 225
-0.85710108 -0.035765529 1.9044218 238 235 224
-0.85710108 -0.029684961 1.9044218 239 236 225
-0.85710108 -0.023604363 1.9044218 239 236 225
-0.55915213 -0.017523766 1.9044218 235 238 229
0.48062873 -0.0053625703 1.9044218 247 250 243
-0.44362092 0.00071799755 1.9044218 234 237 228
-0.85710108 0.012879193 1.9044218 240 239 228
-0.44362092 0.018959761 1.9044218 237 240 231
-0.44362092 0.025040388 1.9044218 238 241 232
-0.86318171 0.037201524 1.9044218 243 240 230
-0.86318171 0.043282151 1.9044218 243 240 229
-0.85710108 0.055443287 1.9044218 242 240 230
-0.70508635 0.055443287 1.9044218 240 240 228
-0.71116692 0.079765677 1.9044218 241 241 229
-0.37065387 0.15881336 1.9044218 239 242 232
-0.6625222 0.16489393 1.9044218 242 242 230
-0.68076396 0.18313569 1.9044218 243 243 231
0.45630634 0.22569984 1.9044218 252 254 246
0.45022583 0.23786104 1.9044218 252 254 245
0.45022583 0.24394161 1.9044218 251 253 245
0.45022583 0.25002217 1.9044218 251 253 245
-0.52874923 0.2561028 1.9044218 228 229 216
0.036745667 -0.50397098 1.9105024 195 195 177
-0.81453693 -0.48572922 1.9105024 198 190 176
-0.10310793 -0.48572922 1.9105024 210 212 199
-0.81453693 -0.47964862 1.9105024 198 190 175
-0.10310793 -0.46140686 1.9105024 211 211 198
-0.12134969 -0.44924566 1.9105024 192 193 180
-0.82061756 -0.41884273 1.9105024 183 175 159
-0.82061756 -0.41276214 1.9105024 183 176 157
-0.83885932 -0.24858618 1.9105024 162 152 135
-0.83885932 -0.18778029 1.9105024 220 217 202
-0.82061756 -0.08441025 1.9105024 235 233 221
-0.82061756 -0.078329682 1.9105024 236 234 221
-0.82061756 -0.072249085 1.9105024 237 235 222
-0.85710108 -0.060087889 1.9105024 237 234 222
-0.85710108 -0.054007292 1.9105024 237 234 223
-0.71116692 -0.029684961 1.9105024 237 237 227
-0.71724749 -0.017523766 1.9105024 239 239 230
0.48062873 -0.017523766 1.9105024 244 246 239
-0.71724749 -0.011443168 1.9105024 238 239 231
-0.65644157 -0.011443168 1.9105024 239 240 232
-0.85710108 -0.0053625703 1.9105024 239 238 227
-0.72332811 0.00071799755 1.9105024 238 238 228
-0.86318171 0.012879193 1.9105024 240 239 227
-0.86318171 0.018959761 1.9105024 241 240 229
-0.75981164 0.018959761 1.9105024 239 239 230
-0.51050746 0.025040388 1.9105024 240 243 235
0.48670936 0.031120956 1.9105024 251 253 244
-0.71116692 0.085846245 1.9105024 243 243 231
-0.87534285 0.10408807 1.9105024 243 240 230
-0.86318171 0.11016864 1.9105024 242 240 229
-0.86318171 0.1162492 1.9105024 243 240 230
-0.68076396 0.18313569 1.9105024 243 243 231
-0.5348298 0.23178041 1.9105024 236 238 225
-0.50442684 0.28042513 1.9105024 217 216 200
-0.50442684 0.28650576 1.9105024 213 212 196
-0.49834627 0.29258633 1.9105024 210 206 191
-0.11526906 -0.50397098 1.9165831 210 212 199
0.31037223 -0.46748745 1.9165831 197 194 182
0.31645286 -0.46748745 1.9165831 185 183 169
0.31037223 -0.46140686 1.9165831 173 170 158
0.31645286 -0.46140686 1.9165831 187 185 172
-0.11526906 -0.45532626 1.9165831 198 199 187
0.31645286 -0.45532626 1.9165831 183 181 169
0.32253337 -0.45532626 1.9165831 186 183 171
0.32253337 -0.44924566 1.9165831 179 177 165
-0.82061756 -0.44316506 1.9165831 189 181 165
0.32253337 -0.44316506 1.9165831 176 174 160
-0.82061756 -0.4370845 1.9165831 187 179 163
0.45022583 -0.40668154 1.9165831 161 154 146
0.45022583 -0.40060094 1.9165831 173 167 157
0.43806458 -0.38235918 1.9165831 166 161 154
0.43198407 -0.37019801 1.9165831 172 167 159
0.45630634 -0.27290857 1.9165831 134 120 102
-0.84493989 -0.22426385 1.9165831 199 190 175
-0.84493989 -0.21818325 1.9165831 205 197 181
-0.82061756 -0.16345793 1.9165831 222 220 205
-0.82061756 -0.15737733 1.9165831 223 221 206
-0.85102046 -0.14521617 1.9165831 226 224 210
-0.85102046 -0.13913557 1.9165831 229 226 212
-0.82061756 -0.08441025 1.9165831 235 233 221
-0.85710108 -0.078329682 1.9165831 236 233 221
-0.85710108 -0.072249085 1.9165831 237 234 222
-0.71116692 -0.035765529 1.9165831 236 236 226
-0.44362092 0.006798625 1.9165831 234 237 228
-0.75981164 0.012879193 1.9165831 240 240 230
-0.75373101 0.012879193 1.9165831 240 240 230
-0.44362092 0.012879193 1.9165831 235 238 229
-0.55307156 0.031120956 1.9165831 240 241 233
-0.650361 0.055443287 1.9165831 240 241 233
-0.88142347 0.15273273 1.9165831 244 241 231
-0.67468339 0.17705512 1.9165831 242 242 230
0.48062873 0.268264 1.9165831 252 254 246
0.48670936 0.27434456 1.9165831 253 255 246
0.48670936 0.29258633 1.9165831 248 251 240
0.48062873 0.29866695 1.9165831 248 250 239
0.48062873 0.31690872 1.9165831 249 252 241
0.48670936 0.31690872 1.9165831 249 252 241
0.29213047 -0.49789038 1.9226637 205 203 184
-0.10310793 -0.49180979 1.9226637 210 212 199
0.27996933 -0.49180979 1.9226637 161 158 145
0.28604984 -0.49180979 1.9226637 177 174 159
0.28604984 -0.48572922 1.9226637 172 169 156
0.30429161 -0.46748745 1.9226637 170 167 157
-0.82669812 -0.40668154 1.9226637 183 175 158
-0.82669812 -0.40060094 1.9226637 181 173 156
-0.82669812 -0.37627858 1.9226637 174 166 148
-0.81453693 -0.35195622 1.9226637 166 157 142
-0.81453693 -0.34587562 1.9226637 162 153 138
-0.83277869 -0.33979505 1.9226637 152 143 126
-0.81453693 -0.33979505 1.9226637 156 146 132
0.4137423 -0.29115033 1.9226637 111 100 86
0.40766168 -0.28506973 1.9226637 106 95 80
0.4137423 -0.28506973 1.9226637 109 98 84
-0.71116692 -0.27898914 1.9226637 108 100 83
0.40766168 -0.27898914 1.9226637 94 82 65
0.46238697 -0.24250561 1.9226637 150 136 116
-0.82669812 -0.17561913 1.9226637 221 219 203
0.48670936 -0.1269744 1.9226637 183 172 160
-0.85710108 -0.10265201 1.9226637 234 231 219
-0.85710108 -0.096571445 1.9226637 233 230 218
-0.63819981 -0.078329682 1.9226637 230 232 221
-0.63819981 -0.072249085 1.9226637 232 233 224
-0.71116692 -0.041846126 1.9226637 237 237 227
-0.56523275 -0.023604363 1.9226637 235 238 229
-0.71724749 -0.017523766 1.9226637 240 240 230
-0.51050746 -0.011443168 1.9226637 236 239 231
-0.86318171 0.00071799755 1.9226637 240 239 228
-0.86318171 0.006798625 1.9226637 240 239 228
-0.51050746 0.012879193 1.9226637 238 241 233
-0.86926228 0.025040388 1.9226637 240 239 227
-0.86926228 0.031120956 1.9226637 240 239 227
-0.76589227 0.031120956 1.9226637 240 239 231
-0.55915213 0.037201524 1.9226637 240 241 233
-0.55915213 0.043282151 1.9226637 240 241 233
-0.65644157 0.061523914 1.9226637 240 241 231
-0.71116692 0.067604482 1.9226637 241 241 229
-0.52874923 0.091926873 1.9226637 240 243 234
-0.87534285 0.10408807 1.9226637 243 240 230
-0.54091036 0.10408807 1.9226637 239 241 233
-0.54699099 0.11016864 1.9226637 241 242 234
-0.76589227 0.13449097 1.9226637 243 243 231
-0.37065387 0.14665216 1.9226637 237 243 233
-0.37065387 0.15273273 1.9226637 238 242 232
-0.37673444 0.17705512 1.9226637 240 243 233
-0.89966524 0.268264 1.9226637 247 243 231
-0.51050746 0.268264 1.9226637 227 226 213
-0.89966524 0.27434456 1.9226637 246 242 230
0.29213047 -0.49789038 1.9287442 202 200 183
0.29213047 -0.49180979 1.9287442 196 194 177
0.27996933 -0.48572922 1.9287442 178 175 163
-0.1091885 -0.46140686 1.9287442 202 202 189
-0.82669812 -0.4370845 1.9287442 186 178 161
-0.82669812 -0.4310039 1.9287442 184 176 160
-0.04838264 -0.4310039 1.9287442 198 198 186
-0.81453693 -0.35803682 1.9287442 168 159 144
0.46238697 -0.28506973 1.9287442 150 135 118
0.46238697 -0.27898914 1.9287442 134 120 101
0.46238697 -0.27290857 1.9287442 131 118 101
-0.73548925 -0.26682797 1.9287442 121 113 95
0.40158105 -0.26682797 1.9287442 99 87 73
0.40766168 -0.26682797 1.9287442 98 85 69
0.39550054 -0.26074737 1.9287442 101 90 74
0.40158105 -0.26074737 1.9287442 104 91 77
-0.80845636 -0.25466678 1.9287442 148 140 120
-0.80237579 -0.25466678 1.9287442 148 140 120
0.40158105 -0.25466678 1.9287442 100 87 72
-0.84493989 -0.23642501 1.9287442 180 171 154
-0.84493989 -0.19386089 1.9287442 221 217 202
-0.83885932 -0.18778029 1.9287442 220 217 201
-0.55307156 -0.18778029 1.9287442 219 221 202
-0.82669812 -0.17561913 1.9287442 221 219 203
-0.82061756 -0.16953853 1.9287442 223 221 205
0.46846759 -0.16953853 1.9287442 186 170 147
-0.82061756 -0.16345793 1.9287442 222 220 205
0.46846759 -0.15737733 1.9287442 188 172 148
-0.85102046 -0.15129673 1.9287442 227 224 211
0.48062873 -0.13913557 1.9287442 193 178 160
0.48670936 -0.13305497 1.9287442 185 174 160
-0.86318171 -0.066168487 1.9287442 236 233 222
-0.57131338 -0.029684961 1.9287442 235 238 229
-0.65644157 -0.017523766 1.9287442 237 238 230
-0.650361 -0.017523766 1.9287442 238 239 231
-0.56523275 -0.017523766 1.9287442 235 238 229
0.48670936 -0.0053625703 1.9287442 247 250 243
0.48670936 0.00071799755 1.9287442 248 252 245
0.48670936 0.006798625 1.9287442 250 253 245
-0.37673444 0.025040388 1.9287442 233 240 229
-0.76589227 0.037201524 1.9287442 240 240 230
-0.76589227 0.043282151 1.9287442 240 240 229
-0.71724749 0.079765677 1.9287442 241 241 229
-0.71724749 0.085846245 1.9287442 243 243 231
-0.76589227 0.14057159 1.9287442 243 243 231
-0.37065387 0.15881336 1.9287442 237 242 231
-0.68076396 0.18313569 1.9287442 242 242 230
0.46238697 0.23786104 1.9287442 252 254 245
-0.5348298 0.25002217 1.9287442 230 232 219
-0.52874923 0.26218337 1.9287442 227 227 214
-0.82061756 -0.49180979 1.9348248 198 189 177
-0.82061756 -0.48572922 1.9348248 198 190 177
0.29213047 -0.48572922 1.9348248 170 167 152
-0.097027302 -0.47964862 1.9348248 211 211 198
0.29213047 -0.47964862 1.9348248 181 178 166
-0.097027302 -0.47356802 1.9348248 213 213 200
-0.82669812 -0.46140686 1.9348248 190 182 166
-0.11526906 -0.46140686 1.9348248 195 196 184
-0.1091885 -0.46140686 1.9348248 204 204 191
-0.82669812 -0.45532626 1.9348248 189 181 166
-0.12134969 -0.45532626 1.9348248 189 190 177
-0.82669812 -0.44924566 1.9348248 190 182 165
0.40766168 -0.32763386 1.9348248 114 112 105
0.40766168 -0.32155329 1.9348248 98 96 87
0.41982281 -0.2972309 1.9348248 109 98 85
-0.84493989 -0.24858618 1.9348248 163 153 135
0.46846759 -0.24250561 1.9348248 154 140 120
0.47454822 -0.18169969 1.9348248 175 158 137
-0.72332811 -0.13305497 1.9348248 222 221 208
-0.85710108 -0.1269744 1.9348248 233 230 217
-0.85710108 -0.12089381 1.9348248 234 232 219
-0.86318171 -0.090490848 1.9348248 235 232 220
-0.86318171 -0.08441025 1.9348248 236 233 221
-0.82669812 -0.078329682 1.9348248 236 234 221
-0.82669812 -0.072249085 1.9348248 236 234 222
-0.71116692 -0.047926724 1.9348248 236 236 228
-0.71724749 -0.029684961 1.9348248 237 237 227
-0.86926228 -0.023604363 1.9348248 240 237 225
-0.650361 -0.023604363 1.9348248 237 238 230
-0.86926228 -0.017523766 1.9348248 240 237 225
-0.86926228 -0.011443168 1.9348248 239 238 226
-0.72332811 -0.011443168 1.9348248 238 239 231
-0.86318171 -0.0053625703 1.9348248 239 238 227
-0.86318171 0.00071799755 1.9348248 240 239 228
-0.72940868 0.00071799755 1.9348248 238 238 229
-0.75981164 0.012879193 1.9348248 240 240 230
-0.51658803 0.018959761 1.9348248 240 243 235
-0.71116692 0.061523914 1.9348248 240 241 229
-0.55915213 0.067604482 1.9348248 241 242 234
-0.54699099 0.11016864 1.9348248 241 242 234
-0.51050746 0.268264 1.9348248 227 226 213
-0.9057458 0.28042513 1.9348248 247 243 231
-0.9057458 0.28650576 1.9348248 247 243 231
-0.9057458 0.29258633 1.9348248 246 242 230
0.2982111 -0.50397098 1.9409053 206 204 185
0.2982111 -0.49789038 1.9409053 203 201 183
0.2982111 -0.49180979 1.9409053 191 189 172
0.2982111 -0.48572922 1.9409053 177 175 160
0.2982111 -0.47964862 1.9409053 183 180 167
0.32253337 -0.46748745 1.9409053 185 183 170
0.33469462 -0.46140686 1.9409053 190 187 174
0.33469462 -0.45532626 1.9409053 191 190 176
-0.82669812 -0.44924566 1.9409053 189 181 165
0.32253337 -0.44924566 1.9409053 175 173 161
0.33469462 -0.44924566 1.9409053 187 185 172
-0.82669812 -0.44316506 1.9409053 188 180 165
-0.83885932 -0.34587562 1.9409053 157 148 132
-0.56523275 -0.19994146 1.9409053 210 211 191
-0.83885932 -0.18778029 1.9409053 220 217 200
-0.55307156 -0.18778029 1.9409053 221 223 204
-0.85710108 -0.14521617 1.9409053 228 226 212
-0.82669812 -0.090490848 1.9409053 235 233 221
-0.86318171 -0.078329682 1.9409053 236 233 221
-0.86318171 -0.072249085 1.9409053 237 234 223
-0.86926228 -0.047926724 1.9409053 238 235 223
-0.56523275 -0.011443168 1.9409053 235 237 229
-0.55307156 -0.0053625703 1.9409053 237 239 231
-0.87534285 0.018959761 1.9409053 240 239 227
-0.87534285 0.025040388 1.9409053 240 239 227
-0.51658803 0.025040388 1.9409053 241 244 236
-0.55915213 0.037201524 1.9409053 240 241 233
-0.65644157 0.049362719 1.9409053 241 242 234
-0.65644157 0.055443287 1.9409053 240 241 233
-0.9057458 0.29866695 1.9409053 246 242 230
-0.50442684 0.29866695 1.9409053 209 207 190
0.47454822 0.29866695 1.9409053 248 251 240
0.48062873 0.29866695 1.9409053 248 250 239
-0.9057458 0.30474752 1.9409053 246 242 230
0.30429161 -0.48572922 1.946986 189 186 172
0.30429161 -0.47964862 1.946986 180 177 165
-0.83277869 -0.41276214 1.946986 182 174 157
-0.83277869 -0.40668154 1.946986 179 171 155
-0.82061756 -0.34587562 1.946986 159 149 135
0.41982281 -0.29115033 1.946986 113 101 87
-0.71724749 -0.28506973 1.946986 108 101 84
0.41982281 -0.28506973 1.946986 105 92 78
0.41982281 -0.27898914 1.946986 105 92 78
0.4137423 -0.26682797 1.946986 99 86 71
-0.80237579 -0.25466678 1.946986 151 144 123
-0.55915213 -0.19386089 1.946986 216 218 199
-0.82669812 -0.17561913 1.946986 222 220 204
-0.82669812 -0.16953853 1.946986 223 221 206
-0.82669812 -0.16345793 1.946986 223 221 206
-0.86318171 -0.10265201 1.946986 234 231 219
-0.83277869 -0.066168487 1.946986 237 235 223
-0.57739395 -0.060087889 1.946986 229 232 222
-0.71724749 -0.041846126 1.946986 237 237 229
-0.86926228 -0.035765529 1.946986 238 235 224
-0.57739395 -0.035765529 1.946986 234 237 228
-0.57131338 -0.029684961 1.946986 235 238 229
-0.56523275 -0.017523766 1.946986 235 238 229
-0.51658803 -0.011443168 1.946986 236 239 231
-0.86926228 0.006798625 1.946986 240 239 228
-0.87534285 0.031120956 1.946986 241 240 229
-0.86926228 0.061523914 1.946986 242 240 230
-0.71724749 0.067604482 1.946986 241 242 229
-0.52874923 0.085846245 1.946986 240 243 234
-0.54699099 0.11016864 1.946986 241 242 234
-0.55307156 0.1162492 1.946986 241 242 234
-0.77197284 0.14057159 1.946986 243 243 231
0.47454822 0.23178041 1.946986 252 254 246
-0.51050746 0.28042513 1.946986 220 220 204
-0.50442684 0.29258633 1.946986 212 211 196
0.47454822 0.29866695 1.946986 249 251 240
-0.097027302 -0.47356802 1.9530666 213 213 200
-0.55307156 -0.46140686 1.9530666 202 201 186
-0.12134969 -0.45532626 1.9530666 192 193 180
0.328614 -0.44924566 1.9530666 166 164 150
0.34077513 -0.44924566 1.9530666 189 186 172
-0.83277869 -0.44316506 1.9530666 186 178 162
-0.04838264 -0.44316506 1.9530666 193 192 179
-0.83277869 -0.4370845 1.9530666 185 177 161
0.45630634 -0.40060094 1.9530666 171 165 156
0.47454822 -0.37627858 1.9530666 168 162 152
-0.73548925 -0.27290857 1.9530666 117 109 91
-0.74765044 -0.26682797 1.9530666 126 118 99
0.40766168 -0.26074737 1.9530666 104 91 77
0.4137423 -0.25466678 1.9530666 107 94 79
-0.85710108 -0.21210265 1.9530666 215 208 192
-0.85710108 -0.20602205 1.9530666 217 211 195
-0.85710108 -0.19994146 1.9530666 221 215 200
0.48062873 -0.18778029 1.9530666 164 149 127
-0.75981164 -0.15129673 1.9530666 218 217 202
-0.72332811 -0.1269744 1.9530666 223 222 210
-0.72332811 -0.12089381 1.9530666 223 223 211
-0.64428043 -0.08441025 1.9530666 229 230 220
-0.64428043 -0.072249085 1.9530666 232 233 224
-0.86926228 -0.066168487 1.9530666 237 234 222
-0.86926228 -0.060087889 1.9530666 237 234 222
-0.57739395 -0.054007292 1.9530666 230 233 223
-0.57739395 -0.047926724 1.9530666 232 235 226
-0.57739395 -0.041846126 1.9530666 232 235 226
-0.72332811 -0.017523766 1.9530666 239 239 230
-0.6625222 -0.011443168 1.9530666 239 240 232
-0.44970155 0.00071799755 1.9530666 234 237 228
-0.74765044 0.006798625 1.9530666 240 240 230
-0.51658803 0.012879193 1.9530666 238 241 233
-0.44970155 0.018959761 1.9530666 237 240 231
-0.55307156 0.025040388 1.9530666 239 241 234
-0.44970155 0.025040388 1.9530666 237 240 231
-0.77197284 0.043282151 1.9530666 240 240 229
-0.56523275 0.043282151 1.9530666 240 241 233
-0.77197284 0.049362719 1.9530666 240 240 229
-0.56523275 0.049362719 1.9530666 241 242 234
-0.56523275 0.055443287 1.9530666 241 242 234
-0.71724749 0.07368511 1.9530666 240 241 229
-0.83277869 0.091926873 1.9530666 242 241 229
0.47454822 0.23178041 1.9530666 252 254 246
0.47454822 0.23786104 1.9530666 252 254 246
-0.54091036 0.24394161 1.9530666 236 238 226
0.47454822 0.24394161 1.9530666 252 254 245
0.46846759 0.25002217 1.9530666 251 253 245
-0.91182637 0.31082809 1.9530666 245 241 229
-0.91182637 0.31690872 1.9530666 245 241 229
-0.097027302 -0.49789038 1.9591472 210 211 199
-0.097027302 -0.49180979 1.9591472 210 210 197
-0.097027302 -0.47356802 1.9591472 212 212 199
-0.1091885 -0.46748745 1.9591472 193 194 182
-0.83277869 -0.46140686 1.9591472 190 181 167
-0.11526906 -0.46140686 1.9591472 198 199 187
-0.83277869 -0.45532626 1.9591472 188 180 165
-0.85102046 -0.25466678 1.9591472 159 150 131
0.47454822 -0.23642501 1.9591472 155 140 120
-0.85710108 -0.23034441 1.9591472 195 186 171
0.48670936 -0.19386089 1.9591472 156 141 119
0.48670936 -0.18778029 1.9591472 169 154 132
-0.85102046 -0.15737733 1.9591472 225 222 208
-0.650361 -0.096571445 1.9591472 225 227 214
-0.86926228 -0.090490848 1.9591472 235 232 220
-0.86926228 -0.08441025 1.9591472 236 233 221
-0.83277869 -0.08441025 1.9591472 235 233 221
-0.83277869 -0.078329682 1.9591472 235 233 221
-0.64428043 -0.078329682 1.9591472 231 233 222
-0.83277869 -0.072249085 1.9591472 236 234 221
-0.83277869 -0.066168487 1.9591472 237 235 223
-0.63211924 -0.066168487 1.9591472 232 233 225
-0.71724749 -0.047926724 1.9591472 236 236 228
-0.87534285 -0.023604363 1.9591472 240 237 225
-0.65644157 -0.023604363 1.9591472 237 238 230
-0.87534285 -0.017523766 1.9591472 240 237 225
-0.73548925 0.00071799755 1.9591472 239 239 231
-0.51658803 0.018959761 1.9591472 239 242 234
-0.55307156 0.025040388 1.9591472 240 242 235
-0.51658803 0.025040388 1.9591472 241 244 236
-0.55915213 0.031120956 1.9591472 240 241 233
-0.55915213 0.037201524 1.9591472 241 242 234
-0.88142347 0.049362719 1.9591472 241 239 228
-0.83277869 0.079765677 1.9591472 241 241 229
-0.83277869 0.085846245 1.9591472 241 241 229
-0.82669812 0.098007441 1.9591472 241 241 229
-0.82669812 0.10408807 1.9591472 244 243 231
-0.82061756 0.10408807 1.9591472 242 241 229
-0.82061756 0.11016864 1.9591472 243 242 230
-0.54091036 0.23786104 1.9591472 235 237 224
-0.54091036 0.24394161 1.9591472 235 237 225
-0.54091036 0.25002217 1.9591472 232 234 221
0.47454822 -0.28506973 1.9652277 135 121 101
-0.7780534 -0.26074737 1.9652277 141 133 115
-0.56523275 -0.19994146 1.9652277 214 215 195
-0.52874923 -0.15737733 1.9652277 230 232 216
-0.86318171 -0.15129673 1.9652277 227 224 210
-0.86318171 -0.14521617 1.9652277 228 225 212
-0.86318171 -0.13913557 1.9652277 230 227 215
-0.45578212 -0.1269744 1.9652277 232 235 221
-0.45578212 -0.12089381 1.9652277 232 235 221
-0.86926228 -0.11481321 1.9652277 236 233 221
-0.86926228 -0.10873261 1.9652277 235 232 220
-0.72332811 -0.035765529 1.9652277 237 237 229
-0.87534285 0.00071799755 1.9652277 240 239 228
-0.76589227 0.012879193 1.9652277 240 240 230
-0.88142347 0.018959761 1.9652277 240 239 227
-0.88142347 0.025040388 1.9652277 240 239 227
-0.65644157 0.043282151 1.9652277 241 242 234
-0.56523275 0.043282151 1.9652277 240 241 233
-0.65644157 0.049362719 1.9652277 241 242 234
-0.56523275 0.049362719 1.9652277 241 242 234
-0.6625222 0.061523914 1.9652277 240 241 233
-0.52874923 0.085846245 1.9652277 240 243 234
-0.5348298 0.091926873 1.9652277 240 243 234
-0.54091036 0.10408807 1.9652277 240 242 234
-0.88750404 0.11016864 1.9652277 243 240 229
0.48062873 0.24394161 1.9652277 252 254 245
0.47454822 0.25002217 1.9652277 251 253 245
0.48062873 0.25002217 1.9652277 251 253 245
0.47454822 0.2561028 1.9652277 251 253 245
0.48062873 0.2561028 1.9652277 251 253 245
-0.51050746 0.29258633 1.9652277 215 214 198
-0.55307156 -0.46748745 1.9713084 202 201 186
-0.83885932 -0.41884273 1.9713084 180 172 156
-0.83885932 -0.41276214 1.9713084 178 170 154
-0.83885932 -0.37627858 1.9713084 171 164 144
-0.83277869 -0.37019801 1.9713084 170 162 144
-0.82669812 -0.35803682 1.9713084 166 156 142
-0.82669812 -0.35195622 1.9713084 162 153 138
-0.85710108 -0.24858618 1.9713084 170 161 143
-0.85710108 -0.24250561 1.9713084 177 168 150
0.48670936 -0.18169969 1.9713084 175 158 137
-0.83277869 -0.17561913 1.9713084 221 220 203
-0.82669812 -0.17561913 1.9713084 221 219 203
-0.83277869 -0.16953853 1.9713084 222 220 205
-0.82669812 -0.16953853 1.9713084 221 219 204
-0.82061756 -0.16953853 1.9713084 221 219 204
-0.83277869 -0.16345793 1.9713084 222 220 205
-0.85710108 -0.15129673 1.9713084 226 224 210
-0.72940868 -0.12089381 1.9713084 224 224 212
-0.6625222 -0.017523766 1.9713084 238 239 231
-0.66860282 -0.011443168 1.9713084 239 240 232
-0.44970155 0.006798625 1.9713084 234 237 228
-0.44970155 0.012879193 1.9713084 235 238 229
-0.88142347 0.055443287 1.9713084 242 240 230
-0.71724749 0.055443287 1.9713084 239 240 228
-0.87534285 0.061523914 1.9713084 242 240 230
-0.56523275 0.061523914 1.9713084 242 243 235
-0.56523275 0.067604482 1.9713084 242 243 235
-0.7780534 0.12232983 1.9713084 241 241 229
-0.51658803 0.27434456 1.9713084 227 227 213
-0.097027302 -0.47964862 1.977389 212 212 199
0.34077513 -0.47356802 1.977389 191 188 175
-0.12134969 -0.46140686 1.977389 192 193 180
0.34685576 -0.46140686 1.977389 188 187 174
-0.83885932 -0.44924566 1.977389 187 179 163
-0.83885932 -0.44316506 1.977389 185 177 161
-0.83885932 -0.4370845 1.977389 184 176 160
0.46238697 -0.39452034 1.977389 164 160 151
0.46238697 -0.38843977 1.977389 167 161 151
0.46846759 -0.38843977 1.977389 166 161 150
0.46846759 -0.38235918 1.977389 165 160 150
0.37725878 -0.37019801 1.977389 137 132 121
-0.72332811 -0.29115033 1.977389 105 98 81
0.48062873 -0.24250561 1.977389 158 143 123
-0.86318171 -0.21210265 1.977389 216 209 193
-0.86318171 -0.20602205 1.977389 219 213 197
-0.86318171 -0.19994146 1.977389 222 216 201
-0.55307156 -0.18169969 1.977389 225 227 208
0.48670936 -0.16953853 1.977389 189 172 151
0.48670936 -0.16345793 1.977389 188 173 150
0.48670936 -0.15737733 1.977389 178 161 139
-0.76589227 -0.15129673 1.977389 219 218 203
-0.72940868 -0.1269744 1.977389 222 221 209
-0.86926228 -0.12089381 1.977389 235 232 221
-0.87534285 -0.066168487 1.977389 237 234 223
-0.87534285 -0.060087889 1.977389 237 234 223
-0.72332811 -0.041846126 1.977389 236 236 228
-0.88142347 -0.029684961 1.977389 239 236 225
-0.88142347 -0.023604363 1.977389 240 237 225
-0.72940868 -0.017523766 1.977389 238 238 229
-0.44970155 0.00071799755 1.977389 234 237 228
-0.75373101 0.006798625 1.977389 240 240 230
-0.88142347 0.012879193 1.977389 240 239 228
-0.44970155 0.018959761 1.977389 236 239 230
-0.55307156 0.025040388 1.977389 240 242 235
-0.44970155 0.025040388 1.977389 237 240 231
-0.55915213 0.031120956 1.977389 240 242 235
-0.7780534 0.043282151 1.977389 240 240 228
-0.56523275 0.043282151 1.977389 240 241 233
-0.7780534 0.049362719 1.977389 240 240 228
-0.72332811 0.07368511 1.977389 240 241 229
-0.37673444 0.15881336 1.977389 239 242 232
-0.37673444 0.16489393 1.977389 239 242 232
-0.54091036 0.2561028 1.977389 230 232 219
-0.92398757 0.35339224 1.977389 244 240 228
-0.097027302 -0.50397098 1.9834695 210 212 199
-0.097027302 -0.49789038 1.9834695 210 210 197
-0.55307156 -0.47964862 1.9834695 202 202 186
-0.097027302 -0.47964862 1.9834695 213 213 200
-0.83885932 -0.46748745 1.9834695 190 181 167
-0.11526906 -0.46748745 1.9834695 191 192 180
-0.042302012 -0.44316506 1.9834695 193 193 181
-0.042302012 -0.4370845 1.9834695 197 197 185
0.45630634 -0.38235918 1.9834695 172 167 159
0.46238697 -0.38235918 1.9834695 173 169 160
0.37725878 -0.36411741 1.9834695 134 127 113
-0.73548925 -0.27898914 1.9834695 110 102 85
0.41982281 -0.26074737 1.9834695 93 82 66
-0.83277869 -0.16953853 1.9834695 221 219 204
-0.5348298 -0.16953853 1.9834695 228 230 212
-0.85710108 -0.15737733 1.9834695 226 224 210
-0.83885932 -0.15737733 1.9834695 225 223 208
-0.83885932 -0.15129673 1.9834695 226 224 210
-0.87534285 -0.090490848 1.9834695 236 233 221
-0.83885932 -0.090490848 1.9834695 235 233 221
-0.650361 -0.090490848 1.9834695 227 228 218
-0.87534285 -0.08441025 1.9834695 237 234 222
-0.650361 -0.08441025 1.9834695 229 231 220
-0.64428043 -0.08441025 1.9834695 229 230 220
-0.650361 -0.078329682 1.9834695 231 233 222
-0.83885932 -0.072249085 1.9834695 235 234 222
-0.72332811 -0.047926724 1.9834695 236 236 228
-0.72940868 -0.029684961 1.9834695 237 237 229
-0.73548925 -0.0053625703 1.9834695 239 239 231
-0.74765044 0.00071799755 1.9834695 238 238 229
-0.77197284 0.012879193 1.9834695 240 240 230
-0.5226686 0.012879193 1.9834695 238 241 233
-0.5226686 0.018959761 1.9834695 240 243 235
-0.5226686 0.037201524 1.9834695 239 242 234
-0.88750404 0.049362719 1.9834695 241 239 229
-0.56523275 0.07368511 1.9834695 241 242 234
-0.83885932 0.079765677 1.9834695 240 240 229
-0.72940868 0.085846245 1.9834695 242 243 230
-0.89966524 0.15881336 1.9834695 244 241 230
-0.37673444 0.17097455 1.9834695 240 243 233
0.48670936 0.23786104 1.9834695 252 254 245
-0.51658803 0.28042513 1.9834695 224 223 209
