ply
format ascii 1.0
comment PCL generated
element vertex 1034
property float x
property float y
property float z
property uchar red
property uchar green
property uchar blue
element camera 0
property float view_px
property float view_py
property float view_pz
property float x_axisx
property float x_axisy
property float x_axisz
property float y_axisx
property float y_axisy
property float y_axisz
property float z_axisx
property float z_axisy
property float z_axisz
property float focal
property float scalex
property float scaley
property float centerx
property float centery
property int viewportx
property int viewporty
property float k1
property float k2
end_header
-0.39497626 -0.16953853 1.8922607 238 241 227
-0.62603867 -0.1269744 1.8922607 234 233 219
-0.62603867 -0.12089381 1.8922607 234 233 219
-0.62603867 -0.11481321 1.8922607 233 233 220
-0.63211924 -0.096571445 1.8922607 233 234 223
-0.63211924 -0.090490848 1.8922607 234 234 224
-0.63211924 -0.08441025 1.8922607 235 236 227
-0.63211924 -0.078329682 1.8922607 236 236 227
-0.63211924 -0.072249085 1.8922607 236 237 229
-0.62603867 -0.060087889 1.8922607 238 238 230
-0.3524121 0.085846245 1.8922607 245 247 238
-0.32200915 0.18921632 1.8922607 242 244 236
-0.32808971 0.20137751 1.8922607 240 244 234
-0.33417034 0.20745808 1.8922607 242 245 235
-0.34025091 0.21353865 1.8922607 243 245 236
-0.60171628 0.21961927 1.8922607 244 245 232
-0.59563571 0.21961927 1.8922607 243 244 232
-0.58955514 0.21961927 1.8922607 242 243 231
-0.34025091 0.21961927 1.8922607 242 244 235
-0.33417034 0.21961927 1.8922607 239 243 234
-0.60779691 0.22569984 1.8922607 245 244 231
-0.60171628 0.22569984 1.8922607 243 244 231
-0.59563571 0.22569984 1.8922607 243 243 230
-0.58955514 0.22569984 1.8922607 242 243 230
-0.34025091 0.22569984 1.8922607 241 243 235
-0.33417034 0.22569984 1.8922607 239 242 233
-0.60779691 0.23178041 1.8922607 243 242 230
-0.59563571 0.23178041 1.8922607 242 241 228
-0.58955514 0.23178041 1.8922607 241 241 227
-0.60779691 0.23786104 1.8922607 241 240 227
-0.60171628 0.23786104 1.8922607 240 240 226
-0.59563571 0.23786104 1.8922607 240 240 226
-0.58955514 0.23786104 1.8922607 239 239 225
-0.60171628 0.24394161 1.8922607 239 239 225
-0.59563571 0.24394161 1.8922607 238 237 224
-0.3645733 -0.50397098 1.8983412 216 216 202
-0.030140758 -0.49789038 1.8983412 182 177 161
-0.024060249 -0.49789038 1.8983412 183 178 161
-0.017979622 -0.49789038 1.8983412 183 178 161
0.079309821 -0.49180979 1.8983412 187 183 168
0.085390449 -0.49180979 1.8983412 187 184 168
-0.37673444 -0.47964862 1.8983412 224 224 210
0.061068058 -0.47964862 1.8983412 179 176 164
0.067148566 -0.47964862 1.8983412 183 180 167
-0.37673444 -0.47356802 1.8983412 226 225 212
0.061068058 -0.47356802 1.8983412 177 174 163
-0.37673444 -0.46748745 1.8983412 226 226 212
-0.37673444 -0.46140686 1.8983412 227 227 213
-0.37673444 -0.45532626 1.8983412 227 226 213
-0.56523275 -0.40060094 1.8983412 215 213 196
0.03066504 -0.40060094 1.8983412 169 165 152
-0.38281506 -0.37627858 1.8983412 226 227 214
-0.38889563 -0.37019801 1.8983412 229 229 215
-0.42537916 -0.35803682 1.8983412 221 222 206
-0.41321802 -0.35803682 1.8983412 226 227 212
-0.58347452 -0.32155329 1.8983412 206 202 185
-0.57131338 -0.32155329 1.8983412 207 205 188
-0.59563571 -0.30939209 1.8983412 196 193 177
-0.3524121 -0.25466678 1.8983412 230 231 217
-0.3524121 -0.24858618 1.8983412 233 235 221
-0.3524121 -0.24250561 1.8983412 234 236 222
-0.60779691 -0.23642501 1.8983412 216 213 195
-0.60779691 -0.23034441 1.8983412 223 220 203
-0.5226686 -0.21818325 1.8983412 233 233 216
-0.30376738 -0.21818325 1.8983412 239 242 226
-0.31592858 -0.21210265 1.8983412 238 240 225
-0.5226686 -0.20602205 1.8983412 234 233 217
-0.32200915 -0.20602205 1.8983412 236 238 223
-0.61387748 -0.19994146 1.8983412 232 231 214
-0.32808971 -0.19994146 1.8983412 234 237 221
-0.61387748 -0.19386089 1.8983412 234 233 217
-0.50442684 -0.19386089 1.8983412 234 235 219
-0.40105683 -0.19386089 1.8983412 236 238 223
-0.61387748 -0.18778029 1.8983412 236 234 220
-0.40105683 -0.18778029 1.8983412 237 239 223
-0.61387748 -0.18169969 1.8983412 237 236 222
-0.61995804 -0.15737733 1.8983412 238 236 223
-0.61995804 -0.15129673 1.8983412 237 236 222
-0.61995804 -0.14521617 1.8983412 237 235 222
-0.61995804 -0.13913557 1.8983412 237 236 222
-0.33417034 -0.090490848 1.8983412 246 249 238
-0.63819981 -0.035765529 1.8983412 242 242 236
-0.64428043 -0.011443168 1.8983412 244 244 238
-0.64428043 -0.0053625703 1.8983412 245 245 238
-0.64428043 0.00071799755 1.8983412 244 244 237
-0.64428043 0.006798625 1.8983412 244 244 237
-0.35849267 0.055443287 1.8983412 244 247 238
-0.3524121 0.079765677 1.8983412 244 246 238
-0.31592858 0.18313569 1.8983412 243 246 237
-0.31592858 0.18921632 1.8983412 242 244 236
-0.32200915 0.19529688 1.8983412 242 244 236
-0.32200915 0.20137751 1.8983412 242 244 236
-0.32808971 0.20745808 1.8983412 240 244 233
-0.32200915 0.20745808 1.8983412 240 244 233
-0.33417034 0.21353865 1.8983412 241 244 234
-0.32808971 0.21353865 1.8983412 240 243 233
-0.32200915 0.21353865 1.8983412 239 243 233
-0.32808971 0.21961927 1.8983412 239 242 233
-0.32200915 0.21961927 1.8983412 238 242 232
-0.31592858 0.21961927 1.8983412 237 241 230
-0.60171628 0.23178041 1.8983412 243 243 229
-0.60779691 0.23786104 1.8983412 242 241 228
-0.3645733 -0.49789038 1.9044218 218 217 204
0.10363221 -0.49789038 1.9044218 187 181 166
0.17659926 -0.49789038 1.9044218 188 183 168
-0.066624343 -0.49180979 1.9044218 186 181 169
-0.37065387 -0.48572922 1.9044218 222 222 208
-0.090946734 -0.47964862 1.9044218 193 188 175
0.067148566 -0.47964862 1.9044218 180 177 164
-0.097027302 -0.47356802 1.9044218 195 190 177
0.018503904 -0.44924566 1.9044218 169 167 154
-0.35849267 -0.41884273 1.9044218 221 221 207
-0.35849267 -0.41276214 1.9044218 224 224 211
-0.3645733 -0.40668154 1.9044218 223 222 209
-0.37673444 -0.38843977 1.9044218 225 225 211
-0.43754035 -0.35195622 1.9044218 223 221 207
-0.45578212 -0.34587562 1.9044218 223 222 209
-0.48618507 -0.33979505 1.9044218 219 218 203
-0.41321802 -0.23034441 1.9044218 231 233 217
-0.50442684 -0.19386089 1.9044218 234 235 219
-0.30984795 0.18921632 1.9044218 242 244 235
-0.30984795 0.19529688 1.9044218 242 244 235
-0.29768682 0.20137751 1.9044218 241 243 234
-0.31592858 0.20745808 1.9044218 240 243 233
-0.31592858 0.21353865 1.9044218 238 242 232
0.14011574 -0.50397098 1.9105024 186 182 166
-0.060543776 -0.49180979 1.9105024 186 181 168
0.1887604 -0.49180979 1.9105024 182 178 164
0.1887604 -0.48572922 1.9105024 167 164 151
0.024584532 -0.44924566 1.9105024 173 171 158
0.012423277 -0.44316506 1.9105024 168 166 153
-0.57739395 -0.4249233 1.9105024 217 213 198
-0.57739395 -0.41884273 1.9105024 217 213 198
-0.57739395 -0.41276214 1.9105024 216 213 198
0.024584532 -0.41276214 1.9105024 171 167 154
0.024584532 -0.40668154 1.9105024 154 150 138
-0.57739395 -0.40060094 1.9105024 215 213 196
-0.3645733 -0.40060094 1.9105024 226 226 212
0.036745667 -0.40060094 1.9105024 167 163 151
0.042826295 -0.40060094 1.9105024 173 168 156
-0.58347452 -0.38843977 1.9105024 215 213 197
-0.46186274 -0.34587562 1.9105024 220 219 204
-0.60779691 -0.23034441 1.9105024 223 220 203
-0.47402388 -0.22426385 1.9105024 233 234 217
-0.29768682 -0.22426385 1.9105024 240 242 227
-0.48010451 -0.21818325 1.9105024 236 237 220
-0.30376738 -0.21818325 1.9105024 239 242 226
-0.39497626 -0.18169969 1.9105024 236 239 224
-0.39497626 -0.17561913 1.9105024 237 240 225
-0.40105683 -0.16953853 1.9105024 239 242 227
-0.61995804 -0.15737733 1.9105024 238 236 223
-0.62603867 -0.1269744 1.9105024 234 233 219
-0.62603867 -0.12089381 1.9105024 234 234 219
-0.62603867 -0.11481321 1.9105024 233 233 220
-0.62603867 -0.10873261 1.9105024 233 233 220
-0.63211924 -0.08441025 1.9105024 235 235 225
-0.32808971 -0.08441025 1.9105024 245 250 238
-0.63211924 -0.078329682 1.9105024 236 236 227
-0.63211924 -0.072249085 1.9105024 236 237 229
-0.64428043 -0.011443168 1.9105024 243 243 237
-0.64428043 -0.0053625703 1.9105024 245 245 238
-0.3524121 0.067604482 1.9105024 243 246 237
-0.3524121 0.07368511 1.9105024 244 247 238
-0.3524121 0.079765677 1.9105024 244 246 238
-0.3524121 0.085846245 1.9105024 244 246 238
-0.3524121 0.091926873 1.9105024 245 247 238
-0.3524121 0.098007441 1.9105024 245 247 238
-0.31592858 0.18921632 1.9105024 242 244 236
-0.31592858 0.19529688 1.9105024 242 244 235
-0.31592858 0.20137751 1.9105024 242 244 236
-0.3645733 -0.49789038 1.9165831 218 217 204
-0.042302012 -0.49789038 1.9165831 183 178 164
-0.030140758 -0.49789038 1.9165831 184 179 163
0.18267989 -0.49789038 1.9165831 189 183 169
-0.37065387 -0.49180979 1.9165831 222 222 208
-0.3645733 -0.49180979 1.9165831 220 219 206
0.079309821 -0.49180979 1.9165831 184 180 166
-0.37065387 -0.48572922 1.9165831 223 223 209
0.073229194 -0.48572922 1.9165831 182 179 166
-0.090946734 -0.47964862 1.9165831 193 188 175
0.067148566 -0.47964862 1.9165831 178 175 163
-0.097027302 -0.47356802 1.9165831 195 190 177
-0.10310793 -0.46748745 1.9165831 196 191 178
-0.37673444 -0.46140686 1.9165831 228 227 214
-0.37673444 -0.45532626 1.9165831 228 227 214
-0.38281506 -0.37627858 1.9165831 228 227 214
-0.40105683 -0.36411741 1.9165831 228 229 214
-0.42537916 -0.35803682 1.9165831 223 224 208
-0.41929859 -0.35803682 1.9165831 226 227 211
-0.43145978 -0.35195622 1.9165831 225 224 210
-0.59563571 -0.30939209 1.9165831 197 194 178
0.012423277 -0.28506973 1.9165831 152 129 98
-0.30984795 -0.21210265 1.9165831 238 241 225
-0.31592858 -0.20602205 1.9165831 236 238 223
-0.61387748 -0.19994146 1.9165831 232 231 213
-0.32808971 -0.19994146 1.9165831 234 237 221
-0.61387748 -0.19386089 1.9165831 234 233 216
-0.61387748 -0.18778029 1.9165831 236 234 220
-0.61387748 -0.18169969 1.9165831 237 236 222
-0.49834627 -0.18169969 1.9165831 233 235 219
-0.61387748 -0.17561913 1.9165831 239 237 224
-0.61995804 -0.15129673 1.9165831 237 236 222
-0.61995804 -0.14521617 1.9165831 237 236 222
-0.35849267 -0.10873261 1.9165831 241 245 234
-0.63211924 -0.078329682 1.9165831 236 237 228
-0.62603867 -0.060087889 1.9165831 238 238 230
-0.62603867 -0.054007292 1.9165831 239 239 232
-0.63819981 -0.035765529 1.9165831 242 242 236
-0.63819981 -0.029684961 1.9165831 242 242 235
-0.63819981 -0.023604363 1.9165831 243 243 236
-0.64428043 0.00071799755 1.9165831 244 244 237
-0.64428043 0.006798625 1.9165831 244 244 237
-0.38889563 0.031120956 1.9165831 240 245 235
-0.30984795 0.21353865 1.9165831 241 244 233
-0.30376738 0.21353865 1.9165831 238 242 231
-0.35849267 -0.50397098 1.9226637 216 215 202
0.097551584 -0.49789038 1.9226637 187 184 168
0.1887604 -0.49180979 1.9226637 178 175 162
-0.078785539 -0.48572922 1.9226637 191 187 175
-0.37065387 -0.47964862 1.9226637 225 225 211
-0.37065387 -0.47356802 1.9226637 225 224 211
-0.37065387 -0.46748745 1.9226637 226 225 212
0.018503904 -0.44924566 1.9226637 159 157 144
0.0063427687 -0.4370845 1.9226637 157 155 143
0.012423277 -0.4249233 1.9226637 169 167 154
-0.35849267 -0.41884273 1.9226637 220 219 206
-0.3645733 -0.40060094 1.9226637 226 226 212
-0.37065387 -0.39452034 1.9226637 226 226 212
-0.37673444 -0.38235918 1.9226637 226 226 213
-0.38281506 -0.37627858 1.9226637 228 227 214
0.27388871 -0.37627858 1.9226637 123 110 88
-0.38889563 -0.37019801 1.9226637 230 230 217
0.27996933 -0.37019801 1.9226637 129 115 91
-0.39497626 -0.36411741 1.9226637 229 230 215
-0.44362092 -0.35195622 1.9226637 223 221 208
-0.46186274 -0.34587562 1.9226637 220 220 205
-0.4922657 -0.33979505 1.9226637 216 215 198
-0.55307156 -0.32763386 1.9226637 210 207 189
-0.54699099 -0.32763386 1.9226637 212 209 191
-0.5348298 -0.32763386 1.9226637 218 215 196
-0.57739395 -0.32155329 1.9226637 209 205 190
-0.41321802 -0.23034441 1.9226637 231 233 217
-0.39497626 -0.19386089 1.9226637 237 239 223
-0.49834627 -0.18778029 1.9226637 234 236 219
-0.39497626 -0.18778029 1.9226637 237 239 223
-0.39497626 -0.18169969 1.9226637 236 239 224
-0.39497626 -0.17561913 1.9226637 237 240 225
-0.39497626 -0.16953853 1.9226637 238 241 226
-0.30984795 0.19529688 1.9226637 243 245 236
-0.30984795 0.20137751 1.9226637 242 244 236
-0.30376738 0.20137751 1.9226637 242 244 235
-0.30984795 0.20745808 1.9226637 239 242 232
-0.30376738 0.20745808 1.9226637 240 243 233
0.13403511 -0.50397098 1.9287442 187 182 166
-0.066624343 -0.49180979 1.9287442 187 182 169
0.024584532 -0.44924566 1.9287442 167 165 152
0.03066504 -0.44924566 1.9287442 173 171 159
0.012423277 -0.44316506 1.9287442 153 151 138
0.018503904 -0.44316506 1.9287442 159 157 145
-0.3524121 -0.4310039 1.9287442 221 220 207
-0.3524121 -0.4249233 1.9287442 222 221 208
0.018503904 -0.4249233 1.9287442 166 164 151
-0.57739395 -0.41884273 1.9287442 217 213 199
-0.3524121 -0.41884273 1.9287442 224 223 210
-0.57739395 -0.41276214 1.9287442 216 213 198
-0.35849267 -0.41276214 1.9287442 222 221 208
-0.57739395 -0.40060094 1.9287442 215 213 196
0.27996933 -0.38235918 1.9287442 130 116 94
0.28604984 -0.38235918 1.9287442 137 121 97
0.28604984 -0.37627858 1.9287442 134 118 92
-0.54699099 -0.32763386 1.9287442 212 209 191
0.018503904 -0.29115033 1.9287442 144 123 91
0.024584532 -0.29115033 1.9287442 146 126 95
-0.34633148 -0.26074737 1.9287442 230 232 215
-0.60779691 -0.23642501 1.9287442 222 219 201
-0.60779691 -0.23034441 1.9287442 224 221 203
-0.47402388 -0.23034441 1.9287442 230 231 213
-0.46794331 -0.23034441 1.9287442 232 233 215
-0.60779691 -0.22426385 1.9287442 227 225 208
-0.5226686 -0.21818325 1.9287442 234 233 217
-0.48618507 -0.21818325 1.9287442 237 238 221
-0.48010451 -0.21818325 1.9287442 235 236 219
-0.29768682 -0.21818325 1.9287442 240 242 227
-0.5226686 -0.20602205 1.9287442 235 234 218
-0.61995804 -0.15737733 1.9287442 238 236 222
-0.61995804 -0.15129673 1.9287442 237 236 222
-0.62603867 -0.12089381 1.9287442 234 234 219
-0.62603867 -0.11481321 1.9287442 233 233 220
-0.62603867 -0.10873261 1.9287442 233 233 220
-0.62603867 -0.10265201 1.9287442 233 233 220
-0.64428043 -0.011443168 1.9287442 243 243 237
-0.64428043 -0.0053625703 1.9287442 245 245 238
-0.41321802 -0.0053625703 1.9287442 241 244 235
-0.64428043 0.00071799755 1.9287442 244 244 237
-0.41321802 0.00071799755 1.9287442 241 244 235
-0.41321802 0.006798625 1.9287442 242 245 236
-0.38889563 0.037201524 1.9287442 242 246 237
-0.3524121 0.055443287 1.9287442 244 247 238
-0.3524121 0.07368511 1.9287442 244 247 238
-0.35849267 -0.50397098 1.9348248 216 216 202
-0.024060249 -0.50397098 1.9348248 184 179 163
-0.3645733 -0.49789038 1.9348248 220 220 206
-0.090946734 -0.47964862 1.9348248 194 189 176
-0.37065387 -0.47356802 1.9348248 226 225 212
-0.097027302 -0.47356802 1.9348248 196 191 178
-0.37065387 -0.46748745 1.9348248 226 226 212
-0.37673444 -0.38235918 1.9348248 226 226 213
0.29213047 -0.37627858 1.9348248 121 107 84
-0.41929859 -0.35803682 1.9348248 225 226 210
-0.46794331 -0.34587562 1.9348248 220 219 203
-0.51658803 -0.33371446 1.9348248 217 215 199
-0.56523275 -0.32763386 1.9348248 206 204 187
-0.58955514 -0.32155329 1.9348248 203 201 182
-0.34633148 -0.26682797 1.9348248 221 222 206
-0.34633148 -0.25466678 1.9348248 233 235 220
-0.41321802 -0.23034441 1.9348248 232 234 218
-0.5226686 -0.21818325 1.9348248 234 234 217
-0.41321802 -0.21818325 1.9348248 233 235 219
-0.5226686 -0.21210265 1.9348248 235 234 218
-0.31592858 -0.20602205 1.9348248 236 238 223
-0.61387748 -0.19386089 1.9348248 234 233 216
-0.61387748 -0.18778029 1.9348248 236 234 220
-0.49834627 -0.18778029 1.9348248 234 236 220
-0.61387748 -0.18169969 1.9348248 238 236 222
-0.61387748 -0.17561913 1.9348248 239 237 224
-0.61995804 -0.14521617 1.9348248 237 236 222
-0.35849267 -0.10873261 1.9348248 241 245 234
-0.3524121 -0.096571445 1.9348248 241 245 234
-0.63211924 -0.078329682 1.9348248 236 237 227
-0.63211924 -0.072249085 1.9348248 237 238 227
-0.63211924 -0.066168487 1.9348248 237 237 231
-0.62603867 -0.060087889 1.9348248 238 238 230
-0.62603867 -0.054007292 1.9348248 239 239 232
-0.62603867 -0.047926724 1.9348248 240 240 233
-0.61995804 -0.041846126 1.9348248 239 240 232
-0.63819981 -0.035765529 1.9348248 242 242 236
-0.63819981 -0.029684961 1.9348248 242 242 235
-0.63819981 -0.023604363 1.9348248 243 243 236
-0.38889563 0.031120956 1.9348248 240 245 235
0.14011574 0.58445466 1.9348248 169 165 119
0.14011574 0.59053528 1.9348248 163 158 112
-0.35849267 -0.50397098 1.9409053 217 216 203
-0.060543776 -0.49789038 1.9409053 185 180 168
-0.3645733 -0.49180979 1.9409053 222 222 208
0.085390449 -0.49180979 1.9409053 182 178 164
0.079309821 -0.48572922 1.9409053 179 176 163
-0.084866107 -0.47964862 1.9409053 193 188 175
0.073229194 -0.47964862 1.9409053 179 176 166
0.079309821 -0.47964862 1.9409053 180 177 167
-0.097027302 -0.46748745 1.9409053 195 190 177
-0.37065387 -0.46140686 1.9409053 227 227 213
-0.37065387 -0.45532626 1.9409053 226 226 212
-0.57739395 -0.40060094 1.9409053 215 213 196
-0.3645733 -0.40060094 1.9409053 226 225 212
-0.37065387 -0.38843977 1.9409053 226 225 212
-0.37673444 -0.38235918 1.9409053 226 226 213
-0.38281506 -0.37627858 1.9409053 229 228 215
-0.38889563 -0.37019801 1.9409053 230 229 216
-0.40105683 -0.36411741 1.9409053 227 228 213
-0.46794331 -0.34587562 1.9409053 220 220 203
-0.49834627 -0.33979505 1.9409053 215 214 198
-0.48618507 -0.33979505 1.9409053 220 219 203
-0.54091036 -0.32763386 1.9409053 216 213 194
-0.60779691 -0.22426385 1.9409053 229 228 210
-0.47402388 -0.22426385 1.9409053 234 235 218
-0.41321802 -0.22426385 1.9409053 232 234 218
-0.60779691 -0.21818325 1.9409053 228 228 210
-0.41321802 -0.21818325 1.9409053 233 235 219
-0.60779691 -0.21210265 1.9409053 230 229 210
-0.30984795 -0.20602205 1.9409053 236 239 223
-0.39497626 -0.19994146 1.9409053 236 238 222
-0.32200915 -0.19994146 1.9409053 235 237 222
-0.39497626 -0.19386089 1.9409053 237 239 223
-0.39497626 -0.18778029 1.9409053 237 239 223
-0.38889563 -0.17561913 1.9409053 237 240 226
-0.38889563 -0.16953853 1.9409053 239 242 227
-0.61995804 -0.15129673 1.9409053 237 236 222
-0.61995804 -0.14521617 1.9409053 237 236 222
-0.61995804 -0.13913557 1.9409053 237 235 222
-0.62603867 -0.11481321 1.9409053 233 233 220
-0.62603867 -0.10873261 1.9409053 233 233 220
-0.62603867 -0.10265201 1.9409053 233 233 220
-0.62603867 -0.096571445 1.9409053 233 234 222
-0.64428043 -0.0053625703 1.9409053 244 244 237
-0.41321802 -0.0053625703 1.9409053 241 244 235
-0.64428043 0.00071799755 1.9409053 244 244 237
-0.64428043 0.006798625 1.9409053 244 244 237
0.15227687 0.58445466 1.9409053 170 162 116
0.15227687 0.59053528 1.9409053 169 165 119
-0.030140758 -0.50397098 1.946986 184 178 163
0.10971272 -0.50397098 1.946986 187 184 168
0.12187397 -0.50397098 1.946986 186 181 166
-0.054463148 -0.49789038 1.946986 186 180 168
-0.066624343 -0.49180979 1.946986 185 180 168
0.19484103 -0.49180979 1.946986 173 170 157
-0.078785539 -0.48572922 1.946986 191 186 173
0.20092165 -0.48572922 1.946986 155 152 140
0.036745667 -0.45532626 1.946986 173 171 159
0.03066504 -0.44924566 1.946986 168 166 153
0.024584532 -0.44316506 1.946986 160 158 145
0.018503904 -0.4370845 1.946986 159 157 144
-0.3524121 -0.4310039 1.946986 220 219 206
-0.57739395 -0.41884273 1.946986 217 213 197
-0.35849267 -0.40668154 1.946986 225 225 211
-0.37065387 -0.38843977 1.946986 226 226 212
-0.40713739 -0.36411741 1.946986 227 228 213
-0.42537916 -0.35803682 1.946986 224 225 210
-0.44362092 -0.35195622 1.946986 225 224 211
-0.51658803 -0.33371446 1.946986 217 215 199
-0.55915213 -0.32763386 1.946986 209 207 189
-0.34633148 -0.24858618 1.946986 235 238 222
-0.60779691 -0.23642501 1.946986 222 219 201
-0.60779691 -0.23034441 1.946986 227 225 206
-0.46794331 -0.23034441 1.946986 231 232 214
-0.46794331 -0.22426385 1.946986 234 235 218
-0.29160619 -0.22426385 1.946986 239 241 225
-0.47402388 -0.21818325 1.946986 235 236 219
-0.29768682 -0.21818325 1.946986 238 241 224
-0.30376738 -0.21210265 1.946986 238 241 225
-0.61995804 -0.16345793 1.946986 238 237 223
-0.61995804 -0.15737733 1.946986 237 236 222
-0.64428043 -0.011443168 1.946986 243 243 236
-0.38889563 0.031120956 1.946986 240 245 235
-0.34633148 0.085846245 1.946986 244 246 238
-0.34633148 0.091926873 1.946986 244 246 238
-0.34633148 0.098007441 1.946986 244 246 238
0.14619625 0.59053528 1.946986 171 167 119
0.14619625 0.59661579 1.946986 157 151 104
-0.35849267 -0.50397098 1.9530666 217 217 203
0.12187397 -0.50397098 1.9530666 186 183 167
-0.04838264 -0.49789038 1.9530666 186 180 168
-0.3645733 -0.49180979 1.9530666 223 222 209
0.085390449 -0.48572922 1.9530666 180 177 165
0.079309821 -0.47964862 1.9530666 179 177 167
-0.37065387 -0.45532626 1.9530666 227 226 213
-0.57131338 -0.40668154 1.9530666 215 213 197
-0.38281506 -0.37627858 1.9530666 228 228 215
-0.47402388 -0.34587562 1.9530666 218 219 203
-0.4922657 -0.33979505 1.9530666 218 217 200
-0.58955514 -0.32155329 1.9530666 200 198 180
-0.34025091 -0.25466678 1.9530666 233 236 220
-0.41321802 -0.22426385 1.9530666 232 234 218
-0.49834627 -0.19386089 1.9530666 234 236 220
-0.49834627 -0.18778029 1.9530666 234 236 220
-0.61387748 -0.18169969 1.9530666 238 236 222
-0.61387748 -0.17561913 1.9530666 239 238 224
-0.3524121 -0.10265201 1.9530666 243 246 235
-0.63211924 -0.08441025 1.9530666 236 237 225
-0.63211924 -0.078329682 1.9530666 236 237 226
-0.63211924 -0.072249085 1.9530666 237 238 227
-0.63211924 -0.066168487 1.9530666 237 237 231
-0.62603867 -0.060087889 1.9530666 237 238 230
-0.62603867 -0.054007292 1.9530666 238 239 232
-0.62603867 -0.047926724 1.9530666 240 240 233
-0.61995804 -0.041846126 1.9530666 239 240 232
-0.63819981 -0.029684961 1.9530666 242 242 236
-0.63819981 -0.023604363 1.9530666 243 243 236
-0.47402388 -0.017523766 1.9530666 241 243 235
-0.47402388 -0.011443168 1.9530666 241 243 235
-0.38281506 0.043282151 1.9530666 242 247 237
0.15227687 0.60269642 1.9530666 156 150 105
-0.024060249 -0.50397098 1.9591472 184 179 163
0.18267989 -0.50397098 1.9591472 184 180 166
0.091470957 -0.49789038 1.9591472 181 177 163
0.1887604 -0.49789038 1.9591472 176 173 160
-0.066624343 -0.49180979 1.9591472 186 181 168
0.091470957 -0.49180979 1.9591472 181 178 165
-0.072704971 -0.48572922 1.9591472 189 184 171
-0.066624343 -0.48572922 1.9591472 185 180 167
0.19484103 -0.48572922 1.9591472 149 147 135
0.20092165 -0.48572922 1.9591472 147 145 133
-0.078785539 -0.47964862 1.9591472 190 185 172
-0.072704971 -0.47964862 1.9591472 188 183 170
-0.090946734 -0.47356802 1.9591472 195 190 177
-0.37065387 -0.45532626 1.9591472 226 225 212
-0.3524121 -0.4249233 1.9591472 219 218 205
-0.3524121 -0.41884273 1.9591472 223 222 209
-0.35849267 -0.41276214 1.9591472 221 221 207
-0.57739395 -0.40668154 1.9591472 215 213 196
-0.56523275 -0.40668154 1.9591472 215 213 197
-0.57739395 -0.40060094 1.9591472 215 214 196
-0.57739395 -0.39452034 1.9591472 214 213 194
-0.3645733 -0.39452034 1.9591472 227 226 213
-0.37673444 -0.38235918 1.9591472 226 225 212
-0.40105683 -0.36411741 1.9591472 229 230 215
-0.57131338 -0.32763386 1.9591472 206 203 187
-0.55915213 -0.32763386 1.9591472 211 209 191
-0.55307156 -0.32763386 1.9591472 212 210 192
-0.60779691 -0.23034441 1.9591472 227 225 206
-0.46794331 -0.23034441 1.9591472 233 234 216
-0.40713739 -0.23034441 1.9591472 233 235 218
-0.60779691 -0.22426385 1.9591472 228 227 208
-0.46794331 -0.22426385 1.9591472 234 235 218
-0.60779691 -0.21818325 1.9591472 230 229 211
-0.51658803 -0.21818325 1.9591472 235 234 218
-0.40713739 -0.21818325 1.9591472 234 236 220
-0.29768682 -0.21818325 1.9591472 238 241 224
-0.60779691 -0.21210265 1.9591472 231 230 211
-0.40713739 -0.21210265 1.9591472 235 237 220
-0.30376738 -0.21210265 1.9591472 237 240 224
-0.32200915 -0.19994146 1.9591472 234 237 221
-0.38889563 -0.18169969 1.9591472 237 240 225
-0.38889563 -0.16953853 1.9591472 239 242 227
-0.38281506 -0.16953853 1.9591472 237 240 226
-0.39497626 -0.16345793 1.9591472 239 242 227
-0.61995804 -0.15129673 1.9591472 237 236 222
-0.61995804 -0.14521617 1.9591472 237 236 222
-0.61995804 -0.13913557 1.9591472 237 235 222
-0.61995804 -0.13305497 1.9591472 235 233 220
-0.62603867 -0.10873261 1.9591472 233 233 220
-0.3524121 -0.10873261 1.9591472 242 245 234
-0.62603867 -0.10265201 1.9591472 232 233 220
-0.62603867 -0.096571445 1.9591472 233 234 223
-0.34633148 -0.096571445 1.9591472 243 246 235
-0.62603867 -0.054007292 1.9591472 238 239 232
-0.62603867 -0.047926724 1.9591472 239 240 233
-0.61995804 -0.041846126 1.9591472 239 239 231
-0.63819981 -0.029684961 1.9591472 242 242 236
-0.64428043 -0.0053625703 1.9591472 243 243 237
-0.41321802 -0.0053625703 1.9591472 241 244 235
-0.64428043 0.00071799755 1.9591472 245 245 238
-0.64428043 0.006798625 1.9591472 244 244 238
-0.64428043 0.012879193 1.9591472 244 244 238
-0.38281506 0.037201524 1.9591472 242 246 237
-0.34633148 0.067604482 1.9591472 245 248 239
-0.34633148 0.07368511 1.9591472 244 247 238
-0.34633148 0.079765677 1.9591472 244 247 238
-0.34633148 0.098007441 1.9591472 244 246 237
-0.35849267 -0.49789038 1.9652277 219 219 205
-0.04838264 -0.49789038 1.9652277 186 180 167
0.097551584 -0.49789038 1.9652277 182 179 165
-0.054463148 -0.49180979 1.9652277 179 174 161
0.1887604 -0.49180979 1.9652277 167 164 152
0.19484103 -0.49180979 1.9652277 157 154 142
-0.084866107 -0.47964862 1.9652277 192 187 174
-0.072704971 -0.47964862 1.9652277 188 183 170
-0.090946734 -0.47356802 1.9652277 194 189 176
0.03066504 -0.44924566 1.9652277 170 168 155
-0.3524121 -0.44316506 1.9652277 215 212 199
-0.35849267 -0.40668154 1.9652277 225 224 211
-0.41321802 -0.36411741 1.9652277 225 226 210
-0.43145978 -0.35803682 1.9652277 224 223 209
-0.41929859 -0.35803682 1.9652277 226 227 212
-0.44970155 -0.35195622 1.9652277 222 222 208
-0.46794331 -0.34587562 1.9652277 220 221 205
-0.50442684 -0.33979505 1.9652277 216 215 198
-0.34025091 -0.27290857 1.9652277 219 220 203
-0.34025091 -0.26682797 1.9652277 228 230 214
-0.34025091 -0.26074737 1.9652277 232 234 218
-0.48010451 -0.21818325 1.9652277 236 237 220
-0.49834627 -0.19386089 1.9652277 235 237 220
-0.38889563 -0.18778029 1.9652277 237 239 223
-0.40713739 -0.13305497 1.9652277 238 241 227
-0.34633148 0.10408807 1.9652277 244 246 237
0.38333929 0.56621289 1.9652277 141 150 103
0.38941991 0.56621289 1.9652277 139 149 101
0.38333929 0.57229352 1.9652277 142 150 101
0.38941991 0.57229352 1.9652277 144 152 102
-0.030140758 -0.50397098 1.9713084 186 180 166
-0.042302012 -0.49789038 1.9713084 185 179 167
-0.3645733 -0.49180979 1.9713084 223 223 209
-0.3645733 -0.48572922 1.9713084 224 224 210
-0.060543776 -0.48572922 1.9713084 178 173 160
-0.3645733 -0.47964862 1.9713084 225 224 211
-0.3645733 -0.47356802 1.9713084 225 224 211
0.067148566 -0.40060094 1.9713084 166 163 151
-0.38889563 -0.37019801 1.9713084 229 230 216
-0.48010451 -0.34587562 1.9713084 217 214 198
-0.5226686 -0.33371446 1.9713084 216 214 196
-0.57131338 -0.32763386 1.9713084 207 203 187
-0.58955514 -0.32155329 1.9713084 203 201 183
-0.60779691 -0.23034441 1.9713084 226 224 206
-0.60779691 -0.22426385 1.9713084 228 228 209
-0.51658803 -0.22426385 1.9713084 235 235 218
-0.28552562 -0.22426385 1.9713084 239 242 226
-0.60779691 -0.21818325 1.9713084 230 229 211
-0.51658803 -0.20602205 1.9713084 235 234 218
-0.61387748 -0.17561913 1.9713084 239 238 224
-0.38281506 -0.17561913 1.9713084 237 240 225
-0.38281506 -0.16953853 1.9713084 238 241 226
-0.62603867 -0.10873261 1.9713084 233 233 220
-0.63211924 -0.08441025 1.9713084 236 237 225
-0.63211924 -0.078329682 1.9713084 236 237 226
-0.63211924 -0.072249085 1.9713084 237 238 227
-0.63211924 -0.066168487 1.9713084 237 237 231
-0.40713739 0.00071799755 1.9713084 241 244 235
-0.40713739 0.006798625 1.9713084 241 245 236
-0.40713739 0.018959761 1.9713084 241 245 236
-0.38281506 0.043282151 1.9713084 242 246 237
-0.34025091 0.098007441 1.9713084 244 246 237
-0.024060249 -0.50397098 1.977389 186 180 166
0.097551584 -0.49789038 1.977389 180 177 164
0.1887604 -0.49180979 1.977389 171 168 156
-0.066624343 -0.48572922 1.977389 183 178 165
0.091470957 -0.48572922 1.977389 181 178 168
-0.084866107 -0.47964862 1.977389 193 188 175
-0.066624343 -0.47964862 1.977389 181 176 163
-0.3645733 -0.46748745 1.977389 225 225 211
-0.3645733 -0.46140686 1.977389 226 225 212
-0.57131338 -0.4370845 1.977389 216 213 200
-0.34633148 -0.4370845 1.977389 219 219 205
-0.57131338 -0.4310039 1.977389 216 213 200
-0.57739395 -0.40668154 1.977389 215 213 196
-0.35849267 -0.40668154 1.977389 225 225 211
-0.57739395 -0.40060094 1.977389 214 213 194
-0.37065387 -0.38843977 1.977389 226 225 212
-0.38281506 -0.37627858 1.977389 228 227 214
-0.39497626 -0.37019801 1.977389 228 229 215
-0.40713739 -0.36411741 1.977389 228 229 213
-0.49834627 -0.33979505 1.977389 217 216 199
-0.57739395 -0.32763386 1.977389 206 201 187
-0.34025091 -0.25466678 1.977389 235 238 222
-0.34025091 -0.24858618 1.977389 236 239 223
-0.40105683 -0.23642501 1.977389 232 234 218
-0.40713739 -0.23034441 1.977389 232 234 217
-0.47402388 -0.22426385 1.977389 234 235 218
-0.40713739 -0.22426385 1.977389 233 235 218
-0.60779691 -0.21210265 1.977389 230 229 210
-0.40105683 -0.20602205 1.977389 235 237 221
-0.30984795 -0.20602205 1.977389 235 238 222
-0.38889563 -0.19994146 1.977389 236 238 222
-0.31592858 -0.19994146 1.977389 234 237 221
-0.38889563 -0.19386089 1.977389 237 239 223
-0.4922657 -0.18169969 1.977389 234 236 219
-0.38889563 -0.18169969 1.977389 237 240 226
-0.61387748 -0.17561913 1.977389 239 238 224
-0.38889563 -0.16345793 1.977389 239 242 228
-0.61995804 -0.15129673 1.977389 238 236 222
-0.61995804 -0.14521617 1.977389 237 236 222
-0.61995804 -0.13913557 1.977389 237 236 222
-0.61995804 -0.13305497 1.977389 235 233 220
-0.61995804 -0.1269744 1.977389 234 233 219
-0.62603867 -0.10265201 1.977389 233 233 220
-0.62603867 -0.096571445 1.977389 233 234 222
-0.62603867 -0.054007292 1.977389 237 238 231
-0.61995804 -0.041846126 1.977389 239 239 230
-0.63819981 -0.029684961 1.977389 242 242 236
-0.63819981 -0.023604363 1.977389 242 242 236
-0.46794331 -0.023604363 1.977389 243 245 236
-0.46794331 -0.017523766 1.977389 242 244 236
-0.41321802 -0.0053625703 1.977389 241 244 235
-0.64428043 0.00071799755 1.977389 244 244 237
-0.64428043 0.006798625 1.977389 244 244 238
-0.64428043 0.012879193 1.977389 244 244 238
-0.38281506 0.037201524 1.977389 242 246 237
-0.34633148 0.061523914 1.977389 245 248 239
-0.34633148 0.067604482 1.977389 245 248 239
-0.34025091 0.085846245 1.977389 244 246 238
-0.34025091 0.091926873 1.977389 244 246 238
0.10971272 -0.50397098 1.9834695 184 181 167
0.18267989 -0.50397098 1.9834695 179 176 163
-0.35849267 -0.49789038 1.9834695 222 221 208
0.1887604 -0.49180979 1.9834695 165 163 152
0.091470957 -0.48572922 1.9834695 182 180 171
0.1887604 -0.48572922 1.9834695 152 150 139
0.19484103 -0.48572922 1.9834695 156 154 143
-0.078785539 -0.47964862 1.9834695 193 188 175
0.1887604 -0.47964862 1.9834695 151 149 139
0.19484103 -0.47964862 1.9834695 136 134 124
0.20092165 -0.47964862 1.9834695 135 133 123
-0.3645733 -0.45532626 1.9834695 222 222 208
-0.34633148 -0.44316506 1.9834695 216 213 200
-0.34633148 -0.4310039 1.9834695 220 219 206
-0.3524121 -0.41884273 1.9834695 222 221 208
-0.3645733 -0.39452034 1.9834695 225 224 211
-0.37673444 -0.38235918 1.9834695 227 227 214
-0.43754035 -0.35803682 1.9834695 223 222 209
-0.42537916 -0.35803682 1.9834695 225 225 210
-0.45578212 -0.35195622 1.9834695 220 220 205
-0.47402388 -0.34587562 1.9834695 221 220 205
-0.51050746 -0.33979505 1.9834695 216 214 198
-0.56523275 -0.32763386 1.9834695 207 205 188
-0.29160619 -0.21818325 1.9834695 239 241 226
-0.29768682 -0.21210265 1.9834695 237 240 223
-0.4922657 -0.18778029 1.9834695 236 238 221
-0.38889563 -0.18778029 1.9834695 237 239 223
-0.4922657 -0.18169969 1.9834695 234 236 220
-0.38281506 -0.17561913 1.9834695 237 240 225
-0.34633148 0.061523914 1.9834695 244 247 238
0.40766168 0.56621289 1.9834695 143 154 105
0.40158105 0.57229352 1.9834695 145 154 107
-0.042302012 -0.49789038 1.9895501 183 177 163
-0.04838264 -0.49180979 1.9895501 177 172 158
-0.054463148 -0.48572922 1.9895501 175 170 157
-0.066624343 -0.47964862 1.9895501 180 175 162
-0.060543776 -0.47964862 1.9895501 177 172 159
0.054987431 -0.47356802 1.9895501 172 169 157
0.042826295 -0.46140686 1.9895501 160 158 146
0.048906803 -0.46140686 1.9895501 170 168 156
-0.57131338 -0.4310039 1.9895501 216 213 200
0.13403511 -0.41276214 1.9895501 155 150 135
0.30429161 -0.41276214 1.9895501 124 110 89
0.13403511 -0.40668154 1.9895501 157 153 138
0.14011574 -0.40668154 1.9895501 153 148 132
-0.48618507 -0.34587562 1.9895501 216 215 198
-0.57739395 -0.32763386 1.9895501 206 201 187
-0.58955514 -0.32155329 1.9895501 197 195 178
-0.33417034 -0.26682797 1.9895501 233 235 219
-0.33417034 -0.26074737 1.9895501 233 235 220
-0.60779691 -0.23034441 1.9895501 228 226 208
-0.46186274 -0.23034441 1.9895501 232 234 217
-0.28552562 -0.23034441 1.9895501 241 243 227
-0.60779691 -0.22426385 1.9895501 229 229 210
-0.60779691 -0.21818325 1.9895501 228 228 209
-0.60779691 -0.21210265 1.9895501 229 229 210
-0.60779691 -0.20602205 1.9895501 231 230 213
-0.61387748 -0.16953853 1.9895501 238 237 223
-0.62603867 -0.10873261 1.9895501 233 234 220
-0.62603867 -0.10265201 1.9895501 233 233 220
-0.63211924 -0.072249085 1.9895501 237 238 228
-0.63211924 -0.066168487 1.9895501 237 237 229
-0.47402388 -0.0053625703 1.9895501 241 243 235
-0.48010451 0.00071799755 1.9895501 241 243 235
-0.40713739 0.00071799755 1.9895501 241 244 235
-0.40713739 0.006798625 1.9895501 241 245 236
-0.40713739 0.012879193 1.9895501 242 245 236
-0.34025091 0.079765677 1.9895501 244 247 238
-0.34025091 0.091926873 1.9895501 244 246 238
-0.34025091 0.098007441 1.9895501 244 246 237
-0.34025091 0.10408807 1.9895501 244 246 238
-0.34025091 0.11016864 1.9895501 244 246 238
-0.030140758 -0.50397098 1.9956307 185 180 167
-0.35849267 -0.49180979 1.9956307 224 223 210
0.097551584 -0.49180979 1.9956307 184 180 170
-0.35849267 -0.48572922 1.9956307 223 223 209
-0.35849267 -0.47964862 1.9956307 224 224 210
-0.078785539 -0.47964862 1.9956307 193 188 175
0.054987431 -0.47964862 1.9956307 163 160 148
0.19484103 -0.47964862 1.9956307 140 138 128
-0.084866107 -0.47356802 1.9956307 191 186 173
-0.078785539 -0.47356802 1.9956307 191 186 173
-0.35849267 -0.45532626 1.9956307 221 220 207
-0.34633148 -0.44924566 1.9956307 215 213 200
-0.57131338 -0.4310039 1.9956307 216 213 200
0.054987431 -0.41884273 1.9956307 165 160 148
0.31645286 -0.41884273 1.9956307 132 120 103
-0.55915213 -0.41276214 1.9956307 216 214 197
0.067148566 -0.41276214 1.9956307 170 167 152
0.31037223 -0.41276214 1.9956307 131 120 103
0.31645286 -0.41276214 1.9956307 125 116 100
-0.57739395 -0.40060094 1.9956307 214 213 194
-0.3645733 -0.39452034 1.9956307 225 224 211
0.30429161 -0.39452034 1.9956307 133 123 104
-0.37673444 -0.38235918 1.9956307 228 227 214
-0.38281506 -0.37627858 1.9956307 229 229 216
-0.39497626 -0.37019801 1.9956307 227 228 214
-0.41321802 -0.36411741 1.9956307 225 226 210
-0.45578212 -0.35195622 1.9956307 219 219 203
-0.50442684 -0.33979505 1.9956307 218 217 201
-0.33417034 -0.27898914 1.9956307 216 217 201
-0.33417034 -0.27290857 1.9956307 226 228 212
-0.51658803 -0.21818325 1.9956307 235 235 218
-0.48010451 -0.21818325 1.9956307 237 238 222
-0.47402388 -0.21818325 1.9956307 236 237 220
-0.30376738 -0.20602205 1.9956307 235 238 222
-0.30984795 -0.19994146 1.9956307 234 237 221
-0.4922657 -0.18778029 1.9956307 236 238 221
-0.61387748 -0.17561913 1.9956307 239 238 224
-0.4922657 -0.17561913 1.9956307 233 235 218
-0.61995804 -0.14521617 1.9956307 238 236 222
-0.61995804 -0.13913557 1.9956307 237 236 222
-0.61995804 -0.13305497 1.9956307 235 234 220
-0.61995804 -0.1269744 1.9956307 234 233 219
-0.40105683 -0.1269744 1.9956307 239 242 228
-0.34633148 -0.10873261 1.9956307 242 246 235
-0.34633148 -0.10265201 1.9956307 244 247 236
-0.62603867 -0.096571445 1.9956307 233 234 223
-0.62603867 -0.090490848 1.9956307 234 235 223
-0.62603867 -0.054007292 1.9956307 238 238 232
-0.62603867 -0.047926724 1.9956307 239 239 232
-0.61995804 -0.041846126 1.9956307 238 239 230
-0.62603867 -0.035765529 1.9956307 240 240 232
-0.61995804 -0.035765529 1.9956307 239 239 230
-0.63819981 -0.029684961 1.9956307 242 242 236
-0.63819981 -0.023604363 1.9956307 242 242 236
-0.46794331 -0.023604363 1.9956307 242 244 236
-0.63819981 -0.017523766 1.9956307 243 243 237
-0.46794331 -0.017523766 1.9956307 243 245 236
-0.64428043 0.006798625 1.9956307 245 245 238
-0.64428043 0.012879193 1.9956307 245 245 238
0.10971272 -0.50397098 2.0017114 180 177 163
-0.042302012 -0.49789038 2.0017114 180 174 159
-0.04838264 -0.49180979 2.0017114 175 170 156
0.1887604 -0.48572922 2.0017114 157 155 145
-0.35849267 -0.47356802 2.0017114 225 224 211
-0.35849267 -0.46748745 2.0017114 224 224 210
-0.34025091 -0.44316506 2.0017114 220 217 205
0.03066504 -0.44316506 2.0017114 160 158 145
0.03066504 -0.4370845 2.0017114 160 157 144
0.03066504 -0.4310039 2.0017114 159 156 144
-0.3524121 -0.41276214 2.0017114 225 224 211
-0.35849267 -0.40668154 2.0017114 225 224 211
-0.37065387 -0.38843977 2.0017114 225 225 212
-0.43145978 -0.35803682 2.0017114 225 224 210
-0.46186274 -0.35195622 2.0017114 220 220 203
-0.44970155 -0.35195622 2.0017114 221 222 207
-0.48010451 -0.34587562 2.0017114 217 216 199
-0.52874923 -0.33371446 2.0017114 217 214 196
-0.40713739 -0.22426385 2.0017114 233 235 219
-0.40105683 -0.21210265 2.0017114 235 237 220
-0.39497626 -0.20602205 2.0017114 236 238 222
-0.38889563 -0.19994146 2.0017114 236 238 222
-0.38281506 -0.18169969 2.0017114 236 239 225
-0.38281506 -0.16345793 2.0017114 238 241 226
-0.40105683 0.018959761 2.0017114 243 246 237
-0.40105683 0.025040388 2.0017114 243 246 237
-0.34025091 0.067604482 2.0017114 244 247 238
0.10971272 -0.50397098 2.007792 180 177 164
-0.036221385 -0.49789038 2.007792 179 173 159
-0.042302012 -0.49180979 2.007792 174 168 153
-0.054463148 -0.48572922 2.007792 174 169 156
-0.04838264 -0.48572922 2.007792 173 168 154
-0.060543776 -0.47964862 2.007792 176 171 158
-0.054463148 -0.47964862 2.007792 172 167 154
0.061068058 -0.47964862 2.007792 170 167 155
0.19484103 -0.47964862 2.007792 132 130 120
-0.072704971 -0.47356802 2.007792 185 180 167
-0.066624343 -0.47356802 2.007792 176 171 158
-0.060543776 -0.47356802 2.007792 173 168 155
0.061068058 -0.47356802 2.007792 173 170 158
0.19484103 -0.47356802 2.007792 135 133 123
-0.066624343 -0.46748745 2.007792 178 173 160
0.054987431 -0.46748745 2.007792 171 168 156
0.061068058 -0.46748745 2.007792 183 180 168
0.048906803 -0.46140686 2.007792 164 162 149
0.054987431 -0.46140686 2.007792 171 169 157
0.061068058 -0.46140686 2.007792 180 178 165
0.042826295 -0.45532626 2.007792 166 164 152
0.048906803 -0.45532626 2.007792 167 165 153
0.036745667 -0.44924566 2.007792 152 150 138
-0.34025091 -0.4370845 2.007792 221 220 207
-0.34633148 -0.4249233 2.007792 221 220 207
0.14011574 -0.41884273 2.007792 153 149 134
0.13403511 -0.41276214 2.007792 159 155 140
0.13403511 -0.40668154 2.007792 167 164 148
0.13403511 -0.40060094 2.007792 176 172 157
0.14011574 -0.40060094 2.007792 171 165 150
0.14619625 -0.40060094 2.007792 155 148 133
0.14011574 -0.39452034 2.007792 184 180 165
0.31037223 -0.39452034 2.007792 127 119 102
-0.50442684 -0.33979505 2.007792 217 216 199
-0.54091036 -0.33371446 2.007792 213 210 192
-0.33417034 -0.26682797 2.007792 233 235 220
-0.33417034 -0.26074737 2.007792 235 238 222
-0.33417034 -0.24858618 2.007792 237 239 225
-0.46186274 -0.23642501 2.007792 231 233 215
-0.46186274 -0.23034441 2.007792 233 235 217
-0.60779691 -0.22426385 2.007792 229 229 210
-0.46794331 -0.22426385 2.007792 234 235 218
-0.46186274 -0.22426385 2.007792 234 236 219
-0.60779691 -0.21818325 2.007792 229 228 209
-0.46794331 -0.21818325 2.007792 235 237 220
-0.60779691 -0.21210265 2.007792 229 229 210
-0.60779691 -0.20602205 2.007792 230 229 212
-0.60779691 -0.19994146 2.007792 232 231 216
-0.61387748 -0.16953853 2.007792 238 237 223
-0.62603867 -0.10873261 2.007792 233 234 220
-0.62603867 -0.10265201 2.007792 234 234 221
-0.62603867 -0.096571445 2.007792 233 234 222
-0.63211924 -0.066168487 2.007792 236 237 229
-0.46794331 -0.011443168 2.007792 242 244 235
-0.46794331 -0.0053625703 2.007792 242 244 236
-0.47402388 0.00071799755 2.007792 241 243 235
-0.40105683 0.00071799755 2.007792 241 245 236
-0.64428043 0.006798625 2.007792 245 245 239
-0.48010451 0.006798625 2.007792 242 244 235
-0.40105683 0.006798625 2.007792 241 244 235
-0.40105683 0.012879193 2.007792 242 245 236
-0.37673444 0.043282151 2.007792 243 246 237
-0.33417034 0.085846245 2.007792 244 247 238
-0.35849267 -0.49180979 2.0138726 224 224 210
0.1887604 -0.49180979 2.0138726 163 161 150
-0.35849267 -0.48572922 2.0138726 224 224 210
0.061068058 -0.48572922 2.0138726 163 160 148
-0.35849267 -0.47964862 2.0138726 225 224 211
0.1887604 -0.47964862 2.0138726 138 136 125
-0.078785539 -0.47356802 2.0138726 190 185 172
-0.35849267 -0.46140686 2.0138726 223 223 209
-0.35849267 -0.45532626 2.0138726 219 219 205
-0.57131338 -0.4370845 2.0138726 217 213 199
-0.57131338 -0.4310039 2.0138726 216 213 200
0.073229194 -0.41276214 2.0138726 170 167 152
-0.57739395 -0.40668154 2.0138726 216 214 197
-0.57739395 -0.40060094 2.0138726 215 213 197
-0.37065387 -0.38843977 2.0138726 225 225 212
-0.37673444 -0.38235918 2.0138726 228 227 214
-0.40105683 -0.37019801 2.0138726 226 227 211
-0.41321802 -0.36411741 2.0138726 226 227 212
-0.40713739 -0.36411741 2.0138726 229 230 215
-0.45578212 -0.35195622 2.0138726 221 221 205
-0.48010451 -0.34587562 2.0138726 220 219 202
-0.51050746 -0.33979505 2.0138726 217 216 199
-0.55915213 -0.33371446 2.0138726 206 204 186
-0.33417034 -0.25466678 2.0138726 236 239 224
-0.51050746 -0.22426385 2.0138726 236 236 219
-0.51658803 -0.21818325 2.0138726 236 235 219
-0.48010451 -0.21818325 2.0138726 238 239 223
-0.47402388 -0.21818325 2.0138726 236 237 221
-0.51658803 -0.21210265 2.0138726 235 235 218
-0.30376738 -0.20602205 2.0138726 235 238 222
-0.31592858 -0.19994146 2.0138726 234 237 221
-0.61387748 -0.17561913 2.0138726 240 238 225
-0.61387748 -0.16953853 2.0138726 238 237 223
-0.61995804 -0.13913557 2.0138726 238 237 223
-0.61995804 -0.13305497 2.0138726 236 235 221
-0.40105683 -0.13305497 2.0138726 239 242 228
-0.61995804 -0.1269744 2.0138726 235 233 220
-0.61995804 -0.12089381 2.0138726 234 232 219
-0.34633148 -0.10265201 2.0138726 244 248 237
-0.62603867 -0.090490848 2.0138726 234 235 223
-0.62603867 -0.054007292 2.0138726 238 238 232
-0.61995804 -0.054007292 2.0138726 237 237 230
-0.62603867 -0.047926724 2.0138726 239 239 232
-0.61995804 -0.041846126 2.0138726 240 240 232
-0.62603867 -0.035765529 2.0138726 240 240 232
-0.61995804 -0.035765529 2.0138726 239 240 231
-0.63819981 -0.029684961 2.0138726 242 242 236
-0.63211924 -0.029684961 2.0138726 241 241 234
-0.62603867 -0.029684961 2.0138726 240 241 233
-0.63819981 -0.023604363 2.0138726 242 242 236
-0.63819981 -0.017523766 2.0138726 243 243 236
-0.46794331 -0.011443168 2.0138726 241 243 235
-0.64428043 0.012879193 2.0138726 245 245 238
-0.44362092 0.037201524 2.0138726 244 246 238
-0.3524121 -0.50397098 2.019953 222 222 208
0.10971272 -0.49789038 2.019953 183 180 168
0.10363221 -0.49180979 2.019953 184 182 173
0.19484103 -0.47356802 2.019953 142 140 131
0.036745667 -0.4370845 2.019953 161 158 146
-0.34633148 -0.41884273 2.019953 223 222 209
-0.3524121 -0.41276214 2.019953 223 222 209
-0.35849267 -0.40060094 2.019953 224 224 210
-0.3645733 -0.39452034 2.019953 224 224 211
-0.38281506 -0.37627858 2.019953 228 227 214
-0.43145978 -0.35803682 2.019953 225 224 210
-0.46794331 -0.35195622 2.019953 219 220 204
-0.45578212 -0.35195622 2.019953 221 221 206
-0.40105683 -0.23034441 2.019953 233 235 218
-0.40105683 -0.21818325 2.019953 235 237 220
-0.29160619 -0.21210265 2.019953 238 240 225
-0.38281506 -0.19386089 2.019953 237 239 223
-0.38281506 -0.18778029 2.019953 236 239 225
-0.37673444 -0.17561913 2.019953 237 240 225
-0.37673444 -0.16953853 2.019953 238 241 226
-0.34025091 -0.10873261 2.019953 243 246 235
-0.40713739 -0.0053625703 2.019953 241 244 235
-0.030140758 -0.50397098 2.0260336 178 172 157
-0.024060249 -0.50397098 2.0260336 180 175 161
-0.036221385 -0.49180979 2.0260336 173 167 152
0.10971272 -0.49180979 2.0260336 186 184 174
-0.042302012 -0.48572922 2.0260336 171 166 151
0.067148566 -0.48572922 2.0260336 165 162 151
-0.04838264 -0.47964862 2.0260336 171 166 153
0.067148566 -0.47964862 2.0260336 170 167 156
-0.054463148 -0.47356802 2.0260336 172 167 154
-0.04838264 -0.47356802 2.0260336 171 166 153
0.067148566 -0.47356802 2.0260336 177 174 162
-0.060543776 -0.46748745 2.0260336 173 168 155
0.067148566 -0.46748745 2.0260336 179 177 165
0.054987431 -0.46140686 2.0260336 169 167 154
0.061068058 -0.46140686 2.0260336 171 169 156
0.067148566 -0.46140686 2.0260336 175 173 160
-0.34025091 -0.45532626 2.0260336 216 213 200
0.042826295 -0.45532626 2.0260336 153 151 139
0.048906803 -0.45532626 2.0260336 154 152 139
0.054987431 -0.45532626 2.0260336 166 164 151
0.042826295 -0.44924566 2.0260336 157 155 142
-0.33417034 -0.44316506 2.0260336 220 219 207
0.036745667 -0.44316506 2.0260336 160 158 145
0.042826295 -0.44316506 2.0260336 163 161 148
0.036745667 -0.4370845 2.0260336 163 159 146
-0.57131338 -0.4249233 2.0260336 216 214 199
-0.41321802 -0.36411741 2.0260336 225 226 211
-0.43145978 -0.35803682 2.0260336 225 224 210
-0.4922657 -0.34587562 2.0260336 215 214 198
-0.48618507 -0.34587562 2.0260336 218 217 200
-0.32808971 -0.27290857 2.0260336 231 233 218
-0.46186274 -0.23034441 2.0260336 233 235 217
-0.60779691 -0.22426385 2.0260336 229 228 209
-0.51050746 -0.22426385 2.0260336 237 236 220
-0.60779691 -0.21818325 2.0260336 228 228 209
-0.47402388 -0.21818325 2.0260336 237 238 222
-0.60779691 -0.21210265 2.0260336 230 229 210
-0.60779691 -0.20602205 2.0260336 231 230 213
-0.60779691 -0.19994146 2.0260336 232 231 216
-0.60779691 -0.19386089 2.0260336 235 234 218
-0.40105683 -0.13305497 2.0260336 239 242 228
-0.39497626 -0.1269744 2.0260336 239 242 228
-0.34633148 -0.11481321 2.0260336 242 245 234
-0.62603867 -0.10873261 2.0260336 234 235 221
-0.34633148 -0.10873261 2.0260336 243 246 235
-0.62603867 -0.10265201 2.0260336 234 235 221
-0.62603867 -0.096571445 2.0260336 234 235 223
-0.63211924 -0.060087889 2.0260336 237 237 231
-0.46794331 -0.0053625703 2.0260336 241 243 235
-0.64428043 0.006798625 2.0260336 244 244 238
-0.48010451 0.006798625 2.0260336 242 243 235
-0.64428043 0.012879193 2.0260336 244 244 238
-0.64428043 0.018959761 2.0260336 245 245 238
-0.37673444 0.037201524 2.0260336 241 245 236
-0.37673444 0.049362719 2.0260336 243 246 237
-0.33417034 0.079765677 2.0260336 244 247 238
-0.33417034 0.091926873 2.0260336 244 246 237
-0.33417034 0.098007441 2.0260336 244 246 238
-0.33417034 0.10408807 2.0260336 245 247 238
-0.33417034 0.11016864 2.0260336 245 247 238
-0.3524121 -0.50397098 2.0321143 223 222 209
-0.024060249 -0.50397098 2.0321143 177 171 156
0.1887604 -0.50397098 2.0321143 173 170 158
-0.3524121 -0.49789038 2.0321143 224 223 210
-0.036221385 -0.48572922 2.0321143 171 166 151
-0.042302012 -0.47964862 2.0321143 172 166 152
-0.04838264 -0.47356802 2.0321143 172 167 154
-0.3524121 -0.46140686 2.0321143 220 218 205
-0.57131338 -0.4310039 2.0321143 216 214 199
-0.57131338 -0.4249233 2.0321143 216 214 199
-0.57739395 -0.40668154 2.0321143 215 213 196
-0.35849267 -0.40060094 2.0321143 225 224 211
-0.3645733 -0.39452034 2.0321143 224 223 210
-0.37065387 -0.38843977 2.0321143 226 226 213
-0.39497626 -0.37019801 2.0321143 227 228 214
-0.46794331 -0.35195622 2.0321143 219 218 203
-0.48618507 -0.34587562 2.0321143 217 216 200
-0.51658803 -0.33979505 2.0321143 213 211 194
-0.50442684 -0.33979505 2.0321143 219 218 201
-0.32808971 -0.28506973 2.0321143 220 221 205
-0.32808971 -0.27898914 2.0321143 224 225 209
-0.39497626 -0.23642501 2.0321143 234 236 219
-0.40105683 -0.23034441 2.0321143 234 236 219
-0.40105683 -0.22426385 2.0321143 233 235 219
-0.61387748 -0.17561913 2.0321143 239 237 223
-0.61387748 -0.16953853 2.0321143 238 237 223
-0.61995804 -0.13913557 2.0321143 238 236 222
-0.61995804 -0.13305497 2.0321143 236 235 221
