ply
format ascii 1.0
comment PCL generated
element vertex 1071
property float x
property float y
property float z
property uchar red
property uchar green
property uchar blue
element camera 0
property float view_px
property float view_py
property float view_pz
property float x_axisx
property float x_axisy
property float x_axisz
property float y_axisx
property float y_axisy
property float y_axisz
property float z_axisx
property float z_axisy
property float z_axisz
property float focal
property float scalex
property float scaley
property float centerx
property float centery
property int viewportx
property int viewporty
property float k1
property float k2
end_header
0.32253337 0.68782473 1.8375354 254 254 241
0.32253337 0.71822762 1.8375354 251 251 238
-0.87534285 -0.48572922 1.843616 250 248 240
-0.24904203 -0.41276214 1.843616 210 208 187
-0.24904203 -0.40060094 1.843616 209 207 186
0.18267989 -0.38235918 1.843616 231 229 211
0.19484103 -0.21818325 1.843616 252 253 237
0.30429161 -0.19994146 1.843616 254 254 237
-0.99695468 -0.18169969 1.843616 230 229 208
-0.99695468 -0.17561913 1.843616 231 230 210
-1.0151964 -0.13305497 1.843616 233 233 215
0.18267989 -0.13305497 1.843616 244 246 227
0.1887604 -0.12089381 1.843616 247 250 232
0.26780808 -0.12089381 1.843616 250 251 235
0.35293639 -0.029684961 1.843616 255 255 245
0.19484103 0.025040388 1.843616 253 255 242
-1.0334382 0.031120956 1.843616 244 245 227
0.19484103 0.031120956 1.843616 253 255 242
0.19484103 0.11016864 1.843616 255 255 243
0.20092165 0.14057159 1.843616 255 255 247
0.20092165 0.15273273 1.843616 255 255 247
0.26780808 0.21961927 1.843616 255 254 248
0.27388871 0.24394161 1.843616 255 254 247
0.19484103 0.25002217 1.843616 170 204 127
0.27388871 0.25002217 1.843616 254 255 247
0.19484103 0.2561028 1.843616 175 208 133
0.19484103 0.268264 1.843616 171 203 129
0.19484103 0.27434456 1.843616 171 201 129
0.29213047 0.28042513 1.843616 254 255 249
0.29213047 0.28650576 1.843616 254 254 249
0.2982111 0.30474752 1.843616 255 255 246
0.31645286 0.31690872 1.843616 255 255 246
0.2982111 0.33515048 1.843616 253 254 241
-1.0091158 0.34123105 1.843616 245 246 230
-0.97871292 0.35947281 1.843616 245 246 230
0.35901701 0.36555344 1.843616 255 255 242
0.30429161 0.37771457 1.843616 252 253 238
0.37725878 0.40811753 1.843616 255 255 243
-0.80237579 0.41419816 1.843616 245 247 229
0.37725878 0.52364874 1.843616 254 255 241
0.37117815 0.52972937 1.843616 254 255 241
0.37725878 0.52972937 1.843616 254 255 241
0.35293639 0.57837403 1.843616 254 255 241
0.34685576 0.63309944 1.843616 254 255 241
0.34685576 0.63917994 1.843616 254 255 241
0.32253337 0.66350234 1.843616 253 253 240
0.32253337 0.66958296 1.843616 254 254 241
0.32253337 0.67566347 1.843616 254 254 241
0.32253337 0.6817441 1.843616 254 254 241
-0.86318171 0.74255002 1.843616 249 248 212
-0.86318171 0.74863064 1.843616 248 247 210
-0.33417034 -0.49789038 1.8496965 208 206 187
0.14011574 -0.49180979 1.8496965 225 220 203
-0.30376738 -0.47964862 1.8496965 209 207 187
0.14619625 -0.47964862 1.8496965 226 221 203
-0.27336442 -0.46140686 1.8496965 209 207 187
-0.26728386 -0.45532626 1.8496965 210 208 188
0.17659926 -0.44316506 1.8496965 228 222 203
-0.98479348 -0.38843977 1.8496965 191 188 167
-0.25512266 -0.38235918 1.8496965 208 207 185
0.12187397 -0.30939209 1.8496965 129 122 102
0.1583575 -0.3033115 1.8496965 154 142 113
0.20092165 -0.26074737 1.8496965 252 252 236
0.20092165 -0.21210265 1.8496965 252 252 234
0.18267989 -0.20602205 1.8496965 253 251 235
0.18267989 -0.18778029 1.8496965 250 251 230
0.18267989 -0.18169969 1.8496965 250 250 229
0.19484103 0.11016864 1.8496965 255 255 243
0.23740518 0.16489393 1.8496965 255 254 248
0.25564694 0.20137751 1.8496965 255 255 247
-0.917907 0.20745808 1.8496965 244 247 230
0.25564694 0.20745808 1.8496965 255 254 248
-0.917907 0.22569984 1.8496965 244 247 230
-0.91182637 0.22569984 1.8496965 244 247 230
-0.91182637 0.23178041 1.8496965 244 247 230
-0.91182637 0.23786104 1.8496965 244 247 230
-0.99087405 0.24394161 1.8496965 243 245 228
-0.91182637 0.24394161 1.8496965 244 247 230
-0.9057458 0.25002217 1.8496965 243 246 229
-0.9057458 0.2561028 1.8496965 244 247 230
-0.89966524 0.27434456 1.8496965 246 249 232
0.29213047 0.28042513 1.8496965 254 255 249
-0.9057458 0.29258633 1.8496965 247 250 233
-0.89966524 0.29258633 1.8496965 246 249 232
-0.89966524 0.29866695 1.8496965 247 250 233
0.2982111 0.30474752 1.8496965 255 255 247
-0.99695468 0.35947281 1.8496965 245 246 230
-0.80845636 0.42027873 1.8496965 246 248 230
0.30429161 0.42027873 1.8496965 250 251 234
0.38333929 0.4263593 1.8496965 255 255 242
0.20092165 0.48108464 1.8496965 177 187 141
0.4137423 0.5114876 1.8496965 255 255 244
0.38333929 0.52364874 1.8496965 255 255 242
0.36509752 0.52972937 1.8496965 254 255 241
0.41982281 0.5418905 1.8496965 255 255 244
0.48062873 0.54797113 1.8496965 255 255 246
0.48062873 0.55405176 1.8496965 255 255 245
0.41982281 0.56013227 1.8496965 255 255 246
0.38333929 0.63309944 1.8496965 255 255 243
0.31645286 0.70606649 1.8496965 253 253 240
-0.86926228 0.75471115 1.8496965 249 248 207
-0.32808971 -0.49180979 1.8557771 208 206 187
-0.29160619 -0.47356802 1.8557771 209 208 187
-0.87534285 -0.46748745 1.8557771 232 230 223
0.16443813 -0.2972309 1.8557771 177 164 134
-1.0091158 -0.18778029 1.8557771 230 229 207
0.18267989 -0.15129673 1.8557771 246 247 229
0.18267989 -0.13913557 1.8557771 244 246 228
0.31645286 -0.054007292 1.8557771 254 254 241
-1.0395188 0.031120956 1.8557771 244 245 228
-1.0395188 0.037201524 1.8557771 244 245 228
0.20092165 0.049362719 1.8557771 255 255 247
0.22524393 0.15881336 1.8557771 255 254 248
0.22524393 0.16489393 1.8557771 255 254 248
0.27388871 0.26218337 1.8557771 254 255 249
0.27388871 0.268264 1.8557771 254 255 249
0.19484103 0.27434456 1.8557771 172 200 129
0.19484103 0.28042513 1.8557771 171 199 128
0.26172745 0.32906985 1.8557771 252 254 241
0.35901701 0.36555344 1.8557771 255 255 242
0.41982281 0.48716521 1.8557771 255 255 243
0.41982281 0.49324584 1.8557771 255 255 243
0.37117815 0.52364874 1.8557771 253 254 240
0.48670936 0.56013227 1.8557771 255 255 243
0.48670936 0.56621289 1.8557771 255 255 242
0.35293639 0.57837403 1.8557771 254 255 241
0.35901701 0.59053528 1.8557771 254 254 242
0.35293639 0.59661579 1.8557771 253 254 240
0.34685576 0.63917994 1.8557771 254 255 241
0.32253337 0.67566347 1.8557771 254 254 241
0.32253337 0.68782473 1.8557771 254 254 241
-0.34025091 -0.50397098 1.8618577 208 206 187
0.17659926 -0.4370845 1.8618577 227 221 202
-0.88142347 -0.4310039 1.8618577 163 161 147
0.17659926 -0.4310039 1.8618577 229 223 206
-0.88750404 -0.4249233 1.8618577 159 156 141
0.17659926 -0.41884273 1.8618577 231 227 213
0.17659926 -0.41276214 1.8618577 230 227 210
-0.26120323 -0.40060094 1.8618577 208 207 184
-0.2247197 -0.37627858 1.8618577 209 207 186
0.12187397 -0.30939209 1.8618577 126 116 96
0.12187397 -0.3033115 1.8618577 131 119 95
0.20700216 -0.19994146 1.8618577 250 250 232
0.18267989 -0.18169969 1.8618577 251 250 229
0.32253337 -0.17561913 1.8618577 253 254 237
0.18267989 -0.16953853 1.8618577 247 248 228
0.328614 -0.16953853 1.8618577 253 254 237
0.18267989 -0.16345793 1.8618577 246 248 228
0.18267989 -0.15129673 1.8618577 246 248 228
0.25564694 -0.090490848 1.8618577 250 251 236
0.25564694 -0.08441025 1.8618577 250 251 236
0.35293639 -0.035765529 1.8618577 255 255 245
0.1887604 0.067604482 1.8618577 255 255 247
-0.97871292 0.10408807 1.8618577 246 247 231
0.24348569 0.17705512 1.8618577 255 255 247
0.24348569 0.18313569 1.8618577 255 255 247
0.24348569 0.18921632 1.8618577 255 255 247
-1.0091158 0.19529688 1.8618577 245 246 229
-1.0091158 0.21353865 1.8618577 242 244 228
-1.0091158 0.21961927 1.8618577 242 244 228
-1.0091158 0.22569984 1.8618577 243 245 229
-0.89966524 0.30474752 1.8618577 246 249 232
0.328614 0.32298928 1.8618577 255 255 245
0.34077513 0.35339224 1.8618577 255 255 243
0.34077513 0.35947281 1.8618577 255 255 243
0.38941991 0.43243992 1.8618577 255 255 242
0.38941991 0.43852049 1.8618577 255 255 242
0.39550054 0.46284288 1.8618577 255 255 242
0.37725878 0.52364874 1.8618577 254 255 241
0.38333929 0.52364874 1.8618577 255 255 242
0.41982281 0.55405176 1.8618577 255 255 244
0.41982281 0.56013227 1.8618577 255 255 246
0.38333929 0.62701881 1.8618577 255 255 244
-0.87534285 0.75471115 1.8618577 248 247 211
-0.89358461 -0.49789038 1.8679383 251 249 243
0.1583575 -0.46748745 1.8679383 226 221 204
-0.26120323 -0.44316506 1.8679383 210 209 188
-0.26120323 -0.4370845 1.8679383 210 208 187
-0.89358461 -0.41884273 1.8679383 166 165 147
-0.25512266 -0.41276214 1.8679383 211 207 187
0.17659926 -0.39452034 1.8679383 231 228 210
-0.99695468 -0.38235918 1.8679383 205 203 181
0.20092165 -0.26074737 1.8679383 252 252 237
0.18267989 -0.13913557 1.8679383 244 247 226
0.34077513 -0.060087889 1.8679383 254 254 242
0.1887604 0.012879193 1.8679383 252 254 241
0.19484103 0.037201524 1.8679383 253 255 243
0.19484103 0.043282151 1.8679383 254 255 245
0.19484103 0.049362719 1.8679383 255 255 247
0.35293639 0.1284104 1.8679383 254 255 249
0.26172745 0.21353865 1.8679383 255 254 248
0.26780808 0.22569984 1.8679383 255 254 248
0.27388871 0.2561028 1.8679383 254 255 247
0.1887604 0.268264 1.8679383 178 211 137
0.27388871 0.27434456 1.8679383 254 255 249
0.19484103 0.28042513 1.8679383 170 198 128
0.27388871 0.28042513 1.8679383 254 255 249
0.31037223 0.31082809 1.8679383 255 254 248
-1.0212771 0.31690872 1.8679383 245 246 230
-0.88142347 0.31690872 1.8679383 246 249 232
-1.0212771 0.32298928 1.8679383 245 246 230
-1.0212771 0.32906985 1.8679383 245 246 230
0.26172745 0.32906985 1.8679383 254 254 244
-1.0273576 0.33515048 1.8679383 245 246 230
-1.0151964 0.35339224 1.8679383 245 246 230
-1.0091158 0.36555344 1.8679383 245 246 230
0.4137423 0.46892345 1.8679383 255 255 242
0.48670936 0.57229352 1.8679383 255 255 242
0.32253337 0.66958296 1.8679383 253 254 240
0.32253337 0.68782473 1.8679383 254 254 241
-0.28552562 -0.46748745 1.8740189 208 207 186
0.1583575 -0.46748745 1.8740189 226 221 204
0.16443813 -0.46140686 1.8740189 226 221 203
0.17659926 -0.44316506 1.8740189 228 222 204
-0.88750404 -0.4370845 1.8740189 169 168 156
0.17659926 -0.4370845 1.8740189 228 222 205
0.17659926 -0.41276214 1.8740189 231 229 211
-0.99695468 -0.40668154 1.8740189 172 169 149
-0.26728386 -0.40060094 1.8740189 208 207 184
-0.26728386 -0.39452034 1.8740189 208 207 185
0.17659926 -0.39452034 1.8740189 232 230 213
0.18267989 -0.37627858 1.8740189 233 231 213
0.30429161 -0.33371446 1.8740189 224 218 201
0.11579335 -0.31547269 1.8740189 137 130 113
0.19484103 -0.22426385 1.8740189 252 253 236
0.20092165 -0.21210265 1.8740189 252 252 234
0.20700216 -0.19994146 1.8740189 250 250 232
0.18267989 -0.18778029 1.8740189 252 251 230
0.18267989 -0.13913557 1.8740189 244 247 226
0.20092165 0.00071799755 1.8740189 253 255 242
0.20092165 0.006798625 1.8740189 253 255 242
0.23132455 0.018959761 1.8740189 255 255 247
0.1887604 0.079765677 1.8740189 255 255 247
0.1887604 0.091926873 1.8740189 255 255 243
0.1887604 0.098007441 1.8740189 255 255 243
0.19484103 0.12232983 1.8740189 255 255 243
-0.92398757 0.25002217 1.8740189 243 246 229
-0.917907 0.26218337 1.8740189 244 247 230
0.2982111 0.31082809 1.8740189 255 255 246
-0.99695468 0.36555344 1.8740189 246 247 231
0.37725878 0.41419816 1.8740189 255 255 243
0.37725878 0.42027873 1.8740189 255 255 243
0.41982281 0.55405176 1.8740189 255 255 245
0.41982281 0.56621289 1.8740189 255 255 246
0.38333929 0.63917994 1.8740189 255 255 244
0.35293639 0.64526057 1.8740189 254 255 242
0.35293639 0.6513412 1.8740189 255 255 242
0.35901701 0.6513412 1.8740189 254 255 242
0.35293639 0.65742171 1.8740189 255 255 243
0.35901701 0.65742171 1.8740189 255 255 242
0.35901701 0.66350234 1.8740189 255 255 242
0.31645286 0.71214712 1.8740189 253 253 240
-0.34025091 -0.50397098 1.8800995 208 206 187
-0.26120323 -0.41276214 1.8800995 211 207 187
-0.89358461 -0.40060094 1.8800995 196 196 178
-1.0030353 -0.38843977 1.8800995 201 198 177
0.1583575 -0.3033115 1.8800995 156 144 113
0.19484103 -0.27898914 1.8800995 247 247 230
0.34077513 -0.27898914 1.8800995 253 251 233
0.328614 -0.16953853 1.8800995 253 254 238
-1.0334382 -0.15737733 1.8800995 234 233 215
0.20092165 0.00071799755 1.8800995 253 255 243
0.20700216 0.00071799755 1.8800995 253 255 243
0.20700216 0.006798625 1.8800995 253 255 243
0.21308279 0.006798625 1.8800995 255 255 247
-1.0212771 0.21961927 1.8800995 242 244 228
-0.93614876 0.21961927 1.8800995 244 247 230
-1.0212771 0.22569984 1.8800995 243 245 229
-0.93614876 0.22569984 1.8800995 244 247 230
-0.93614876 0.23178041 1.8800995 244 247 230
-1.0151964 0.23786104 1.8800995 243 245 228
0.27388871 0.268264 1.8800995 254 255 249
0.27388871 0.27434456 1.8800995 254 255 249
-1.0273576 0.31690872 1.8800995 245 246 230
-0.94222933 0.31690872 1.8800995 246 249 232
-1.0212771 0.33515048 1.8800995 245 246 230
-0.99087405 0.35947281 1.8800995 247 248 232
-0.83277869 0.43243992 1.8800995 245 247 229
0.4137423 0.51756823 1.8800995 255 255 244
0.34077513 0.52364874 1.8800995 253 254 239
0.41982281 0.54797113 1.8800995 255 255 244
0.41982281 0.55405176 1.8800995 255 255 244
0.35901701 0.6513412 1.8800995 254 255 242
0.36509752 0.66958296 1.8800995 255 255 242
0.32253337 0.68782473 1.8800995 254 254 241
0.328614 0.74255002 1.8800995 252 253 240
0.17659926 -0.4310039 1.88618 230 224 208
-0.91182637 -0.41884273 1.88618 175 176 156
0.31037223 -0.30939209 1.88618 249 248 234
0.31645286 -0.3033115 1.88618 251 251 236
0.34077513 -0.27898914 1.88618 253 251 233
0.18267989 -0.15737733 1.88618 248 248 228
0.18267989 -0.14521617 1.88618 246 247 227
-1.0455993 -0.13913557 1.88618 232 232 214
-1.0455993 -0.13305497 1.88618 232 232 214
0.19484103 -0.1269744 1.88618 247 248 230
0.1887604 0.006798625 1.88618 252 254 241
0.19484103 0.1284104 1.88618 255 255 243
0.19484103 0.13449097 1.88618 255 255 245
0.24348569 0.18921632 1.88618 255 255 247
0.24348569 0.19529688 1.88618 255 255 247
-0.92398757 0.268264 1.88618 244 247 230
-0.98479348 0.35947281 1.88618 246 248 231
0.34077513 0.35947281 1.88618 255 255 243
0.34077513 0.36555344 1.88618 255 255 243
0.36509752 0.38987577 1.88618 255 255 243
0.37117815 0.41419816 1.88618 255 255 243
0.39550054 0.46892345 1.88618 255 255 242
0.41982281 0.49324584 1.88618 255 254 245
0.41982281 0.49932635 1.88618 255 254 245
0.34685576 0.61485755 1.88618 254 254 240
0.48670936 0.61485755 1.88618 255 255 243
0.34685576 0.62093818 1.88618 254 254 240
0.31645286 0.72430825 1.88618 252 253 240
0.31645286 0.73038888 1.88618 253 254 240
-0.33417034 -0.49789038 1.8922607 208 206 186
-0.26728386 -0.44316506 1.8922607 210 208 187
-0.26728386 -0.4370845 1.8922607 210 208 187
-0.26728386 -0.4310039 1.8922607 209 208 187
-0.9057458 -0.4249233 1.8922607 155 155 137
-0.26728386 -0.41276214 1.8922607 209 207 186
0.1583575 -0.3033115 1.8922607 160 148 118
0.19484103 -0.27290857 1.8922607 250 249 234
-1.0395188 -0.18778029 1.8922607 230 229 207
0.30429161 -0.17561913 1.8922607 253 254 237
-1.0395188 -0.16345793 1.8922607 232 231 212
0.19484103 -0.1269744 1.8922607 247 248 230
0.20092165 -0.12089381 1.8922607 246 248 232
-1.05168 0.037201524 1.8922607 246 247 230
-1.0455993 0.055443287 1.8922607 247 248 231
-1.0395188 0.055443287 1.8922607 247 248 232
-1.0455993 0.061523914 1.8922607 246 247 230
-1.0395188 0.061523914 1.8922607 246 247 231
-0.99695468 0.1162492 1.8922607 244 246 230
0.35293639 0.13449097 1.8922607 254 255 249
-1.0273576 0.20745808 1.8922607 244 246 229
-1.0273576 0.21353865 1.8922607 243 245 228
0.26172745 0.21961927 1.8922607 255 254 248
0.26780808 0.23786104 1.8922607 255 254 248
-0.93614876 0.2561028 1.8922607 243 246 229
0.27388871 0.26218337 1.8922607 254 255 248
-0.93006814 0.268264 1.8922607 244 247 230
0.27388871 0.28042513 1.8922607 254 255 249
0.27388871 0.28650576 1.8922607 254 255 249
0.33469462 0.33515048 1.8922607 255 255 244
-0.83885932 0.43243992 1.8922607 246 248 230
0.38941991 0.43852049 1.8922607 255 255 242
0.38941991 0.44460106 1.8922607 255 255 242
0.41982281 0.56621289 1.8922607 255 255 246
0.35293639 0.59053528 1.8922607 254 255 241
0.35293639 0.59661579 1.8922607 254 254 241
0.34685576 0.61485755 1.8922607 254 254 239
0.35293639 0.61485755 1.8922607 253 254 240
0.48670936 0.61485755 1.8922607 255 255 243
0.38333929 0.63917994 1.8922607 255 255 244
0.32253337 0.69998586 1.8922607 254 255 242
0.31645286 0.71822762 1.8922607 253 253 240
-0.91182637 -0.50397098 1.8983412 253 252 245
-0.917907 -0.49789038 1.8983412 251 249 241
-1.0091158 -0.41276214 1.8983412 173 170 150
-0.27336442 -0.40060094 1.8983412 209 207 186
-0.27336442 -0.39452034 1.8983412 209 207 186
0.31037223 -0.30939209 1.8983412 249 249 234
0.19484103 -0.22426385 1.8983412 252 253 236
0.1887604 -0.21818325 1.8983412 250 251 235
0.19484103 -0.21818325 1.8983412 251 252 235
0.18267989 -0.15737733 1.8983412 249 248 228
-1.0455993 -0.15129673 1.8983412 234 233 215
0.18267989 -0.1269744 1.8983412 246 249 230
0.26780808 -0.11481321 1.8983412 251 252 236
0.25564694 -0.08441025 1.8983412 249 250 235
0.27388871 0.006798625 1.8983412 255 255 247
0.1887604 0.018959761 1.8983412 252 254 241
0.1887604 0.025040388 1.8983412 253 255 242
0.1887604 0.031120956 1.8983412 253 255 242
0.1887604 0.10408807 1.8983412 255 255 243
0.1887604 0.11016864 1.8983412 255 255 243
0.1887604 0.1162492 1.8983412 255 255 243
0.19484103 0.14057159 1.8983412 255 255 247
0.19484103 0.14665216 1.8983412 255 255 247
0.19484103 0.15881336 1.8983412 255 255 247
0.26780808 0.23178041 1.8983412 255 254 248
0.26780808 0.23786104 1.8983412 255 254 248
0.2982111 0.31690872 1.8983412 255 255 246
-1.0395188 0.34731162 1.8983412 245 246 230
-1.0334382 0.36555344 1.8983412 245 246 230
0.35901701 0.37771457 1.8983412 255 255 243
0.37725878 0.42027873 1.8983412 255 255 243
0.37725878 0.4263593 1.8983412 255 255 243
0.35901701 0.61485755 1.8983412 254 254 242
0.34685576 0.6513412 1.8983412 254 255 241
0.31645286 0.73646939 1.8983412 253 254 240
0.31645286 0.74255002 1.8983412 251 252 238
0.16443813 -0.46748745 1.9044218 226 221 203
0.17051864 -0.45532626 1.9044218 228 222 203
-0.91182637 -0.4370845 1.9044218 160 157 142
-1.0212771 -0.4249233 1.9044218 174 169 150
-1.0212771 -0.41276214 1.9044218 174 170 150
-1.0212771 -0.40060094 1.9044218 193 190 170
0.15227687 -0.30939209 1.9044218 154 142 112
0.1583575 -0.3033115 1.9044218 177 165 136
0.19484103 -0.22426385 1.9044218 252 253 236
0.17659926 -0.19386089 1.9044218 252 252 233
0.328614 -0.17561913 1.9044218 253 254 238
-1.0455993 -0.16953853 1.9044218 232 231 211
0.328614 -0.16953853 1.9044218 253 254 238
0.19484103 -0.1269744 1.9044218 247 248 231
0.23132455 0.025040388 1.9044218 255 255 247
-1.05168 0.043282151 1.9044218 247 248 232
-1.05168 0.049362719 1.9044218 248 249 233
-1.0455993 0.055443287 1.9044218 247 248 232
0.1887604 0.091926873 1.9044218 255 255 244
-0.97871292 0.19529688 1.9044218 244 247 230
-0.97871292 0.20137751 1.9044218 244 247 230
0.24956632 0.20137751 1.9044218 255 255 247
0.24956632 0.20745808 1.9044218 255 255 247
-0.94222933 0.268264 1.9044218 244 247 230
0.27388871 0.29258633 1.9044218 254 255 249
-0.92398757 0.31082809 1.9044218 246 249 232
-1.0395188 0.32906985 1.9044218 245 246 230
-1.05168 0.34731162 1.9044218 245 246 230
-1.05168 0.35339224 1.9044218 245 246 230
-1.05168 0.35947281 1.9044218 245 246 230
-0.99695468 0.35947281 1.9044218 246 248 231
-0.84493989 0.43852049 1.9044218 246 248 229
0.41982281 0.54797113 1.9044218 255 255 244
0.41982281 0.55405176 1.9044218 255 255 244
0.41982281 0.56013227 1.9044218 255 255 244
0.38333929 0.63917994 1.9044218 255 255 244
0.35293639 0.6513412 1.9044218 254 255 242
0.38333929 0.6513412 1.9044218 255 255 244
0.31645286 0.71822762 1.9044218 253 254 241
0.31645286 0.73038888 1.9044218 252 253 240
-1.0273576 -0.39452034 1.9105024 201 198 178
0.18267989 -0.14521617 1.9105024 248 247 227
0.18267989 -0.13913557 1.9105024 248 247 227
0.18267989 -0.13305497 1.9105024 247 247 227
-1.0395188 0.23178041 1.9105024 243 245 229
-1.0395188 0.23786104 1.9105024 243 245 229
-0.95439053 0.23786104 1.9105024 244 247 229
-0.95439053 0.24394161 1.9105024 244 247 229
-0.95439053 0.25002217 1.9105024 243 246 229
-1.0334382 0.26218337 1.9105024 244 246 230
0.27388871 0.28042513 1.9105024 254 255 249
0.31645286 0.32298928 1.9105024 255 255 247
-1.0455993 0.34123105 1.9105024 245 246 230
-1.0455993 0.34731162 1.9105024 245 246 230
-1.0395188 0.34731162 1.9105024 245 246 230
-1.0455993 0.35339224 1.9105024 245 246 230
-1.0395188 0.35339224 1.9105024 245 246 230
-1.0395188 0.35947281 1.9105024 245 246 230
-1.0395188 0.36555344 1.9105024 245 246 230
-1.0395188 0.37163401 1.9105024 245 246 230
-1.0334382 0.37163401 1.9105024 246 247 231
0.41982281 0.49324584 1.9105024 255 255 244
0.41982281 0.49932635 1.9105024 255 254 245
0.34077513 0.53580999 1.9105024 254 254 241
0.35901701 0.62093818 1.9105024 254 254 242
-0.34025091 -0.50397098 1.9165831 209 207 187
-0.31592858 -0.49180979 1.9165831 209 208 187
-0.31592858 -0.48572922 1.9165831 209 208 187
-0.917907 -0.44316506 1.9165831 165 162 149
0.17051864 -0.44316506 1.9165831 230 224 207
-0.27336442 -0.4370845 1.9165831 210 209 188
-0.27336442 -0.4310039 1.9165831 210 209 188
-0.27336442 -0.4249233 1.9165831 211 208 187
0.17051864 -0.4249233 1.9165831 230 227 210
-1.0273576 -0.41276214 1.9165831 176 173 153
-1.0212771 -0.41276214 1.9165831 178 175 155
0.19484103 -0.23034441 1.9165831 252 253 236
0.27996933 -0.23034441 1.9165831 253 254 238
0.27996933 -0.22426385 1.9165831 254 254 237
0.20092165 -0.20602205 1.9165831 250 250 232
0.17659926 -0.16953853 1.9165831 247 248 228
0.18267989 -0.16953853 1.9165831 248 248 227
0.18267989 -0.16345793 1.9165831 249 248 227
0.18267989 -0.15737733 1.9165831 249 248 227
0.18267989 -0.15129673 1.9165831 249 249 228
0.1887604 -0.15129673 1.9165831 249 250 230
0.1887604 -0.14521617 1.9165831 250 249 230
0.1887604 -0.13913557 1.9165831 248 247 228
0.19484103 -0.13305497 1.9165831 247 247 229
0.19484103 -0.1269744 1.9165831 247 248 232
0.32253337 -0.054007292 1.9165831 254 254 241
0.32253337 -0.047926724 1.9165831 254 254 242
0.23740518 0.17705512 1.9165831 255 254 248
-0.99087405 0.19529688 1.9165831 244 247 230
-0.98479348 0.20137751 1.9165831 244 247 230
-0.97871292 0.20745808 1.9165831 244 247 230
0.27388871 0.29258633 1.9165831 254 255 249
0.33469462 0.33515048 1.9165831 255 255 244
-1.0395188 0.34123105 1.9165831 246 247 231
-1.0091158 0.34123105 1.9165831 247 249 233
-1.0030353 0.34123105 1.9165831 247 249 233
0.33469462 0.34123105 1.9165831 255 255 244
-1.0395188 0.34731162 1.9165831 246 247 231
-1.0030353 0.34731162 1.9165831 246 248 232
-1.0273576 0.35339224 1.9165831 247 248 232
-1.0091158 0.35339224 1.9165831 246 248 231
-1.0091158 0.35947281 1.9165831 246 248 231
-1.0334382 0.36555344 1.9165831 246 247 231
-1.0334382 0.37163401 1.9165831 246 247 231
-1.0273576 0.37163401 1.9165831 247 248 232
0.34077513 0.37163401 1.9165831 255 255 243
0.38941991 0.44460106 1.9165831 255 255 242
0.38941991 0.45068169 1.9165831 255 255 242
0.39550054 0.47500402 1.9165831 255 255 242
0.40158105 0.48108464 1.9165831 255 255 242
0.38333929 0.63309944 1.9165831 255 255 243
0.38333929 0.63917994 1.9165831 255 255 244
0.38333929 0.64526057 1.9165831 255 255 244
0.31645286 0.73038888 1.9165831 253 253 240
0.31645286 0.73646939 1.9165831 252 253 240
0.14011574 -0.49180979 1.9226637 225 220 203
-0.30376738 -0.47964862 1.9226637 209 208 187
0.17051864 -0.40668154 1.9226637 230 227 209
-0.27944499 -0.40060094 1.9226637 209 208 186
0.17659926 -0.38235918 1.9226637 231 229 211
0.17659926 -0.37019801 1.9226637 224 221 204
0.1887604 -0.29115033 1.9226637 242 240 223
0.33469462 -0.29115033 1.9226637 251 249 229
0.19484103 -0.27290857 1.9226637 251 251 235
0.19484103 -0.26682797 1.9226637 252 252 237
0.20092165 -0.1269744 1.9226637 247 248 231
0.26780808 -0.11481321 1.9226637 251 252 236
0.1887604 0.031120956 1.9226637 253 255 242
0.1887604 0.037201524 1.9226637 253 255 242
0.1887604 0.043282151 1.9226637 254 255 244
-1.0212771 0.11016864 1.9226637 246 247 231
-1.0212771 0.1162492 1.9226637 244 245 229
0.1887604 0.12232983 1.9226637 255 255 243
0.1887604 0.1284104 1.9226637 255 255 243
-1.05168 0.20745808 1.9226637 244 246 230
-1.05168 0.21353865 1.9226637 244 246 229
0.26172745 0.22569984 1.9226637 255 254 248
0.26780808 0.24394161 1.9226637 255 254 248
0.26780808 0.25002217 1.9226637 255 254 247
-1.0455993 0.2561028 1.9226637 243 245 229
-0.96047109 0.2561028 1.9226637 243 246 229
0.26780808 0.2561028 1.9226637 255 254 247
-1.0212771 0.34731162 1.9226637 247 249 232
-1.0151964 0.34731162 1.9226637 246 248 232
-1.0212771 0.35339224 1.9226637 246 248 232
-1.0212771 0.35947281 1.9226637 246 248 232
0.35901701 0.3837952 1.9226637 255 255 243
0.35293639 0.60877705 1.9226637 254 254 241
0.34685576 0.65742171 1.9226637 254 255 241
0.1583575 -0.47356802 1.9287442 226 221 203
0.17051864 -0.45532626 1.9287442 228 222 205
0.17051864 -0.44924566 1.9287442 229 222 206
0.17051864 -0.4249233 1.9287442 230 227 210
-1.0334382 -0.41884273 1.9287442 175 171 151
-0.27336442 -0.39452034 1.9287442 210 209 187
0.17659926 -0.38235918 1.9287442 231 229 211
0.10971272 -0.32155329 1.9287442 130 122 103
0.19484103 -0.21818325 1.9287442 252 252 234
0.17659926 -0.19386089 1.9287442 252 251 231
0.17659926 -0.18169969 1.9287442 250 249 228
0.17659926 -0.17561913 1.9287442 248 249 228
0.18267989 -0.17561913 1.9287442 250 249 229
0.18267989 -0.16953853 1.9287442 248 248 227
0.18267989 -0.16345793 1.9287442 249 248 227
0.1887604 -0.15737733 1.9287442 248 249 229
0.1887604 -0.15129673 1.9287442 249 250 230
0.18267989 -0.14521617 1.9287442 249 249 228
0.1887604 -0.14521617 1.9287442 249 250 230
0.18267989 -0.13913557 1.9287442 248 247 226
0.20092165 0.055443287 1.9287442 255 255 247
0.18267989 0.079765677 1.9287442 255 255 247
0.1887604 0.085846245 1.9287442 255 255 247
0.18267989 0.098007441 1.9287442 255 255 243
0.1887604 0.11016864 1.9287442 255 255 243
0.1887604 0.1162492 1.9287442 255 255 243
0.1887604 0.12232983 1.9287442 255 255 243
-0.99695468 0.19529688 1.9287442 244 247 230
0.24956632 0.20745808 1.9287442 255 255 247
0.24956632 0.21353865 1.9287442 255 255 247
-0.94830996 0.28042513 1.9287442 245 248 231
0.29213047 0.30474752 1.9287442 254 254 249
-1.0334382 0.34731162 1.9287442 246 248 232
-1.0395188 0.35339224 1.9287442 247 248 232
-1.0334382 0.35339224 1.9287442 246 248 232
-1.0395188 0.35947281 1.9287442 247 248 232
-1.0395188 0.36555344 1.9287442 247 248 232
0.37725878 0.4263593 1.9287442 255 255 243
0.37725878 0.43243992 1.9287442 255 255 243
0.34077513 0.5114876 1.9287442 254 255 241
0.34685576 0.5114876 1.9287442 254 255 241
0.34077513 0.51756823 1.9287442 254 255 242
0.35293639 0.51756823 1.9287442 254 254 241
0.35293639 0.55405176 1.9287442 254 255 241
0.34685576 0.63309944 1.9287442 254 254 240
0.32253337 0.74255002 1.9287442 253 254 241
0.31645286 0.74863064 1.9287442 253 254 240
0.32253337 0.75471115 1.9287442 252 252 239
0.13403511 -0.49789038 1.9348248 225 220 203
0.14011574 -0.49180979 1.9348248 226 221 203
-0.29768682 -0.47356802 1.9348248 210 208 188
-0.93006814 -0.4370845 1.9348248 157 155 139
-0.93006814 -0.4310039 1.9348248 155 154 136
-1.0455993 -0.40668154 1.9348248 189 186 166
0.1887604 -0.29115033 1.9348248 245 244 227
0.1887604 -0.28506973 1.9348248 247 247 230
0.328614 -0.17561913 1.9348248 253 254 238
0.19484103 -0.13305497 1.9348248 248 249 230
0.35901701 -0.047926724 1.9348248 255 255 243
0.36509752 -0.047926724 1.9348248 255 255 244
0.18267989 0.006798625 1.9348248 252 254 241
0.1887604 0.067604482 1.9348248 255 255 247
0.21916342 0.17097455 1.9348248 255 254 248
-1.0030353 0.18921632 1.9348248 244 247 230
-0.97263229 0.24394161 1.9348248 245 248 230
-0.96655172 0.24394161 1.9348248 244 247 229
-0.96655172 0.25002217 1.9348248 244 247 229
-0.96047109 0.2561028 1.9348248 243 246 229
-0.96047109 0.26218337 1.9348248 243 246 229
-0.96047109 0.268264 1.9348248 244 247 230
-0.95439053 0.268264 1.9348248 244 247 230
-0.95439053 0.27434456 1.9348248 244 247 230
-0.97871292 0.31690872 1.9348248 247 250 233
-0.97871292 0.32298928 1.9348248 247 250 233
0.31037223 0.32298928 1.9348248 255 254 248
-0.97871292 0.32906985 1.9348248 246 249 232
0.31645286 0.32906985 1.9348248 255 255 247
-1.05168 0.34731162 1.9348248 246 247 231
0.35293639 0.5114876 1.9348248 255 255 242
0.35293639 0.51756823 1.9348248 254 254 241
0.34077513 0.53580999 1.9348248 253 254 240
0.41982281 0.55405176 1.9348248 255 255 244
0.41982281 0.56013227 1.9348248 255 255 244
0.35901701 0.62701881 1.9348248 254 254 242
-0.32200915 -0.49180979 1.9409053 209 208 187
-0.28552562 -0.46140686 1.9409053 210 209 188
-0.28552562 -0.45532626 1.9409053 210 208 187
0.17051864 -0.44316506 1.9409053 231 224 209
0.17051864 -0.4310039 1.9409053 229 226 210
-0.95439053 -0.4249233 1.9409053 179 179 161
-0.94830996 -0.4249233 1.9409053 174 174 156
0.17051864 -0.41276214 1.9409053 231 229 211
-1.05168 -0.40060094 1.9409053 203 200 180
0.17659926 -0.37627858 1.9409053 228 225 209
0.10971272 -0.32155329 1.9409053 125 117 97
0.27996933 -0.22426385 1.9409053 254 254 237
0.19484103 -0.21818325 1.9409053 252 252 234
0.27996933 -0.21818325 1.9409053 254 254 237
0.1887604 0.012879193 1.9409053 253 255 242
0.19484103 0.018959761 1.9409053 253 255 242
0.19484103 0.025040388 1.9409053 253 255 242
0.20092165 0.025040388 1.9409053 253 255 243
0.1887604 0.091926873 1.9409053 255 255 246
0.1887604 0.098007441 1.9409053 255 255 243
0.1887604 0.10408807 1.9409053 255 255 243
0.1887604 0.1284104 1.9409053 255 255 243
0.1887604 0.13449097 1.9409053 255 255 243
0.23740518 0.17705512 1.9409053 255 254 248
0.23740518 0.18313569 1.9409053 255 255 247
0.23740518 0.18921632 1.9409053 255 255 247
0.37725878 0.19529688 1.9409053 254 255 249
-0.97871292 0.23786104 1.9409053 245 248 230
-0.93614876 0.32298928 1.9409053 246 249 232
-0.93614876 0.32906985 1.9409053 246 249 232
-0.93614876 0.33515048 1.9409053 246 249 232
0.33469462 0.34123105 1.9409053 255 255 245
0.33469462 0.34731162 1.9409053 255 255 244
0.34077513 0.37163401 1.9409053 255 255 244
0.34077513 0.37771457 1.9409053 255 255 244
0.37117815 0.4263593 1.9409053 255 255 243
0.38941991 0.45068169 1.9409053 255 255 242
0.39550054 0.48108464 1.9409053 255 255 242
0.41982281 0.49932635 1.9409053 255 255 244
0.41982281 0.50540698 1.9409053 255 255 244
0.34077513 0.52364874 1.9409053 254 255 241
0.34685576 0.52364874 1.9409053 254 255 241
0.34077513 0.52972937 1.9409053 253 254 240
0.34077513 0.53580999 1.9409053 253 254 240
0.32253337 0.75471115 1.9409053 254 254 241
-0.94222933 -0.4310039 1.946986 156 157 137
0.27996933 -0.23034441 1.946986 254 254 237
0.27996933 -0.22426385 1.946986 254 254 237
0.18267989 -0.16953853 1.946986 249 248 229
0.328614 -0.16953853 1.946986 254 255 239
0.18267989 -0.16345793 1.946986 249 248 229
0.1887604 -0.15129673 1.946986 248 249 231
0.1887604 -0.14521617 1.946986 249 250 230
0.19484103 -0.13913557 1.946986 248 249 230
0.328614 -0.047926724 1.946986 254 254 242
0.18267989 0.012879193 1.946986 252 254 241
0.18267989 0.018959761 1.946986 252 254 241
0.20092165 0.018959761 1.946986 253 255 243
0.20700216 0.018959761 1.946986 254 255 246
0.20092165 0.025040388 1.946986 253 255 243
0.20700216 0.025040388 1.946986 254 255 246
0.21308279 0.025040388 1.946986 255 255 247
0.1887604 0.037201524 1.946986 253 255 242
0.1887604 0.043282151 1.946986 254 255 244
0.1887604 0.049362719 1.946986 255 255 246
0.1887604 0.079765677 1.946986 255 255 247
0.1887604 0.15881336 1.946986 255 255 246
-1.0151964 0.18313569 1.946986 245 248 231
-1.0030353 0.20137751 1.946986 243 246 229
-1.0030353 0.20745808 1.946986 243 246 229
0.25564694 0.22569984 1.946986 255 254 248
0.26172745 0.23178041 1.946986 255 254 248
-0.97263229 0.24394161 1.946986 244 247 229
-0.97263229 0.25002217 1.946986 244 247 229
-0.96655172 0.25002217 1.946986 244 247 229
0.26780808 0.25002217 1.946986 255 254 247
-0.96655172 0.2561028 1.946986 243 246 229
-0.96047109 0.2561028 1.946986 243 246 229
0.26780808 0.2561028 1.946986 255 254 247
-0.96047109 0.26218337 1.946986 244 247 230
0.26780808 0.26218337 1.946986 255 254 247
-0.96047109 0.268264 1.946986 244 247 230
-0.91182637 0.34123105 1.946986 246 249 232
0.33469462 0.34123105 1.946986 255 255 245
0.38941991 0.45068169 1.946986 255 255 242
0.40158105 0.48716521 1.946986 255 255 242
0.41982281 0.52972937 1.946986 255 255 244
0.35293639 0.60877705 1.946986 254 254 241
0.35293639 0.61485755 1.946986 254 254 242
0.38333929 0.64526057 1.946986 255 255 243
0.38333929 0.6513412 1.946986 255 255 244
0.38333929 0.65742171 1.946986 255 255 244
0.32253337 0.74255002 1.946986 254 255 242
0.32253337 0.74863064 1.946986 254 254 241
0.32253337 0.75471115 1.946986 254 255 242
-0.29160619 -0.46748745 1.9530666 210 209 188
-0.28552562 -0.4310039 1.9530666 211 208 187
-0.27944499 -0.40060094 1.9530666 210 209 186
0.31037223 -0.31547269 1.9530666 251 250 236
0.19484103 -0.21210265 1.9530666 251 251 233
0.1887604 0.018959761 1.9530666 253 255 242
0.1887604 0.025040388 1.9530666 253 255 242
0.21308279 0.025040388 1.9530666 255 255 247
0.1887604 0.031120956 1.9530666 253 255 242
0.19484103 0.031120956 1.9530666 253 255 242
0.1887604 0.037201524 1.9530666 253 255 242
0.19484103 0.037201524 1.9530666 253 255 242
0.20092165 0.037201524 1.9530666 253 255 243
0.19484103 0.043282151 1.9530666 254 255 244
0.20092165 0.043282151 1.9530666 254 255 245
0.19484103 0.049362719 1.9530666 255 255 247
0.20092165 0.049362719 1.9530666 255 255 247
0.19484103 0.055443287 1.9530666 255 255 247
0.20092165 0.055443287 1.9530666 255 255 247
0.18267989 0.091926873 1.9530666 255 255 245
0.1887604 0.12232983 1.9530666 255 255 243
0.1887604 0.14665216 1.9530666 255 255 247
0.37725878 0.19529688 1.9530666 254 255 249
-0.95439053 0.26218337 1.9530666 246 249 232
-0.95439053 0.268264 1.9530666 246 249 232
-0.94830996 0.268264 1.9530666 246 249 232
-0.95439053 0.27434456 1.9530666 246 249 232
-0.95439053 0.28042513 1.9530666 246 249 232
0.29213047 0.31082809 1.9530666 254 254 249
0.29213047 0.31690872 1.9530666 254 255 248
-0.94222933 0.32906985 1.9530666 246 249 232
0.35901701 0.38987577 1.9530666 255 255 243
0.37725878 0.43243992 1.9530666 255 255 243
0.37725878 0.43852049 1.9530666 255 255 243
0.34685576 0.64526057 1.9530666 254 254 240
0.34685576 0.66958296 1.9530666 254 255 241
0.1583575 -0.47964862 1.9591472 226 221 203
0.16443813 -0.46748745 1.9591472 228 222 204
-0.94830996 -0.45532626 1.9591472 174 171 160
-0.94830996 -0.44924566 1.9591472 165 162 149
0.14619625 -0.32155329 1.9591472 150 139 112
0.31037223 -0.31547269 1.9591472 251 250 236
0.20092165 -0.21210265 1.9591472 251 251 233
0.20092165 -0.20602205 1.9591472 250 250 232
0.328614 -0.17561913 1.9591472 253 254 238
0.32253337 -0.16953853 1.9591472 253 254 237
0.328614 -0.16953853 1.9591472 253 254 238
0.18267989 -0.16345793 1.9591472 249 248 229
0.20092165 0.031120956 1.9591472 253 255 243
0.20700216 0.031120956 1.9591472 254 255 246
0.20092165 0.037201524 1.9591472 253 255 243
0.20700216 0.037201524 1.9591472 254 255 246
0.21308279 0.037201524 1.9591472 255 255 247
0.20700216 0.043282151 1.9591472 255 255 247
0.21308279 0.043282151 1.9591472 255 255 247
0.20700216 0.049362719 1.9591472 255 255 247
0.21308279 0.049362719 1.9591472 255 255 247
0.20700216 0.055443287 1.9591472 255 255 247
0.21308279 0.055443287 1.9591472 255 255 247
0.1887604 0.091926873 1.9591472 255 255 246
0.21916342 0.17705512 1.9591472 255 254 248
-1.0212771 0.18313569 1.9591472 244 247 230
0.24956632 0.21961927 1.9591472 255 255 247
0.24956632 0.22569984 1.9591472 255 254 248
0.26780808 0.27434456 1.9591472 254 255 248
0.31037223 0.32906985 1.9591472 255 254 248
0.34077513 0.3837952 1.9591472 255 255 243
0.41982281 0.55405176 1.9591472 255 255 243
0.41982281 0.56013227 1.9591472 255 255 244
0.41982281 0.56621289 1.9591472 255 255 244
0.48062873 0.59053528 1.9591472 255 254 247
0.38333929 0.66958296 1.9591472 255 255 244
0.32253337 0.74255002 1.9591472 254 254 242
0.32253337 0.74863064 1.9591472 254 254 242
0.14011574 -0.49180979 1.9652277 228 223 205
-0.95439053 -0.44316506 1.9652277 158 157 139
-0.96047109 -0.4310039 1.9652277 161 161 143
0.10971272 -0.32155329 1.9652277 121 112 89
0.328614 -0.17561913 1.9652277 253 254 238
0.34077513 -0.054007292 1.9652277 255 255 243
0.34077513 -0.047926724 1.9652277 255 255 243
0.21308279 0.031120956 1.9652277 255 255 247
0.21308279 0.037201524 1.9652277 255 255 247
0.21916342 0.049362719 1.9652277 255 255 247
0.21916342 0.055443287 1.9652277 255 255 247
-1.05168 0.1162492 1.9652277 244 245 229
-1.05168 0.12232983 1.9652277 245 246 230
0.1887604 0.15881336 1.9652277 255 255 247
-1.0273576 0.17705512 1.9652277 245 248 231
0.37117815 0.17705512 1.9652277 255 255 251
-1.0273576 0.18313569 1.9652277 245 248 231
0.23740518 0.20137751 1.9652277 255 255 247
-0.96047109 0.268264 1.9652277 246 249 232
0.31645286 0.33515048 1.9652277 255 255 247
0.31645286 0.34123105 1.9652277 255 255 246
0.36509752 0.40811753 1.9652277 255 255 243
0.37117815 0.43243992 1.9652277 255 255 243
0.37725878 0.43243992 1.9652277 255 255 243
0.41982281 0.49932635 1.9652277 255 255 243
0.41982281 0.50540698 1.9652277 255 255 244
0.34077513 0.5418905 1.9652277 253 254 240
0.34077513 0.54797113 1.9652277 254 255 241
0.34685576 0.54797113 1.9652277 254 255 241
0.34685576 0.55405176 1.9652277 255 255 242
0.35901701 0.63309944 1.9652277 254 254 242
0.34077513 0.66350234 1.9652277 254 255 241
0.34077513 0.66958296 1.9652277 254 255 241
-0.96047109 -0.49180979 1.9713084 230 229 220
0.16443813 -0.45532626 1.9713084 230 224 208
0.18267989 -0.2972309 1.9713084 242 240 221
0.27996933 -0.22426385 1.9713084 254 254 237
0.27996933 -0.21818325 1.9713084 254 254 237
0.28604984 -0.21210265 1.9713084 253 253 236
0.22524393 0.025040388 1.9713084 255 255 247
0.22524393 0.031120956 1.9713084 255 255 247
0.18267989 0.067604482 1.9713084 255 255 247
0.37725878 0.17097455 1.9713084 254 255 250
0.37117815 0.17705512 1.9713084 255 255 251
0.37725878 0.17705512 1.9713084 254 255 250
0.37725878 0.18313569 1.9713084 254 255 250
0.37725878 0.18921632 1.9713084 254 255 250
-1.0455993 0.19529688 1.9713084 245 248 231
-1.0395188 0.19529688 1.9713084 245 248 231
-1.0212771 0.19529688 1.9713084 244 247 230
0.23740518 0.19529688 1.9713084 255 255 247
0.38333929 0.19529688 1.9713084 254 255 249
-1.0455993 0.20137751 1.9713084 244 247 230
-1.0395188 0.20137751 1.9713084 245 248 231
0.23740518 0.20137751 1.9713084 255 255 247
-0.95439053 0.34731162 1.9713084 245 248 231
0.33469462 0.34731162 1.9713084 255 255 245
-0.95439053 0.35339224 1.9713084 245 248 231
0.33469462 0.35339224 1.9713084 255 255 244
0.33469462 0.35947281 1.9713084 255 255 244
0.34077513 0.3837952 1.9713084 255 255 244
0.38941991 0.45676225 1.9713084 255 255 242
0.39550054 0.48716521 1.9713084 255 255 242
0.39550054 0.49324584 1.9713084 255 255 242
0.40158105 0.49324584 1.9713084 255 255 242
0.38333929 0.6513412 1.9713084 255 255 244
0.38333929 0.65742171 1.9713084 255 255 244
0.38333929 0.66350234 1.9713084 255 255 244
0.32253337 0.73646939 1.9713084 254 254 242
0.32253337 0.74255002 1.9713084 254 254 242
0.32253337 0.74863064 1.9713084 254 254 242
-0.33417034 -0.49789038 1.977389 209 207 186
-0.30376738 -0.47356802 1.977389 210 209 188
-0.29768682 -0.46748745 1.977389 210 209 188
-0.29768682 -0.46140686 1.977389 210 208 187
-0.29160619 -0.4370845 1.977389 211 208 187
-0.95439053 -0.41884273 1.977389 194 194 175
-0.27944499 -0.40060094 1.977389 209 208 186
0.1887604 -0.28506973 1.977389 249 248 233
0.1887604 -0.27898914 1.977389 251 251 235
0.18267989 -0.22426385 1.977389 251 252 236
0.328614 -0.18169969 1.977389 253 254 238
0.30429161 -0.17561913 1.977389 253 254 237
0.19484103 -0.14521617 1.977389 249 249 231
0.19484103 -0.13913557 1.977389 249 249 231
0.21916342 0.037201524 1.977389 255 255 247
0.18267989 0.11016864 1.977389 255 255 243
0.1887604 0.16489393 1.977389 255 255 247
-1.0395188 0.17097455 1.977389 245 248 231
-1.0395188 0.17705512 1.977389 246 249 232
-1.0334382 0.17705512 1.977389 244 247 230
0.36509752 0.18313569 1.977389 255 255 251
0.36509752 0.18921632 1.977389 255 255 251
0.36509752 0.19529688 1.977389 255 255 251
0.37117815 0.19529688 1.977389 254 255 250
-1.0212771 0.22569984 1.977389 243 246 229
0.26172745 0.23786104 1.977389 255 254 248
-0.99695468 0.24394161 1.977389 244 247 229
0.26172745 0.24394161 1.977389 255 254 248
0.26780808 0.268264 1.977389 254 254 246
0.28604984 0.30474752 1.977389 254 255 249
0.35901701 0.3959564 1.977389 255 255 243
0.4137423 0.49932635 1.977389 255 255 242
0.41982281 0.5418905 1.977389 255 255 243
0.35293639 0.62093818 1.977389 254 255 241
0.34685576 0.66958296 1.977389 254 255 241
0.34685576 0.67566347 1.977389 255 255 242
-0.32808971 -0.49789038 1.9834695 209 208 187
0.15227687 -0.48572922 1.9834695 226 221 203
0.16443813 -0.47356802 1.9834695 227 221 204
0.16443813 -0.46748745 1.9834695 228 222 205
-0.97871292 -0.4310039 1.9834695 171 171 153
-0.97263229 -0.4310039 1.9834695 168 168 150
-0.30376738 -0.4249233 1.9834695 209 207 184
-0.30376738 -0.41884273 1.9834695 209 207 185
0.2982111 -0.33979505 1.9834695 244 240 225
0.1887604 -0.22426385 1.9834695 253 253 235
0.20092165 -0.20602205 1.9834695 250 250 232
0.17051864 -0.19994146 1.9834695 252 251 232
0.23132455 -0.19994146 1.9834695 252 252 233
0.34077513 -0.060087889 1.9834695 255 255 242
0.18267989 0.11016864 1.9834695 255 255 243
0.37725878 0.17705512 1.9834695 254 255 250
0.37117815 0.19529688 1.9834695 254 255 250
-1.0151964 0.22569984 1.9834695 242 245 227
-1.0091158 0.23178041 1.9834695 244 247 229
-1.0091158 0.23786104 1.9834695 244 247 229
-1.0030353 0.24394161 1.9834695 244 247 229
0.29213047 0.31690872 1.9834695 254 254 249
0.29213047 0.32298928 1.9834695 254 254 249
0.29213047 0.32906985 1.9834695 255 254 249
-0.96047109 0.33515048 1.9834695 246 249 232
-0.96047109 0.34123105 1.9834695 246 249 232
-0.96047109 0.34731162 1.9834695 245 248 231
0.34077513 0.38987577 1.9834695 255 255 244
0.37725878 0.43852049 1.9834695 255 255 243
0.37725878 0.44460106 1.9834695 255 255 243
0.35293639 0.56621289 1.9834695 254 255 241
0.35293639 0.66958296 1.9834695 255 255 243
0.13403511 -0.50397098 1.9895501 226 221 203
0.14011574 -0.49789038 1.9895501 226 221 203
-0.96655172 -0.4249233 1.9895501 186 186 167
-0.29160619 -0.40668154 1.9895501 210 209 186
0.17051864 -0.38843977 1.9895501 230 227 210
0.18267989 -0.2972309 1.9895501 245 244 227
0.28604984 -0.21210265 1.9895501 252 253 237
0.23132455 -0.19994146 1.9895501 252 252 233
0.2982111 -0.17561913 1.9895501 252 253 236
0.2982111 -0.16953853 1.9895501 252 253 236
0.30429161 -0.16953853 1.9895501 254 255 238
0.2982111 -0.16345793 1.9895501 252 253 236
0.21916342 0.049362719 1.9895501 255 255 247
0.21308279 0.17097455 1.9895501 255 254 248
0.38333929 0.17097455 1.9895501 254 255 250
-1.0334382 0.18921632 1.9895501 243 246 229
-1.0334382 0.19529688 1.9895501 243 246 229
-1.0334382 0.21353865 1.9895501 243 246 229
-1.0334382 0.21961927 1.9895501 243 246 229
-0.99695468 0.2561028 1.9895501 244 247 229
-0.99695468 0.26218337 1.9895501 243 246 229
-0.99087405 0.268264 1.9895501 244 247 230
0.26780808 0.28042513 1.9895501 254 255 249
0.26780808 0.28650576 1.9895501 254 255 249
-0.93006814 0.38987577 1.9895501 246 249 232
-0.93006814 0.3959564 1.9895501 246 249 232
0.36509752 0.41419816 1.9895501 255 255 243
0.37117815 0.43852049 1.9895501 255 255 243
0.18267989 0.50540698 1.9895501 187 197 146
0.18267989 0.5114876 1.9895501 187 197 147
0.1887604 0.5114876 1.9895501 189 199 150
0.18267989 0.51756823 1.9895501 190 201 153
0.35293639 0.62093818 1.9895501 254 254 241
0.35293639 0.62701881 1.9895501 255 255 242
0.38333929 0.62701881 1.9895501 255 255 246
0.32253337 0.74255002 1.9895501 254 254 242
0.32253337 0.74863064 1.9895501 254 254 242
0.16443813 -0.46140686 1.9956307 229 223 207
0.16443813 -0.45532626 1.9956307 230 224 209
0.16443813 -0.44316506 1.9956307 233 228 213
0.16443813 -0.4249233 1.9956307 231 229 211
0.17051864 -0.38843977 1.9956307 230 227 210
0.10363221 -0.32763386 1.9956307 124 114 94
0.30429161 -0.32763386 1.9956307 249 248 235
0.21916342 -0.20602205 1.9956307 253 253 235
-0.97263229 -0.16953853 1.9956307 241 241 220
0.31037223 -0.16953853 1.9956307 254 255 238
-0.97263229 -0.16345793 1.9956307 241 243 223
0.31037223 -0.16345793 1.9956307 254 255 238
0.31645286 -0.16345793 1.9956307 253 254 237
-0.97263229 -0.15737733 1.9956307 242 244 224
0.18267989 -0.15737733 1.9956307 248 249 229
0.22524393 0.031120956 1.9956307 255 255 247
0.18267989 0.07368511 1.9956307 255 255 247
0.18267989 0.079765677 1.9956307 255 255 247
0.18267989 0.098007441 1.9956307 255 255 245
0.23132455 0.18313569 1.9956307 255 254 249
0.23740518 0.20745808 1.9956307 255 255 247
0.23740518 0.21353865 1.9956307 255 255 247
0.24348569 0.21961927 1.9956307 255 255 247
0.4137423 0.23786104 1.9956307 254 255 249
0.4137423 0.24394161 1.9956307 254 255 249
-0.97871292 0.268264 1.9956307 246 249 232
-0.97871292 0.27434456 1.9956307 246 249 232
-0.97263229 0.27434456 1.9956307 247 250 233
-0.97871292 0.28042513 1.9956307 246 249 232
-0.97263229 0.28042513 1.9956307 247 250 233
0.26780808 0.31082809 1.9956307 254 255 249
0.33469462 0.35339224 1.9956307 255 255 245
0.33469462 0.35947281 1.9956307 255 255 244
-0.917907 0.3837952 1.9956307 247 250 233
0.34077513 0.38987577 1.9956307 255 255 244
0.37117815 0.43852049 1.9956307 255 255 243
0.38941991 0.46284288 1.9956307 255 255 242
0.39550054 0.48716521 1.9956307 255 255 242
0.39550054 0.49324584 1.9956307 255 255 242
0.41982281 0.50540698 1.9956307 255 255 243
0.41982281 0.5114876 1.9956307 255 255 243
0.17659926 0.51756823 1.9956307 164 174 127
0.17051864 0.52364874 1.9956307 182 196 147
0.17659926 0.52364874 1.9956307 174 185 138
0.42590344 0.53580999 1.9956307 255 254 245
0.48670936 0.6513412 1.9956307 255 255 244
-0.30984795 -0.47964862 2.0017114 210 209 188
-0.30376738 -0.46748745 2.0017114 210 209 188
-0.30376738 -0.46140686 2.0017114 210 209 188
-0.30376738 -0.45532626 2.0017114 210 208 187
0.14619625 -0.32155329 2.0017114 160 149 120
0.28604984 -0.23034441 2.0017114 252 253 237
0.27996933 -0.22426385 2.0017114 254 254 237
0.28604984 -0.21818325 2.0017114 253 254 238
-0.96655172 -0.17561913 2.0017114 244 244 223
-0.96655172 -0.16953853 2.0017114 243 243 222
-0.96047109 -0.16345793 2.0017114 246 247 228
0.18267989 -0.16345793 2.0017114 248 249 229
0.18267989 -0.15737733 2.0017114 248 249 229
0.18267989 0.07368511 2.0017114 255 255 247
0.21308279 0.17097455 2.0017114 255 254 248
-1.0455993 0.17705512 2.0017114 243 246 229
-1.0455993 0.18313569 2.0017114 243 246 229
-1.0455993 0.18921632 2.0017114 243 246 229
0.26780808 0.29258633 2.0017114 253 254 248
0.26780808 0.29866695 2.0017114 254 255 249
-0.97871292 0.31690872 2.0017114 246 249 232
-0.98479348 0.32298928 2.0017114 246 249 232
0.31645286 0.34731162 2.0017114 255 255 246
0.31645286 0.35339224 2.0017114 255 255 246
0.18267989 0.50540698 2.0017114 193 204 152
0.41982281 0.54797113 2.0017114 255 255 244
0.41982281 0.57229352 2.0017114 255 255 244
0.41982281 0.57837403 2.0017114 255 255 244
0.42590344 0.60269642 2.0017114 255 254 247
0.35901701 0.63309944 2.0017114 255 255 242
0.35901701 0.6513412 2.0017114 254 254 242
0.38333929 0.66350234 2.0017114 255 255 244
0.32253337 0.74863064 2.0017114 254 254 242
-0.98479348 -0.45532626 2.007792 159 156 140
0.17051864 -0.39452034 2.007792 231 227 209
0.2982111 -0.33979505 2.007792 246 242 228
0.17659926 -0.23034441 2.007792 251 252 236
0.18267989 0.085846245 2.007792 255 255 247
0.18267989 0.091926873 2.007792 255 255 247
0.34685576 0.20745808 2.007792 254 255 247
0.28604984 0.31082809 2.007792 254 255 249
0.28604984 0.31690872 2.007792 254 254 249
0.35901701 0.40203696 2.007792 255 255 243
0.37725878 0.44460106 2.007792 255 255 243
0.16443813 0.51756823 2.007792 180 194 142
0.17051864 0.51756823 2.007792 169 180 131
0.17051864 0.52364874 2.007792 171 184 135
0.34685576 0.66350234 2.007792 254 254 240
0.35293639 0.67566347 2.007792 254 254 242
