ply
format ascii 1.0
comment PCL generated
element vertex 1062
property float x
property float y
property float z
property uchar red
property uchar green
property uchar blue
element camera 0
property float view_px
property float view_py
property float view_pz
property float x_axisx
property float x_axisy
property float x_axisz
property float y_axisx
property float y_axisy
property float y_axisz
property float z_axisx
property float z_axisy
property float z_axisz
property float focal
property float scalex
property float scaley
property float centerx
property float centery
property int viewportx
property int viewporty
property float k1
property float k2
end_header
0.17659926 0.2561028 1.7584877 152 182 110
0.23132455 0.2561028 1.7584877 237 236 215
0.23132455 0.26218337 1.7584877 235 235 215
0.23740518 0.268264 1.7584877 232 229 213
0.21916342 0.28042513 1.7584877 160 152 125
0.22524393 0.28042513 1.7584877 185 178 153
0.22524393 0.28650576 1.7584877 178 169 143
0.22524393 0.29258633 1.7584877 155 146 117
0.24956632 0.30474752 1.7584877 206 199 175
0.24956632 0.31082809 1.7584877 193 186 161
0.25564694 0.31082809 1.7584877 208 203 182
0.25564694 0.31690872 1.7584877 191 184 162
0.061068058 0.32298928 1.7584877 160 190 123
0.25564694 0.32298928 1.7584877 171 164 139
0.26172745 0.32906985 1.7584877 199 194 173
0.26172745 0.33515048 1.7584877 210 205 182
0.26172745 0.34123105 1.7584877 212 207 185
0.42590344 0.3959564 1.7584877 234 226 209
0.43198407 0.40203696 1.7584877 232 225 207
0.46846759 0.41419816 1.7584877 229 221 204
0.47454822 0.4263593 1.7584877 230 221 204
0.4441452 0.47500402 1.7584877 229 220 203
-0.024060249 0.48108464 1.7584877 145 174 114
0.4441452 0.48108464 1.7584877 227 219 202
-0.59563571 0.5114876 1.7584877 181 153 111
-0.61387748 0.51756823 1.7584877 165 140 98
-0.61387748 0.52364874 1.7584877 180 153 111
0.4441452 0.52972937 1.7584877 224 217 198
0.45022583 0.5418905 1.7584877 224 215 197
-0.04838264 0.54797113 1.7584877 154 186 120
-0.042302012 0.60877705 1.7584877 156 160 116
-0.042302012 0.61485755 1.7584877 152 160 114
-0.35849267 0.71214712 1.7584877 181 168 124
-0.1091885 -0.44924566 1.7645683 249 244 226
-0.12134969 -0.4249233 1.7645683 236 229 211
-0.090946734 -0.40060094 1.7645683 220 214 194
-0.072704971 -0.38843977 1.7645683 219 212 193
-0.04838264 -0.37627858 1.7645683 215 208 186
-0.042302012 -0.37019801 1.7645683 216 208 189
-0.042302012 -0.36411741 1.7645683 217 210 191
-0.50442684 -0.35803682 1.7645683 226 224 201
-0.042302012 -0.35803682 1.7645683 225 217 198
-0.030140758 -0.33371446 1.7645683 236 231 212
0.012423277 -0.32155329 1.7645683 237 232 213
0.17051864 -0.047926724 1.7645683 252 251 236
0.097551584 -0.041846126 1.7645683 250 251 236
0.14011574 -0.023604363 1.7645683 249 249 233
0.20092165 -0.017523766 1.7645683 250 250 234
0.20092165 0.031120956 1.7645683 251 250 236
0.20092165 0.037201524 1.7645683 252 251 237
0.21916342 0.07368511 1.7645683 249 250 236
0.085390449 0.10408807 1.7645683 243 246 230
0.085390449 0.11016864 1.7645683 242 246 230
0.10971272 0.15881336 1.7645683 238 241 226
0.29213047 0.18313569 1.7645683 249 248 234
0.2982111 0.19529688 1.7645683 248 246 231
0.19484103 0.20137751 1.7645683 248 250 236
0.30429161 0.20137751 1.7645683 248 246 231
0.19484103 0.20745808 1.7645683 241 244 225
0.21308279 0.20745808 1.7645683 248 249 234
0.34077513 0.20745808 1.7645683 248 246 232
0.1887604 0.22569984 1.7645683 161 173 125
0.20700216 0.22569984 1.7645683 242 243 223
0.1887604 0.23178041 1.7645683 161 177 121
0.20700216 0.23178041 1.7645683 240 242 217
0.1887604 0.23786104 1.7645683 156 175 116
0.20700216 0.23786104 1.7645683 188 192 162
0.21308279 0.24394161 1.7645683 224 225 199
-0.1091885 0.25002217 1.7645683 169 145 109
0.21308279 0.25002217 1.7645683 228 225 197
0.35901701 0.25002217 1.7645683 245 241 225
-0.10310793 0.2561028 1.7645683 157 132 96
0.22524393 0.27434456 1.7645683 231 226 205
0.22524393 0.28042513 1.7645683 224 218 194
0.22524393 0.28650576 1.7645683 207 200 176
0.23132455 0.28650576 1.7645683 224 219 197
-0.12743026 0.29866695 1.7645683 166 141 103
0.24956632 0.29866695 1.7645683 226 220 203
0.21916342 0.30474752 1.7645683 166 155 126
0.23740518 0.30474752 1.7645683 206 200 173
0.21916342 0.31082809 1.7645683 174 162 132
0.25564694 0.31082809 1.7645683 222 216 198
-0.097027302 0.31690872 1.7645683 162 136 99
0.25564694 0.31690872 1.7645683 216 211 192
0.10363221 0.32906985 1.7645683 158 179 115
0.26172745 0.32906985 1.7645683 215 211 192
0.46238697 0.32906985 1.7645683 235 229 209
0.085390449 0.33515048 1.7645683 163 187 124
0.26172745 0.33515048 1.7645683 216 212 192
0.091470957 0.34123105 1.7645683 170 192 130
0.14619625 0.34731162 1.7645683 163 154 119
0.36509752 0.36555344 1.7645683 239 232 214
0.45630634 0.41419816 1.7645683 230 223 205
0.48062873 0.46892345 1.7645683 226 217 200
0.48062873 0.47500402 1.7645683 227 218 201
-0.024060249 0.50540698 1.7645683 142 169 108
-0.59563571 0.5114876 1.7645683 180 153 111
-0.61387748 0.51756823 1.7645683 169 143 102
-0.60779691 0.51756823 1.7645683 182 155 113
-0.59563571 0.51756823 1.7645683 184 155 114
-0.036221385 0.51756823 1.7645683 141 170 109
-0.60779691 0.52364874 1.7645683 187 160 118
-0.04838264 0.53580999 1.7645683 154 186 121
-0.04838264 0.5418905 1.7645683 145 178 112
-0.030140758 0.5418905 1.7645683 134 162 101
-0.04838264 0.54797113 1.7645683 159 192 126
-0.042302012 0.54797113 1.7645683 156 189 122
0.45630634 0.54797113 1.7645683 222 213 195
-0.04838264 0.62701881 1.7645683 134 143 97
0.1583575 0.74255002 1.7645683 228 223 208
-0.21863914 -0.50397098 1.7706488 191 185 166
-0.11526906 -0.41276214 1.7706488 226 218 201
-0.066624343 -0.38235918 1.7706488 216 209 187
0.03066504 -0.31547269 1.7706488 236 232 214
-0.011898994 -0.19994146 1.7706488 246 245 230
-0.011898994 -0.19386089 1.7706488 245 245 230
0.13403511 -0.011443168 1.7706488 251 250 235
0.13403511 -0.0053625703 1.7706488 251 250 235
0.21308279 0.006798625 1.7706488 253 253 238
0.20092165 0.025040388 1.7706488 252 251 237
0.20092165 0.031120956 1.7706488 252 251 238
0.20700216 0.031120956 1.7706488 253 252 239
0.20700216 0.037201524 1.7706488 252 251 238
0.21916342 0.079765677 1.7706488 252 253 239
0.079309821 0.085846245 1.7706488 246 248 233
0.20700216 0.13449097 1.7706488 247 248 232
0.091470957 0.15273273 1.7706488 234 239 220
0.10971272 0.15881336 1.7706488 240 243 226
0.11579335 0.16489393 1.7706488 239 240 223
0.21308279 0.19529688 1.7706488 249 250 235
0.35901701 0.20137751 1.7706488 249 246 232
0.36509752 0.20745808 1.7706488 247 245 231
0.1887604 0.21961927 1.7706488 218 224 193
0.20700216 0.21961927 1.7706488 248 247 233
0.1887604 0.22569984 1.7706488 170 176 138
0.20700216 0.22569984 1.7706488 249 247 235
-0.12743026 0.23178041 1.7706488 156 133 96
0.19484103 0.23178041 1.7706488 185 190 155
0.20700216 0.23178041 1.7706488 239 239 223
0.21308279 0.23178041 1.7706488 244 243 230
0.21308279 0.23786104 1.7706488 242 244 225
0.21308279 0.24394161 1.7706488 239 241 219
0.21916342 0.25002217 1.7706488 243 240 222
-0.10310793 0.2561028 1.7706488 148 122 87
0.37725878 0.2561028 1.7706488 244 239 223
0.17051864 0.26218337 1.7706488 154 183 113
0.23132455 0.28042513 1.7706488 230 227 210
0.23132455 0.28650576 1.7706488 229 225 204
0.21916342 0.29866695 1.7706488 158 149 121
0.21916342 0.30474752 1.7706488 169 159 129
0.23740518 0.30474752 1.7706488 224 218 196
-0.13351083 0.31082809 1.7706488 162 136 99
-0.097027302 0.31082809 1.7706488 170 145 106
0.22524393 0.31082809 1.7706488 179 171 141
0.054987431 0.33515048 1.7706488 152 181 113
0.073229194 0.33515048 1.7706488 154 179 114
0.091470957 0.33515048 1.7706488 165 185 123
0.091470957 0.34123105 1.7706488 171 191 130
0.18267989 0.38987577 1.7706488 172 157 115
0.41982281 0.40203696 1.7706488 233 225 208
0.46238697 0.42027873 1.7706488 228 221 203
0.46846759 0.43243992 1.7706488 229 220 203
-0.14567202 0.51756823 1.7706488 154 156 103
-0.13959146 0.51756823 1.7706488 154 159 103
-0.036221385 0.51756823 1.7706488 131 158 97
-0.13959146 0.52364874 1.7706488 165 169 115
-0.13959146 0.52972937 1.7706488 167 171 117
-0.04838264 0.52972937 1.7706488 146 176 114
-0.13351083 0.53580999 1.7706488 159 164 109
-0.04838264 0.53580999 1.7706488 155 187 124
-0.042302012 0.5418905 1.7706488 147 177 115
-0.042302012 0.54797113 1.7706488 133 164 102
0.4441452 0.54797113 1.7706488 223 214 196
-0.042302012 0.55405176 1.7706488 144 176 110
0.46238697 0.56621289 1.7706488 220 211 193
-0.04838264 0.62093818 1.7706488 151 159 112
-0.04838264 0.62701881 1.7706488 137 144 98
-0.37065387 0.71822762 1.7706488 181 168 124
-0.21863914 -0.50397098 1.7767295 196 190 171
-0.21255851 -0.50397098 1.7767295 195 188 169
-0.097027302 -0.46748745 1.7767295 250 243 225
-0.1091885 -0.46140686 1.7767295 251 245 229
-0.12134969 -0.44924566 1.7767295 249 243 226
-0.12743026 -0.41884273 1.7767295 232 224 206
-0.078785539 -0.38843977 1.7767295 220 213 193
-0.04838264 -0.35195622 1.7767295 228 222 203
-0.04838264 -0.34587562 1.7767295 231 226 207
-0.042302012 -0.33979505 1.7767295 234 229 210
-0.011898994 -0.21210265 1.7767295 247 245 231
0.036745667 -0.035765529 1.7767295 250 252 237
0.091470957 -0.035765529 1.7767295 251 251 235
0.1887604 -0.023604363 1.7767295 251 250 235
0.1887604 -0.017523766 1.7767295 251 250 235
0.20092165 0.025040388 1.7767295 253 252 238
0.079309821 0.1162492 1.7767295 243 245 230
0.079309821 0.12232983 1.7767295 240 244 229
0.085390449 0.14057159 1.7767295 238 242 227
0.28604984 0.18921632 1.7767295 249 248 234
0.328614 0.20745808 1.7767295 250 248 234
0.1887604 0.21961927 1.7767295 241 245 223
0.20700216 0.21961927 1.7767295 246 247 232
0.19484103 0.22569984 1.7767295 242 241 222
0.21308279 0.22569984 1.7767295 247 248 233
0.19484103 0.23178041 1.7767295 224 225 199
0.21308279 0.23178041 1.7767295 246 247 232
0.21308279 0.23786104 1.7767295 244 244 228
-0.12134969 0.24394161 1.7767295 146 122 86
0.17051864 0.26218337 1.7767295 152 175 110
0.23132455 0.28650576 1.7767295 229 225 207
0.21916342 0.29866695 1.7767295 202 196 170
0.22524393 0.29866695 1.7767295 219 213 189
-0.13351083 0.30474752 1.7767295 155 130 92
0.22524393 0.30474752 1.7767295 204 198 170
-0.13351083 0.31082809 1.7767295 154 129 91
-0.11526906 0.31082809 1.7767295 171 146 108
0.22524393 0.31082809 1.7767295 198 191 163
0.054987431 0.32906985 1.7767295 160 188 121
0.054987431 0.33515048 1.7767295 155 184 117
0.073229194 0.33515048 1.7767295 153 178 113
0.091470957 0.33515048 1.7767295 160 182 119
0.13403511 0.34123105 1.7767295 156 148 106
0.13403511 0.34731162 1.7767295 154 147 107
0.35901701 0.37163401 1.7767295 240 232 215
0.42590344 0.41419816 1.7767295 232 224 207
0.45022583 0.42027873 1.7767295 229 222 204
0.47454822 0.48108464 1.7767295 227 218 201
0.48062873 0.49932635 1.7767295 224 215 197
-0.13959146 0.52364874 1.7767295 164 169 114
-0.13351083 0.52972937 1.7767295 163 170 115
-0.04838264 0.52972937 1.7767295 144 172 110
-0.042302012 0.52972937 1.7767295 151 178 118
-0.13351083 0.53580999 1.7767295 160 165 110
-0.042302012 0.53580999 1.7767295 163 191 130
-0.13351083 0.5418905 1.7767295 147 154 99
-0.042302012 0.5418905 1.7767295 154 183 122
0.4441452 0.55405176 1.7767295 223 214 196
-0.054463148 0.56013227 1.7767295 151 183 117
-0.37065387 0.69998586 1.7767295 166 147 108
-0.37065387 0.70606649 1.7767295 172 155 115
-0.37065387 0.71214712 1.7767295 177 161 121
-0.090946734 -0.47356802 1.78281 246 241 222
-0.12134969 -0.45532626 1.78281 251 245 226
-0.13351083 -0.44316506 1.78281 247 243 225
-0.12134969 -0.41276214 1.78281 225 217 199
-0.10310793 -0.40060094 1.78281 220 214 194
-0.097027302 -0.39452034 1.78281 214 208 188
-0.078785539 -0.38235918 1.78281 215 208 186
-0.52874923 -0.35803682 1.78281 226 224 201
-0.017979622 -0.32763386 1.78281 235 231 211
0.00026214123 -0.32155329 1.78281 237 233 213
0.024584532 -0.31547269 1.78281 237 233 215
-0.024060249 -0.19386089 1.78281 244 245 230
-0.017979622 -0.18778029 1.78281 244 244 230
-0.017979622 -0.18169969 1.78281 244 246 232
0.1583575 -0.047926724 1.78281 252 251 236
0.1887604 -0.017523766 1.78281 251 251 235
0.19484103 -0.011443168 1.78281 252 251 236
0.12795448 -0.0053625703 1.78281 251 250 235
0.067148566 0.079765677 1.78281 245 249 233
0.067148566 0.085846245 1.78281 245 249 233
0.091470957 0.091926873 1.78281 244 246 230
0.073229194 0.098007441 1.78281 245 247 230
0.22524393 0.1162492 1.78281 252 252 237
0.18267989 0.14057159 1.78281 246 247 231
0.10363221 0.16489393 1.78281 240 242 224
0.11579335 0.16489393 1.78281 242 242 224
0.35293639 0.20745808 1.78281 249 246 232
0.1887604 0.21353865 1.78281 248 250 236
0.19484103 0.22569984 1.78281 246 246 230
0.35293639 0.26218337 1.78281 245 240 226
0.37117815 0.26218337 1.78281 243 238 222
0.37117815 0.268264 1.78281 242 237 220
0.22524393 0.29866695 1.78281 227 222 201
0.22524393 0.30474752 1.78281 219 214 191
0.14011574 0.35947281 1.78281 162 150 117
0.4441452 0.36555344 1.78281 232 225 206
0.45022583 0.37163401 1.78281 231 224 205
0.4137423 0.40811753 1.78281 232 225 207
0.45022583 0.4263593 1.78281 230 223 205
0.45630634 0.4263593 1.78281 228 221 203
0.47454822 0.48716521 1.78281 227 218 201
0.45630634 0.57229352 1.78281 221 212 194
0.46238697 0.57837403 1.78281 218 209 191
-0.054463148 0.63309944 1.78281 142 150 103
-0.40713739 0.63917994 1.78281 152 140 95
-0.37065387 0.69998586 1.78281 181 161 121
-0.3645733 0.70606649 1.78281 185 165 125
-0.38889563 0.74863064 1.78281 176 171 122
-0.38281506 0.74863064 1.78281 177 171 123
0.13403511 0.74863064 1.78281 226 223 207
-0.14567202 -0.4310039 1.7888906 241 235 217
-0.13959146 -0.4249233 1.7888906 235 228 210
-0.12134969 -0.40668154 1.7888906 222 215 196
-0.060543776 -0.35803682 1.7888906 225 217 198
-0.054463148 -0.33979505 1.7888906 234 229 210
0.19484103 0.025040388 1.7888906 252 252 238
0.19484103 0.031120956 1.7888906 253 253 238
0.19484103 0.037201524 1.7888906 253 252 239
0.20092165 0.037201524 1.7888906 253 252 238
0.091470957 0.091926873 1.7888906 245 247 230
0.067148566 0.1162492 1.7888906 243 247 231
0.22524393 0.1162492 1.7888906 253 252 238
0.073229194 0.1284104 1.7888906 240 244 229
0.073229194 0.13449097 1.7888906 239 243 227
0.18267989 0.13449097 1.7888906 248 249 233
0.18267989 0.14057159 1.7888906 246 247 231
0.20092165 0.14057159 1.7888906 249 249 233
0.079309821 0.14665216 1.7888906 237 241 226
0.20700216 0.14665216 1.7888906 251 251 235
0.079309821 0.15273273 1.7888906 236 237 222
0.27996933 0.19529688 1.7888906 248 247 233
0.32253337 0.21353865 1.7888906 250 248 234
0.35901701 0.21353865 1.7888906 247 245 231
0.20092165 0.21961927 1.7888906 248 249 234
0.10971272 0.27434456 1.7888906 148 185 111
0.22524393 0.29866695 1.7888906 228 224 205
-0.030140758 0.31690872 1.7888906 185 163 115
-0.13959146 0.32298928 1.7888906 151 125 88
0.048906803 0.33515048 1.7888906 160 188 121
0.067148566 0.33515048 1.7888906 153 179 113
0.085390449 0.33515048 1.7888906 151 174 109
0.048906803 0.34123105 1.7888906 149 178 111
0.1887604 0.37163401 1.7888906 189 177 145
0.4137423 0.41419816 1.7888906 233 226 208
0.41982281 0.42027873 1.7888906 232 224 207
0.45630634 0.43243992 1.7888906 228 221 203
0.46238697 0.44460106 1.7888906 229 220 203
0.43198407 0.49932635 1.7888906 227 218 201
0.43198407 0.54797113 1.7888906 223 216 197
0.43198407 0.55405176 1.7888906 222 215 196
-0.80237579 0.59053528 1.7888906 171 147 106
-0.89966524 0.6513412 1.7888906 171 147 106
-0.38281506 0.65742171 1.7888906 176 154 110
0.21308279 0.67566347 1.7888906 226 221 204
-0.13351083 -0.41276214 1.7949712 226 218 200
-0.066624343 -0.37019801 1.7949712 215 208 189
-0.54091036 -0.35803682 1.7949712 226 224 201
-0.011898994 -0.32155329 1.7949712 236 232 212
-0.030140758 -0.18778029 1.7949712 244 244 231
-0.030140758 -0.18169969 1.7949712 244 246 232
-0.024060249 -0.16953853 1.7949712 248 246 230
0.15227687 -0.041846126 1.7949712 252 251 236
0.15227687 -0.035765529 1.7949712 252 252 236
0.18267989 -0.017523766 1.7949712 252 251 236
0.12187397 0.061523914 1.7949712 249 250 235
0.12187397 0.067604482 1.7949712 249 250 235
0.17659926 0.067604482 1.7949712 251 251 236
0.054987431 0.07368511 1.7949712 246 250 234
0.054987431 0.079765677 1.7949712 245 249 233
0.18267989 0.079765677 1.7949712 250 250 235
0.061068058 0.091926873 1.7949712 245 249 233
0.061068058 0.098007441 1.7949712 246 248 232
0.067148566 0.10408807 1.7949712 244 246 229
0.21916342 0.12232983 1.7949712 254 253 239
0.20700216 0.13449097 1.7949712 252 252 237
0.20700216 0.14057159 1.7949712 252 251 237
0.27996933 0.20137751 1.7949712 249 247 232
0.328614 0.21961927 1.7949712 247 245 231
0.35901701 0.21961927 1.7949712 248 244 231
0.34685576 0.268264 1.7949712 245 240 225
0.36509752 0.268264 1.7949712 244 239 222
-0.13959146 0.31690872 1.7949712 173 147 110
-0.13351083 0.31690872 1.7949712 168 143 105
0.048906803 0.32906985 1.7949712 130 160 92
0.048906803 0.33515048 1.7949712 159 187 120
0.067148566 0.33515048 1.7949712 154 183 116
0.048906803 0.34123105 1.7949712 151 179 112
0.054987431 0.34123105 1.7949712 154 181 115
0.085390449 0.34123105 1.7949712 150 169 106
0.12795448 0.35339224 1.7949712 165 156 114
0.12795448 0.35947281 1.7949712 170 161 120
0.13403511 0.36555344 1.7949712 163 151 116
0.1887604 0.36555344 1.7949712 172 162 133
0.13403511 0.37163401 1.7949712 166 153 120
0.1887604 0.37163401 1.7949712 174 164 135
0.43806458 0.37163401 1.7949712 233 225 207
0.1887604 0.37771457 1.7949712 177 166 135
0.35293639 0.3837952 1.7949712 239 232 213
0.46846759 0.48716521 1.7949712 224 215 197
0.45022583 0.57837403 1.7949712 220 211 193
-0.89966524 0.6513412 1.7949712 176 152 111
-0.41929859 0.6513412 1.7949712 157 145 100
-0.89966524 0.65742171 1.7949712 173 149 107
-0.89358461 0.65742171 1.7949712 179 154 113
-0.15783322 -0.4370845 1.8010519 244 240 221
-0.15175259 -0.4249233 1.8010519 235 228 210
-0.88750404 -0.41884273 1.8010519 220 215 197
-0.12743026 -0.40668154 1.8010519 221 213 194
-0.10310793 -0.39452034 1.8010519 216 210 188
-0.066624343 -0.34587562 1.8010519 233 228 209
0.012423277 -0.31547269 1.8010519 238 234 215
-0.036221385 -0.21210265 1.8010519 247 245 229
0.073229194 -0.023604363 1.8010519 252 252 236
0.14619625 0.025040388 1.8010519 252 251 237
0.21916342 0.1162492 1.8010519 254 253 239
0.061068058 0.12232983 1.8010519 244 247 231
0.061068058 0.1284104 1.8010519 242 246 230
0.067148566 0.13449097 1.8010519 240 244 229
0.20700216 0.13449097 1.8010519 253 253 238
0.067148566 0.14057159 1.8010519 239 244 228
0.067148566 0.14665216 1.8010519 238 242 226
0.19484103 0.19529688 1.8010519 249 250 235
0.31037223 0.21353865 1.8010519 250 248 234
0.34685576 0.21353865 1.8010519 249 247 233
0.048906803 0.32298928 1.8010519 161 191 122
-0.14567202 0.32906985 1.8010519 168 143 105
0.048906803 0.32906985 1.8010519 151 179 112
-0.12743026 0.33515048 1.8010519 169 143 106
0.054987431 0.33515048 1.8010519 144 171 105
0.40158105 0.41419816 1.8010519 232 224 207
0.40766168 0.42027873 1.8010519 233 226 208
0.45022583 0.43852049 1.8010519 229 221 204
0.45630634 0.46284288 1.8010519 227 218 201
0.46238697 0.46892345 1.8010519 227 218 201
0.42590344 0.50540698 1.8010519 227 220 202
0.43198407 0.56621289 1.8010519 224 215 197
-0.89358461 0.66350234 1.8010519 176 151 110
-0.14567202 -0.45532626 1.8071325 250 245 227
-0.10310793 -0.38843977 1.8071325 219 213 192
-0.097027302 -0.38235918 1.8071325 213 206 185
-0.078785539 -0.37019801 1.8071325 215 207 188
-0.066624343 -0.33979505 1.8071325 234 229 210
-0.042302012 -0.19386089 1.8071325 246 245 232
-0.036221385 -0.17561913 1.8071325 245 246 233
0.073229194 -0.035765529 1.8071325 250 250 234
0.073229194 -0.029684961 1.8071325 250 250 234
0.079309821 -0.023604363 1.8071325 250 250 234
0.17051864 -0.017523766 1.8071325 251 250 235
0.12795448 0.061523914 1.8071325 250 249 234
0.16443813 0.067604482 1.8071325 251 251 236
0.17051864 0.07368511 1.8071325 251 251 236
0.048906803 0.079765677 1.8071325 246 250 235
0.048906803 0.085846245 1.8071325 245 249 233
0.048906803 0.091926873 1.8071325 245 249 233
0.054987431 0.098007441 1.8071325 246 249 233
0.054987431 0.10408807 1.8071325 245 247 231
0.21916342 0.1162492 1.8071325 253 254 240
0.20700216 0.13449097 1.8071325 253 252 238
0.20092165 0.15273273 1.8071325 252 252 237
0.27388871 0.20745808 1.8071325 249 247 233
0.1887604 0.21961927 1.8071325 248 249 234
0.31645286 0.21961927 1.8071325 249 247 233
0.19484103 0.22569984 1.8071325 250 251 236
0.19484103 0.23178041 1.8071325 249 250 235
0.19484103 0.23786104 1.8071325 248 249 234
0.048906803 0.32298928 1.8071325 174 204 135
0.054987431 0.32906985 1.8071325 153 181 114
0.054987431 0.33515048 1.8071325 145 173 107
0.11579335 0.35339224 1.8071325 147 137 94
0.12187397 0.35947281 1.8071325 171 161 120
0.12187397 0.36555344 1.8071325 174 164 124
0.18267989 0.37771457 1.8071325 171 161 131
0.43198407 0.37771457 1.8071325 232 225 206
0.34685576 0.38987577 1.8071325 239 231 213
0.43198407 0.43243992 1.8071325 230 222 205
0.46846759 0.51756823 1.8071325 224 215 197
-0.9057458 0.65742171 1.8071325 192 167 126
-0.9057458 0.66350234 1.8071325 179 155 113
-0.43754035 0.66958296 1.8071325 158 149 103
-0.89966524 0.67566347 1.8071325 182 157 116
-0.15783322 -0.44924566 1.813213 246 242 223
-0.097027302 -0.38235918 1.813213 213 206 184
0.073229194 -0.035765529 1.813213 249 249 233
0.079309821 -0.029684961 1.813213 250 250 234
0.17051864 -0.017523766 1.813213 251 251 235
0.10971272 0.00071799755 1.813213 250 250 234
0.13403511 0.018959761 1.813213 251 251 236
0.14011574 0.031120956 1.813213 252 251 236
0.11579335 0.061523914 1.813213 250 250 234
0.12795448 0.061523914 1.813213 250 249 234
0.11579335 0.067604482 1.813213 249 250 235
0.11579335 0.07368511 1.813213 250 251 236
0.12187397 0.079765677 1.813213 249 250 235
0.12187397 0.085846245 1.813213 249 250 234
0.054987431 0.13449097 1.813213 242 245 230
0.20092165 0.14057159 1.813213 253 253 238
0.20092165 0.14665216 1.813213 253 252 238
0.061068058 0.15273273 1.813213 238 241 226
0.061068058 0.15881336 1.813213 238 240 225
0.19484103 0.17097455 1.813213 251 252 237
0.067148566 0.17705512 1.813213 238 241 226
0.1887604 0.20137751 1.813213 250 251 236
0.1887604 0.21353865 1.813213 249 250 235
0.2982111 0.21353865 1.813213 250 249 235
0.35901701 0.28042513 1.813213 243 238 221
0.41982281 0.43852049 1.813213 230 223 205
0.43806458 0.44460106 1.813213 230 223 205
0.4441452 0.44460106 1.813213 229 222 204
0.45630634 0.47500402 1.813213 227 218 201
0.46238697 0.49932635 1.813213 225 216 198
0.46238697 0.50540698 1.813213 225 216 198
0.4441452 0.59661579 1.813213 221 212 194
-0.9057458 0.65742171 1.813213 194 169 128
-0.9057458 0.66350234 1.813213 175 150 109
-0.89966524 0.66350234 1.813213 171 147 105
-0.89966524 0.66958296 1.813213 164 140 98
-0.89966524 0.67566347 1.813213 169 144 103
-0.12743026 -0.47356802 1.8192935 246 240 221
-0.15783322 -0.45532626 1.8192935 250 244 228
-0.91182637 -0.41884273 1.8192935 221 216 197
-0.15783322 -0.41884273 1.8192935 228 220 203
-0.13959146 -0.40668154 1.8192935 220 213 192
-0.1091885 -0.38843977 1.8192935 216 209 188
-0.090946734 -0.37627858 1.8192935 214 206 186
-0.084866107 -0.37019801 1.8192935 215 207 188
-0.084866107 -0.36411741 1.8192935 221 214 195
-0.084866107 -0.35803682 1.8192935 224 217 199
-0.078785539 -0.33979505 1.8192935 234 229 210
-0.072704971 -0.33371446 1.8192935 236 231 212
-0.030140758 -0.32155329 1.8192935 236 232 212
-0.011898994 -0.32155329 1.8192935 237 231 212
-0.04838264 -0.18778029 1.8192935 244 244 231
-0.042302012 -0.16953853 1.8192935 248 246 231
0.073229194 -0.047926724 1.8192935 250 249 235
0.073229194 -0.041846126 1.8192935 250 249 235
0.13403511 -0.035765529 1.8192935 252 251 236
0.17659926 0.037201524 1.8192935 253 253 238
0.18267989 0.043282151 1.8192935 253 252 238
0.11579335 0.067604482 1.8192935 249 249 233
0.12187397 0.067604482 1.8192935 249 249 233
0.12187397 0.07368511 1.8192935 250 249 234
0.12187397 0.079765677 1.8192935 250 249 234
0.042826295 0.091926873 1.8192935 245 249 233
0.042826295 0.098007441 1.8192935 245 249 233
0.048906803 0.11016864 1.8192935 244 246 229
0.048906803 0.12232983 1.8192935 244 246 231
0.21308279 0.12232983 1.8192935 252 253 239
0.19484103 0.16489393 1.8192935 253 252 237
0.19484103 0.17097455 1.8192935 251 252 237
0.073229194 0.17705512 1.8192935 242 243 229
0.19484103 0.17705512 1.8192935 250 251 236
0.1887604 0.19529688 1.8192935 251 252 237
0.26780808 0.21353865 1.8192935 250 248 234
0.042826295 0.32906985 1.8192935 174 203 136
0.14619625 0.42027873 1.8192935 174 159 121
0.15227687 0.4263593 1.8192935 179 164 128
0.40158105 0.43243992 1.8192935 232 224 207
0.1583575 0.43852049 1.8192935 171 156 122
0.40766168 0.43852049 1.8192935 231 223 206
0.4441452 0.45068169 1.8192935 228 221 203
0.45022583 0.45676225 1.8192935 228 221 203
0.45022583 0.46284288 1.8192935 229 220 203
0.41982281 0.57229352 1.8192935 223 216 197
0.42590344 0.58445466 1.8192935 222 213 195
-0.89966524 0.65742171 1.8192935 178 155 113
-0.89966524 0.66350234 1.8192935 166 143 101
-0.89966524 0.66958296 1.8192935 165 140 99
-0.89358461 0.66958296 1.8192935 173 150 108
-0.89358461 0.67566347 1.8192935 163 138 98
-0.17607498 -0.4310039 1.8253741 239 233 214
-0.15175259 -0.41276214 1.8253741 223 216 196
-0.12743026 -0.39452034 1.8253741 216 210 189
-0.1091885 -0.38235918 1.8253741 213 206 184
-0.072704971 -0.33371446 1.8253741 236 231 212
-0.054463148 -0.21210265 1.8253741 247 244 228
-0.054463148 -0.20602205 1.8253741 246 245 228
0.067148566 -0.023604363 1.8253741 250 250 234
0.12187397 0.07368511 1.8253741 250 249 234
0.12795448 0.07368511 1.8253741 250 250 234
0.036745667 0.085846245 1.8253741 247 250 235
0.048906803 0.14665216 1.8253741 240 244 229
0.19484103 0.15273273 1.8253741 254 253 239
0.054987431 0.16489393 1.8253741 237 241 226
0.054987431 0.17097455 1.8253741 239 240 225
0.18267989 0.21353865 1.8253741 251 252 237
0.18267989 0.21961927 1.8253741 250 251 236
0.26780808 0.21961927 1.8253741 249 247 233
0.29213047 0.21961927 1.8253741 250 249 235
0.18267989 0.22569984 1.8253741 249 250 235
0.27388871 0.22569984 1.8253741 250 248 234
0.31037223 0.23178041 1.8253741 248 246 232
0.1887604 0.24394161 1.8253741 248 249 234
0.35293639 0.28650576 1.8253741 243 238 220
-0.14567202 0.34731162 1.8253741 169 144 106
0.4137423 0.44460106 1.8253741 230 223 205
0.45630634 0.50540698 1.8253741 224 215 197
0.45630634 0.5114876 1.8253741 225 216 198
0.46238697 0.52364874 1.8253741 224 215 197
0.46238697 0.52972937 1.8253741 224 215 197
-0.18215555 0.56621289 1.8253741 160 166 111
-0.18215555 0.57229352 1.8253741 151 157 102
0.43198407 0.59053528 1.8253741 222 213 195
0.43806458 0.59661579 1.8253741 220 211 193
0.43806458 0.60269642 1.8253741 220 211 193
0.4441452 0.60877705 1.8253741 219 210 192
-0.89966524 0.65742171 1.8253741 184 161 119
-0.89358461 0.66350234 1.8253741 168 145 103
-0.89358461 0.66958296 1.8253741 174 150 109
-0.89358461 0.67566347 1.8253741 174 150 109
-0.15175259 -0.46748745 1.8314548 249 241 224
-0.18215555 -0.44316506 1.8314548 245 240 224
-0.17607498 -0.4249233 1.8314548 234 226 209
-0.10310793 -0.38235918 1.8314548 211 204 182
-0.097027302 -0.37019801 1.8314548 214 207 188
-0.090946734 -0.34587562 1.8314548 232 227 208
-0.084866107 -0.33979505 1.8314548 234 229 212
-0.042302012 -0.32155329 1.8314548 236 232 212
-0.054463148 -0.16953853 1.8314548 247 246 232
0.067148566 -0.041846126 1.8314548 250 250 235
0.067148566 -0.035765529 1.8314548 250 250 234
0.067148566 -0.029684961 1.8314548 250 250 234
0.12187397 0.018959761 1.8314548 251 251 236
0.12795448 0.018959761 1.8314548 251 251 235
0.12795448 0.025040388 1.8314548 251 250 235
0.12795448 0.031120956 1.8314548 251 250 236
0.16443813 0.031120956 1.8314548 252 252 237
0.12795448 0.067604482 1.8314548 251 251 235
0.11579335 0.085846245 1.8314548 250 249 234
0.11579335 0.091926873 1.8314548 250 249 234
0.036745667 0.11016864 1.8314548 245 247 231
0.042826295 0.1284104 1.8314548 244 247 231
0.042826295 0.13449097 1.8314548 244 246 231
0.1887604 0.14665216 1.8314548 254 253 239
0.1887604 0.17705512 1.8314548 251 252 237
0.061068058 0.18313569 1.8314548 242 243 229
0.1887604 0.18313569 1.8314548 251 252 237
0.2982111 0.22569984 1.8314548 250 248 234
0.16443813 0.38987577 1.8314548 179 166 136
0.43198407 0.3959564 1.8314548 230 223 205
0.14011574 0.4263593 1.8314548 176 162 125
0.14619625 0.43243992 1.8314548 181 166 132
0.39550054 0.43852049 1.8314548 231 224 206
0.43806458 0.45676225 1.8314548 230 223 205
0.4441452 0.46284288 1.8314548 229 221 204
0.4137423 0.52364874 1.8314548 229 220 203
0.4137423 0.57837403 1.8314548 223 216 197
0.41982281 0.59053528 1.8314548 223 214 196
-0.94222933 0.66958296 1.8314548 163 139 99
-0.89358461 0.66958296 1.8314548 174 150 109
-0.51658803 -0.49789038 1.8375354 178 168 138
-0.16391379 -0.41276214 1.8375354 224 216 197
-0.11526906 -0.38235918 1.8375354 214 207 185
-0.59563571 -0.36411741 1.8375354 227 225 200
-0.066624343 -0.20602205 1.8375354 247 244 228
-0.060543776 -0.18169969 1.8375354 245 245 232
0.12795448 0.025040388 1.8375354 251 250 235
0.13403511 0.031120956 1.8375354 251 250 236
0.12795448 0.061523914 1.8375354 252 252 237
0.12795448 0.067604482 1.8375354 252 251 236
0.12795448 0.07368511 1.8375354 252 251 236
0.13403511 0.07368511 1.8375354 252 251 237
0.11579335 0.085846245 1.8375354 250 250 234
0.12187397 0.085846245 1.8375354 251 250 235
0.03066504 0.091926873 1.8375354 246 249 234
0.03066504 0.098007441 1.8375354 245 249 233
0.042826295 0.1284104 1.8375354 245 246 230
0.042826295 0.15881336 1.8375354 239 243 227
0.048906803 0.18313569 1.8375354 240 242 226
0.067148566 0.18313569 1.8375354 242 244 228
0.26172745 0.22569984 1.8375354 250 248 234
0.2982111 0.23178041 1.8375354 250 248 234
0.18267989 0.24394161 1.8375354 251 252 237
0.18267989 0.25002217 1.8375354 249 250 235
-0.15175259 0.34731162 1.8375354 168 143 102
0.328614 0.40203696 1.8375354 239 231 213
0.33469462 0.41419816 1.8375354 237 230 211
0.14619625 0.43852049 1.8375354 186 170 136
0.40158105 0.45068169 1.8375354 231 224 205
0.41982281 0.45068169 1.8375354 230 223 205
0.45630634 0.53580999 1.8375354 225 215 198
0.42590344 0.59661579 1.8375354 222 213 195
-0.9057458 0.66350234 1.8375354 170 147 105
-0.9057458 0.66958296 1.8375354 176 152 111
-0.94222933 0.70606649 1.8375354 169 146 106
-0.35849267 -0.49789038 1.843616 207 197 176
-0.15175259 -0.47356802 1.843616 248 241 221
-0.82669812 -0.46140686 1.843616 192 183 157
-0.82061756 -0.46140686 1.843616 191 181 155
-0.15783322 -0.40668154 1.843616 220 214 194
-0.13959146 -0.39452034 1.843616 219 213 192
-0.13351083 -0.39452034 1.843616 217 210 189
-0.1091885 -0.37627858 1.843616 213 206 186
-0.10310793 -0.35803682 1.843616 224 217 199
-0.10310793 -0.35195622 1.843616 230 224 205
-0.097027302 -0.33979505 1.843616 233 229 211
-0.024060249 -0.060087889 1.843616 250 250 235
0.054987431 -0.047926724 1.843616 250 250 236
-0.011898994 -0.023604363 1.843616 250 252 237
0.15227687 -0.011443168 1.843616 252 251 237
0.1583575 -0.011443168 1.843616 251 251 235
0.12187397 0.037201524 1.843616 251 251 235
0.1583575 0.037201524 1.843616 253 252 238
0.12187397 0.043282151 1.843616 251 251 235
0.12795448 0.061523914 1.843616 252 252 237
0.13403511 0.067604482 1.843616 252 252 237
0.13403511 0.07368511 1.843616 252 252 237
0.12187397 0.079765677 1.843616 252 251 236
0.12187397 0.085846245 1.843616 250 250 234
0.036745667 0.14057159 1.843616 243 246 230
0.036745667 0.14665216 1.843616 242 245 229
0.18267989 0.15273273 1.843616 254 254 239
0.18267989 0.15881336 1.843616 253 253 239
0.18267989 0.19529688 1.843616 250 251 236
0.17051864 0.21961927 1.843616 252 253 238
0.27996933 0.22569984 1.843616 250 248 234
0.34077513 0.28650576 1.843616 244 239 222
0.38941991 0.44460106 1.843616 231 223 205
0.40766168 0.45676225 1.843616 229 221 204
0.42590344 0.45676225 1.843616 228 221 203
0.43198407 0.46284288 1.843616 230 222 205
0.4441452 0.49324584 1.843616 227 218 201
0.45022583 0.52364874 1.843616 224 215 197
0.40766168 0.53580999 1.843616 227 220 202
0.43198407 0.61485755 1.843616 219 210 192
0.43806458 0.62093818 1.843616 219 210 192
-0.88750404 0.65742171 1.843616 182 157 114
-0.93614876 0.66350234 1.843616 176 154 114
-0.93614876 0.66958296 1.843616 170 148 106
-0.19431674 -0.44924566 1.8496965 244 242 224
-0.20039737 -0.4370845 1.8496965 243 237 218
-0.15175259 -0.40060094 1.8496965 215 209 188
-0.13351083 -0.38843977 1.8496965 213 206 185
-0.12743026 -0.38235918 1.8496965 214 207 186
-0.60779691 -0.37019801 1.8496965 227 225 201
-0.60779691 -0.36411741 1.8496965 227 225 201
-0.072704971 -0.32763386 1.8496965 235 230 212
-0.078785539 -0.21210265 1.8496965 246 243 227
-0.072704971 -0.18778029 1.8496965 245 245 232
0.11579335 0.018959761 1.8496965 250 250 234
0.12187397 0.025040388 1.8496965 250 250 234
0.12187397 0.031120956 1.8496965 250 250 234
0.024584532 0.098007441 1.8496965 245 249 233
0.024584532 0.10408807 1.8496965 245 249 234
0.15227687 0.10408807 1.8496965 250 250 235
0.024584532 0.11016864 1.8496965 246 249 233
0.03066504 0.11016864 1.8496965 247 249 232
0.03066504 0.1162492 1.8496965 246 247 230
0.18267989 0.18313569 1.8496965 253 254 239
0.29213047 0.23786104 1.8496965 250 248 234
0.024584532 0.34123105 1.8496965 149 179 110
0.03066504 0.34123105 1.8496965 155 184 114
-0.16391379 0.35339224 1.8496965 174 149 108
-0.16391379 0.35947281 1.8496965 166 141 100
0.32253337 0.40811753 1.8496965 239 231 213
0.328614 0.42027873 1.8496965 238 230 212
0.13403511 0.43852049 1.8496965 171 157 125
0.14011574 0.45068169 1.8496965 172 157 126
0.39550054 0.45676225 1.8496965 231 223 205
0.43198407 0.46892345 1.8496965 229 222 204
0.43806458 0.47500402 1.8496965 228 221 203
0.43806458 0.48108464 1.8496965 229 220 203
-0.090946734 0.49324584 1.8496965 145 175 113
0.40766168 0.53580999 1.8496965 229 220 203
-0.9057458 0.65742171 1.8496965 161 136 95
-0.89966524 0.65742171 1.8496965 166 141 100
-0.93614876 0.66958296 1.8496965 163 141 100
-0.95439053 0.70606649 1.8496965 169 144 104
-0.95439053 0.71214712 1.8496965 171 147 107
-0.45578212 0.71214712 1.8496965 173 155 110
-0.54699099 -0.50397098 1.8557771 181 171 141
-0.37065387 -0.49789038 1.8557771 207 198 178
-0.17607498 -0.46748745 1.8557771 250 242 225
-0.20039737 -0.4310039 1.8557771 236 229 211
-0.19431674 -0.4249233 1.8557771 232 224 207
-0.1091885 -0.34587562 1.8557771 233 228 209
-0.27336442 -0.24858618 1.8557771 166 135 100
-0.26728386 -0.24250561 1.8557771 163 135 98
-0.036221385 -0.060087889 1.8557771 250 250 235
-0.024060249 -0.023604363 1.8557771 251 251 236
0.12795448 0.079765677 1.8557771 252 251 237
0.03066504 0.11016864 1.8557771 245 247 231
0.024584532 0.14057159 1.8557771 244 247 231
0.03066504 0.15273273 1.8557771 242 244 229
0.03066504 0.15881336 1.8557771 240 245 229
0.03066504 0.16489393 1.8557771 240 244 228
0.17659926 0.17097455 1.8557771 254 253 238
0.17659926 0.20137751 1.8557771 251 252 237
0.16443813 0.21961927 1.8557771 252 253 238
0.16443813 0.22569984 1.8557771 252 253 238
0.16443813 0.23178041 1.8557771 251 252 237
0.17051864 0.24394161 1.8557771 253 253 239
0.2982111 0.24394161 1.8557771 248 246 232
-0.23080027 0.2561028 1.8557771 147 123 88
-0.23080027 0.26218337 1.8557771 145 121 86
0.31645286 0.29258633 1.8557771 245 240 225
0.33469462 0.29258633 1.8557771 244 239 222
0.34077513 0.30474752 1.8557771 243 238 221
-0.17607498 0.31082809 1.8557771 154 125 90
-0.16391379 0.35339224 1.8557771 172 147 104
0.40158105 0.46284288 1.8557771 230 222 205
0.41982281 0.46284288 1.8557771 228 221 203
-0.084866107 0.49324584 1.8557771 137 167 106
0.4441452 0.52364874 1.8557771 224 215 197
-0.23080027 0.57837403 1.8557771 163 167 113
-0.21255851 0.58445466 1.8557771 163 168 113
0.42590344 0.62093818 1.8557771 220 211 193
0.43198407 0.62701881 1.8557771 219 210 192
-0.93614876 0.69390523 1.8557771 176 153 111
-0.96047109 0.72430825 1.8557771 162 140 100
-0.15783322 -0.47964862 1.8618577 246 240 218
-0.18823618 -0.46140686 1.8618577 250 243 226
-0.16999441 -0.40668154 1.8618577 219 214 193
-0.1091885 -0.33979505 1.8618577 234 229 211
-0.26728386 -0.24250561 1.8618577 175 147 113
-0.084866107 -0.18778029 1.8618577 245 245 231
-0.078785539 -0.17561913 1.8618577 244 245 232
0.048906803 -0.041846126 1.8618577 250 250 235
0.048906803 -0.029684961 1.8618577 250 250 234
0.14619625 0.031120956 1.8618577 250 250 236
0.14619625 0.037201524 1.8618577 251 251 236
0.15227687 0.049362719 1.8618577 253 253 238
0.1583575 0.055443287 1.8618577 252 252 237
0.1583575 0.061523914 1.8618577 252 252 236
0.13403511 0.091926873 1.8618577 251 250 236
0.13403511 0.098007441 1.8618577 250 249 235
0.14011574 0.10408807 1.8618577 250 250 235
0.018503904 0.11016864 1.8618577 245 248 233
0.024584532 0.13449097 1.8618577 246 247 231
0.17659926 0.15881336 1.8618577 254 253 239
0.048906803 0.18921632 1.8618577 241 244 228
0.16443813 0.21353865 1.8618577 253 253 239
0.27996933 0.23786104 1.8618577 250 248 234
-0.23080027 0.25002217 1.8618577 149 126 89
-0.23080027 0.2561028 1.8618577 144 120 84
-0.23080027 0.26218337 1.8618577 154 130 94
-0.17607498 0.31082809 1.8618577 147 118 82
-0.16999441 0.31690872 1.8618577 180 154 114
-0.16999441 0.35947281 1.8618577 164 139 97
0.14619625 0.40203696 1.8618577 170 159 130
0.31645286 0.41419816 1.8618577 239 231 213
0.12795448 0.45068169 1.8618577 184 170 140
0.38333929 0.45676225 1.8618577 230 223 204
0.42590344 0.47500402 1.8618577 229 222 204
0.43198407 0.48108464 1.8618577 228 221 203
0.43806458 0.50540698 1.8618577 227 218 201
0.40158105 0.5418905 1.8618577 229 220 203
-0.23080027 0.57837403 1.8618577 157 161 106
-0.23080027 0.58445466 1.8618577 160 166 110
-0.2247197 0.58445466 1.8618577 161 165 110
-0.2247197 0.59053528 1.8618577 152 156 102
-0.20647794 0.59053528 1.8618577 150 157 104
-0.20647794 0.59661579 1.8618577 148 156 101
0.40158105 0.59661579 1.8618577 223 216 197
0.40158105 0.60269642 1.8618577 223 216 197
-0.47402388 0.69390523 1.8618577 178 158 115
-0.94830996 0.71214712 1.8618577 169 147 105
-0.5226686 -0.44924566 1.8679383 196 187 160
-0.21255851 -0.4310039 1.8679383 237 230 212
-0.63211924 -0.37019801 1.8679383 227 225 201
-0.27944499 -0.24858618 1.8679383 175 145 110
-0.036221385 -0.029684961 1.8679383 250 250 236
0.097551584 -0.017523766 1.8679383 251 251 235
0.097551584 -0.011443168 1.8679383 251 251 235
0.10971272 0.025040388 1.8679383 251 250 235
0.14619625 0.025040388 1.8679383 251 251 237
0.14011574 0.10408807 1.8679383 251 250 236
0.14619625 0.11016864 1.8679383 250 250 236
0.018503904 0.14665216 1.8679383 244 246 231
0.024584532 0.16489393 1.8679383 239 244 228
0.024584532 0.17705512 1.8679383 238 241 226
0.17051864 0.17705512 1.8679383 254 253 238
0.17051864 0.18313569 1.8679383 254 253 238
0.03066504 0.18921632 1.8679383 241 243 228
0.048906803 0.18921632 1.8679383 241 245 227
0.16443813 0.21353865 1.8679383 252 253 238
0.1583575 0.23178041 1.8679383 252 252 238
0.1583575 0.23786104 1.8679383 251 252 237
0.1583575 0.24394161 1.8679383 251 252 237
0.28604984 0.24394161 1.8679383 249 247 233
0.16443813 0.25002217 1.8679383 253 253 239
0.16443813 0.2561028 1.8679383 252 253 238
0.31037223 0.29866695 1.8679383 245 240 224
0.32253337 0.29866695 1.8679383 246 241 225
0.328614 0.29866695 1.8679383 244 239 220
-0.18215555 0.32298928 1.8679383 176 150 111
0.14011574 0.42027873 1.8679383 167 154 122
0.35293639 0.46284288 1.8679383 233 225 208
0.38941991 0.46892345 1.8679383 231 223 206
-0.2247197 0.57837403 1.8679383 152 158 104
-0.20647794 0.57837403 1.8679383 152 159 107
-0.2247197 0.58445466 1.8679383 160 164 112
-0.20647794 0.58445466 1.8679383 158 166 114
-0.2247197 0.59053528 1.8679383 163 167 113
-0.21863914 0.59053528 1.8679383 169 174 122
-0.20647794 0.59053528 1.8679383 153 161 108
0.41982281 0.62701881 1.8679383 220 211 193
-0.97263229 0.67566347 1.8679383 185 163 123
-0.95439053 0.6817441 1.8679383 180 156 114
-0.95439053 0.68782473 1.8679383 183 159 117
-0.94830996 0.69998586 1.8679383 179 156 114
-0.95439053 0.72430825 1.8679383 181 159 117
-0.97263229 0.73646939 1.8679383 173 149 110
-0.55915213 -0.50397098 1.8740189 179 169 137
-0.55307156 -0.49180979 1.8740189 188 179 148
-0.15175259 -0.38843977 1.8740189 211 204 183
-0.13351083 -0.37627858 1.8740189 212 205 185
-0.12743026 -0.35803682 1.8740189 226 219 201
-0.11526906 -0.33371446 1.8740189 236 231 213
-0.090946734 -0.32763386 1.8740189 236 231 213
-0.10310793 -0.21818325 1.8740189 244 242 225
-0.097027302 -0.20602205 1.8740189 247 245 229
-0.097027302 -0.19994146 1.8740189 247 245 230
-0.097027302 -0.19386089 1.8740189 246 245 231
-0.090946734 -0.17561913 1.8740189 243 245 231
-0.084866107 -0.16345793 1.8740189 248 247 231
0.042826295 -0.029684961 1.8740189 250 250 234
0.14011574 0.037201524 1.8740189 251 250 237
0.14011574 0.043282151 1.8740189 251 251 236
0.14619625 0.055443287 1.8740189 253 253 238
0.15227687 0.067604482 1.8740189 252 252 236
0.12187397 0.085846245 1.8740189 250 250 235
0.17051864 0.16489393 1.8740189 254 253 239
0.17051864 0.17097455 1.8740189 253 253 239
0.17051864 0.17705512 1.8740189 253 253 238
0.27388871 0.24394161 1.8740189 250 248 234
0.31037223 0.30474752 1.8740189 246 241 225
0.328614 0.30474752 1.8740189 243 238 219
-0.18215555 0.31082809 1.8740189 151 122 86
-0.18215555 0.31690872 1.8740189 161 135 95
0.14011574 0.40811753 1.8740189 170 158 129
0.14011574 0.41419816 1.8740189 183 170 140
0.14011574 0.42027873 1.8740189 177 165 134
0.14619625 0.42027873 1.8740189 173 161 132
0.12187397 0.45676225 1.8740189 185 172 139
0.37117815 0.45676225 1.8740189 230 222 204
0.12187397 0.46284288 1.8740189 178 163 132
0.43198407 0.5114876 1.8740189 227 218 201
0.43806458 0.52972937 1.8740189 224 215 197
0.43806458 0.53580999 1.8740189 225 216 198
0.43806458 0.5418905 1.8740189 224 215 197
-0.2247197 0.57837403 1.8740189 150 155 103
-0.20647794 0.57837403 1.8740189 145 153 103
-0.2247197 0.58445466 1.8740189 167 171 119
-0.21863914 0.58445466 1.8740189 153 159 107
-0.20647794 0.58445466 1.8740189 156 163 111
-0.21863914 0.59053528 1.8740189 161 168 115
0.39550054 0.60877705 1.8740189 223 216 197
0.41982281 0.63309944 1.8740189 219 210 192
-0.94222933 0.66350234 1.8740189 168 144 104
-0.93614876 0.66958296 1.8740189 178 153 113
-0.97263229 0.6817441 1.8740189 181 158 118
-0.96655172 0.6817441 1.8740189 174 151 111
-0.88142347 -0.46748745 1.8800995 192 183 158
-0.20039737 -0.46748745 1.8800995 250 244 227
-0.5348298 -0.44924566 1.8800995 197 189 164
-0.2247197 -0.4370845 1.8800995 239 233 215
-0.21863914 -0.4310039 1.8800995 235 227 209
-0.19431674 -0.41276214 1.8800995 221 214 192
-0.17607498 -0.40060094 1.8800995 216 210 189
-0.090946734 -0.32763386 1.8800995 235 231 212
-0.1091885 -0.23034441 1.8800995 243 240 222
-0.10310793 -0.21210265 1.8800995 245 243 227
-0.04838264 -0.029684961 1.8800995 250 250 236
0.091470957 -0.0053625703 1.8800995 251 250 235
0.091470957 0.00071799755 1.8800995 251 250 235
0.091470957 0.006798625 1.8800995 251 251 235
0.14011574 0.037201524 1.8800995 250 250 236
0.12795448 0.10408807 1.8800995 251 250 236
0.13403511 0.10408807 1.8800995 251 250 236
0.0063427687 0.14665216 1.8800995 245 248 232
0.012423277 0.15881336 1.8800995 242 244 229
0.012423277 0.16489393 1.8800995 239 243 228
0.018503904 0.18313569 1.8800995 237 240 225
0.018503904 0.18921632 1.8800995 240 241 226
0.024584532 0.18921632 1.8800995 240 242 228
0.16443813 0.18921632 1.8800995 253 254 239
0.23132455 0.23178041 1.8800995 250 248 234
0.27996933 0.25002217 1.8800995 249 247 233
0.1583575 0.26218337 1.8800995 251 252 237
-0.18215555 0.31690872 1.8800995 156 130 90
-0.17607498 0.31690872 1.8800995 149 123 82
0.31037223 0.43243992 1.8800995 238 231 212
0.34685576 0.46892345 1.8800995 232 224 207
0.37725878 0.46892345 1.8800995 230 223 204
0.40158105 0.47500402 1.8800995 230 223 205
0.41982281 0.48716521 1.8800995 228 221 203
0.42590344 0.49324584 1.8800995 227 220 202
0.42590344 0.49932635 1.8800995 229 220 203
-0.21863914 0.57837403 1.8800995 152 157 106
-0.21863914 0.58445466 1.8800995 145 152 100
0.40158105 0.62093818 1.8800995 223 214 196
0.40766168 0.62701881 1.8800995 222 213 195
-0.93614876 0.66350234 1.8800995 158 133 92
-0.93614876 0.66958296 1.8800995 178 152 111
-0.96655172 0.68782473 1.8800995 166 142 101
-0.96047109 0.69390523 1.8800995 172 148 106
-0.96047109 0.69998586 1.8800995 184 160 118
-0.96655172 0.71822762 1.8800995 178 156 114
-0.96655172 0.73038888 1.8800995 181 159 117
0.21308279 0.73038888 1.8800995 225 220 203
-0.18823618 -0.40668154 1.88618 218 213 192
-0.14567202 -0.38235918 1.88618 212 205 183
-0.13959146 -0.37627858 1.88618 212 205 186
-0.13959146 -0.37019801 1.88618 214 207 188
-0.13959146 -0.36411741 1.88618 223 216 197
-0.13351083 -0.34587562 1.88618 233 228 209
-0.12743026 -0.33979505 1.88618 234 229 211
-0.084866107 -0.32155329 1.88618 236 232 212
-0.10310793 -0.18778029 1.88618 246 245 232
-0.097027302 -0.17561913 1.88618 243 244 231
-0.097027302 -0.16953853 1.88618 244 246 233
-0.060543776 -0.066168487 1.88618 250 251 236
0.091470957 -0.0053625703 1.88618 250 249 234
0.091470957 0.00071799755 1.88618 249 249 233
0.14011574 0.018959761 1.88618 252 251 235
0.085390449 0.025040388 1.88618 251 251 235
0.14011574 0.025040388 1.88618 252 252 237
0.13403511 0.11016864 1.88618 251 250 236
0.16443813 0.17705512 1.88618 253 253 238
0.024584532 0.18921632 1.88618 241 244 228
0.14619625 0.23178041 1.88618 252 253 238
0.27996933 0.2561028 1.88618 249 247 233
0.32253337 0.30474752 1.88618 243 239 219
0.32253337 0.31082809 1.88618 243 238 219
0.10971272 0.46284288 1.88618 176 162 133
0.40766168 0.48108464 1.88618 229 221 204
0.43198407 0.5418905 1.88618 224 215 197
0.43198407 0.54797113 1.88618 225 216 198
0.43806458 0.55405176 1.88618 225 216 198
0.43806458 0.56013227 1.88618 224 215 197
0.43806458 0.56621289 1.88618 224 214 198
0.4137423 0.63917994 1.88618 219 210 192
-1.0212771 0.67566347 1.88618 162 141 102
-1.0151964 0.67566347 1.88618 162 141 102
-1.0151964 0.6817441 1.88618 196 175 134
-1.0091158 0.74255002 1.88618 175 152 112
-0.57739395 -0.49789038 1.8922607 182 173 142
-0.2368809 -0.44924566 1.8922607 244 242 223
-1.0030353 -0.44316506 1.8922607 207 203 183
-0.2368809 -0.44316506 1.8922607 244 239 221
-0.23080027 -0.4370845 1.8922607 237 230 212
-0.21255851 -0.41884273 1.8922607 225 217 198
-0.20647794 -0.41276214 1.8922607 221 213 193
-0.18215555 -0.40060094 1.8922607 219 213 191
-0.084866107 -0.32155329 1.8922607 237 232 212
-0.11526906 -0.21818325 1.8922607 243 241 225
-0.066624343 -0.060087889 1.8922607 251 252 237
0.13403511 0.043282151 1.8922607 251 251 238
0.13403511 0.049362719 1.8922607 252 251 238
0.13403511 0.055443287 1.8922607 253 253 238
0.14011574 0.061523914 1.8922607 253 253 238
0.14011574 0.067604482 1.8922607 253 252 237
0.14011574 0.07368511 1.8922607 253 252 238
0.10971272 0.085846245 1.8922607 251 251 236
0.11579335 0.091926873 1.8922607 250 250 235
0.11579335 0.098007441 1.8922607 250 250 235
0.1583575 0.15881336 1.8922607 252 253 239
0.1583575 0.16489393 1.8922607 252 253 239
0.012423277 0.18921632 1.8922607 238 240 225
0.024584532 0.18921632 1.8922607 242 244 228
0.13403511 0.41419816 1.8922607 173 160 133
0.13403511 0.42027873 1.8922607 161 149 120
0.14011574 0.4263593 1.8922607 164 152 126
0.33469462 0.47500402 1.8922607 233 225 207
0.37117815 0.47500402 1.8922607 230 223 204
0.4137423 0.49324584 1.8922607 228 221 203
-0.95439053 0.68782473 1.8922607 179 151 109
-1.0273576 0.69390523 1.8922607 172 151 109
-0.95439053 0.69390523 1.8922607 177 151 109
0.20700216 0.73646939 1.8922607 226 221 204
-1.0030353 0.74863064 1.8922607 168 146 104
-0.2247197 -0.46140686 1.8983412 249 243 224
-0.20647794 -0.41276214 1.8983412 219 212 191
-0.17607498 -0.39452034 1.8983412 215 208 187
-0.14567202 -0.35195622 1.8983412 230 224 205
-0.13959146 -0.34587562 1.8983412 233 228 209
-0.34633148 -0.32155329 1.8983412 159 147 127
-0.11526906 -0.19386089 1.8983412 246 246 231
-0.1091885 -0.17561913 1.8983412 244 245 231
-0.1091885 -0.16953853 1.8983412 243 245 233
-0.10310793 -0.16345793 1.8983412 247 246 232
-0.10310793 -0.15737733 1.8983412 248 247 231
