ply
format ascii 1.0
element vertex 682
property double x
property double y
property double z
property uchar red
property uchar green
property uchar blue
end_header
-0.1462371253738055 -0.1213266518948005 1.1455699164146167 255 255 255
-0.1112155734696105 -0.0912905104440630 1.1342681533800310 255 255 255
0.3281746659456718 -0.0931712064056982 1.3190940179645845 255 255 255
0.6387329200533403 -0.0469419181837157 1.2849450969897951 255 255 255
-0.5226369426939301 -0.0201764816161709 1.2282842261126952 255 255 255
0.2071078046233504 -0.0279192693169502 1.0510082874677347 255 255 255
0.5157883446538034 0.3001534196585834 1.6106117376976745 255 255 255
0.5937626382471223 0.4982306297351836 1.6785035734611318 255 255 255
0.5312122937222122 0.5827994792456096 1.8468450703278767 255 255 255
0.7139407594525614 0.4476970013216209 1.4523142319278037 255 255 255
0.6563675022115828 0.5406635294368889 1.5478388230145204 255 255 255
0.6950325962700185 0.5400665142730449 1.5016527533893336 255 255 255
0.4385743970840020 -0.4661049738571024 1.6914080782569147 255 255 255
0.5325842149555221 -0.4255273205816794 1.5975988449470946 255 255 255
0.0666321214315482 -0.2585007146994260 1.4024643738139395 255 255 255
0.1297350079726891 -0.2522635563672276 1.4102456211381924 255 255 255
0.0776142618397261 -0.1908425581597028 1.1954709942427113 255 255 255
0.6234378313186706 -0.1924673669487389 1.3049080743899217 255 255 255
-0.1298873293019335 -0.1674411454503398 1.1903942680174098 255 255 255
-0.2174099223791834 -0.1426820854046524 1.1223244546663740 255 255 255
-0.1748022567594986 -0.1380081898214553 1.1351174334287770 255 255 255
-0.0811779747146245 -0.1396439705893529 1.1464056307606791 255 255 255
-0.1028430137678722 -0.1328935767392251 1.1407897304631591 255 255 255
-0.1339737154814807 -0.1186042547546105 1.1461228830794234 255 255 255
0.0158927524560017 -0.1127568590094100 1.1284404801022874 255 255 255
0.1060042871180909 -0.1013710604219594 1.1003302193228572 255 255 255
-0.0826064578399783 -0.0885820079882735 1.1332739312358531 255 255 255
0.0221359437399403 -0.0911882438393458 1.0969863711227004 255 255 255
0.4387233527859301 -0.0885458125786599 1.3614601152392949 255 255 255
-0.3598317432700525 -0.0760293039148407 1.1771437814476051 255 255 255
0.1915270113731992 -0.0826530536276975 1.1337507728353653 255 255 255
-0.1166310023999366 -0.0798547895905010 1.1589059811927409 255 255 255
0.3149457699134961 -0.0628975444293955 1.2827006479027152 255 255 255
0.6291735932378486 -0.0656553957307239 1.2628834200254007 255 255 255
-0.5673908115974452 -0.0335766279013395 1.2699066697198222 255 255 255
0.5387703882115021 -0.0533248447194602 1.3810783731213729 255 255 255
0.0974041464799694 -0.0563707851731887 1.0899842408077629 255 255 255
-0.1947677285492319 -0.0472696515911940 1.0992984121609779 255 255 255
0.1932472157364343 -0.0564249464329207 1.0474697187325703 255 255 255
-0.3529614413834152 -0.0212922749063597 1.1649108448386738 255 255 255
0.0165397698427102 0.0017265579429692 1.0565360123731098 255 255 255
-0.4021978379149405 0.2051552229633160 1.3150559161161404 255 255 255
0.4697361640509608 0.4902325829700872 1.8501005617415882 255 255 255
0.5013969963815724 0.5738961169964588 1.8684567926879705 255 255 255
0.7311505234142003 0.4096057402495698 1.4349927889746847 255 255 255
0.4897615088230695 0.5924892936053093 1.8455994645113678 255 255 255
0.5169189220314444 0.6166352312244656 1.8611593140596390 255 255 255
0.5079729294792762 0.6367204954993858 1.8389861337074882 255 255 255
0.7122545043021379 0.5018422599246851 1.5102553783304993 255 255 255
0.5374182960999152 0.6834039224509343 1.8635795275472484 255 255 255
0.0838847730011815 -0.2594956186833608 1.4092449992779759 255 255 255
0.0771368019556250 -0.1874309673082017 1.1991473189592392 255 255 255
0.1104183749146858 -0.1547011097749391 1.1567719843821598 255 255 255
-0.2777527060021721 -0.1024213561486464 1.1317792857369016 255 255 255
-0.0826004228254563 -0.0853647704571187 1.1175609862087081 255 255 255
0.0956623900639069 -0.0896704085600180 1.0908135540157911 255 255 255
-0.0425208082790518 -0.0806422756144048 1.1103635012021127 255 255 255
0.1287745610046174 -0.0746214889812310 1.0974967112475045 255 255 255
0.2954316782176225 -0.0445680476051813 1.2653296008274377 255 255 255
-0.1485308788446838 0.0458760125689467 1.1698471429343844 255 255 255
-0.2051000404890721 0.0753666895652564 1.1489020273495425 255 255 255
-0.3635149127893106 0.1348516348056906 1.2895781477886925 255 255 255
-0.4192132789163959 0.1675135987326781 1.2718406849428745 255 255 255
0.2502295583332635 0.1448643915200340 1.1532322991569126 255 255 255
0.5647138926536982 -0.0585723118566058 1.3917233976883163 255 255 255
-0.1465158109437797 0.0432251219407061 1.1518193773510099 255 255 255
0.4304971783407951 0.0734708069293594 1.3663069348845358 255 255 255
-0.3788908499088739 0.2121519370927441 1.3448134594115757 255 255 255
0.5234020698097511 -0.5271804610793653 1.4290484660187888 255 255 255
0.5093176575713040 -0.5050700036121604 1.3489624648720766 255 255 255
0.5226991909840560 -0.4951528620931096 1.3326010120260285 255 255 255
0.5334541647708306 -0.4920850875117427 1.3244181526424927 255 255 255
0.5088818702668088 -0.4941172436672884 1.3661837585646370 255 255 255
0.5485298809393944 -0.4827569307399227 1.2942232002241694 255 255 255
0.4489461121059459 -0.4967512062243081 1.5804507772499037 255 255 255
0.5429494588406055 -0.4810316656224674 1.3040696781398242 255 255 255
0.5011548697092513 -0.4755627024338857 1.3813108869386996 255 255 255
0.5531272208615333 -0.4620466256916717 1.3742605468622544 255 255 255
0.5095484953053262 -0.4649188310447767 1.3769003330433500 255 255 255
0.4985772415593862 -0.4486905757775080 1.3841023856135339 255 255 255
0.5198402156805456 -0.4464623230410694 1.3727740082438331 255 255 255
0.5107479851497586 -0.4318566170999414 1.4271758801602545 255 255 255
0.4864006413058339 -0.4336905445328091 1.4206058873689704 255 255 255
0.4260181582838817 -0.4103791150810431 1.5708783501034169 255 255 255
0.4432163946958573 -0.3869677650621005 1.4786863978094362 255 255 255
0.5298539099237632 -0.3822268848817975 1.4625056328278017 255 255 255
0.5523696676797902 -0.3815667942951423 1.4250622953083403 255 255 255
0.4519421265525896 -0.3801095751472598 1.4470548029184480 255 255 255
0.4978801267603480 -0.3780659662347775 1.4220998278475034 255 255 255
0.5800790430933056 -0.3714500825592651 1.3017875796204581 255 255 255
0.5624674465479069 -0.3661531893729842 1.3547710905800505 255 255 255
0.4575757120770327 -0.3446088098027044 1.5114189357589802 255 255 255
0.4578921930041214 -0.3456412811737150 1.4428094967307545 255 255 255
0.3569798592940470 -0.3180771849275513 1.7245118062165543 255 255 255
-0.0462643019074419 -0.3303375719240381 1.4776528881478421 255 255 255
0.5913713009924578 -0.3354082762586856 1.2878836711287760 255 255 255
0.0132102138111317 -0.3247649332460660 1.4772446707259186 255 255 255
0.5365781508951302 -0.3227645113398580 1.3934883761427042 255 255 255
-0.2355939477211581 -0.2968075006602924 1.6196875938367761 255 255 255
0.5421015907503853 -0.3077459825894830 1.4057756297915507 255 255 255
0.5582512171236486 -0.3005629643244925 1.3093973626752289 255 255 255
0.5364060593765089 -0.2996289721759534 1.3438020325388507 255 255 255
-0.1486375790108169 -0.2801189898055767 1.3717922415498964 255 255 255
0.5018758723408240 -0.2859973201595321 1.4053439169376629 255 255 255
0.5617402501350656 -0.2898461963678128 1.3081869846602410 255 255 255
0.0770457245015492 -0.2783881059344515 1.3983514136140955 255 255 255
0.5608744400573529 -0.2888192814722687 1.3280803722318613 255 255 255
0.5740596780960057 -0.2845731677815824 1.3005165330557611 255 255 255
-0.1822884603765640 -0.2712577807941327 1.3391520686803124 255 255 255
0.5414506378427498 -0.2780425708237455 1.3333734056386350 255 255 255
0.5470338473444702 -0.2775077390571969 1.3204982018041107 255 255 255
-0.2017656274131371 -0.2669385298079329 1.3217493217409650 255 255 255
0.0632639797765111 -0.2584846302951881 1.4078365980836192 255 255 255
-0.0780490032193068 -0.2640725451569795 1.2821447365905057 255 255 255
0.5252723768009875 -0.2646263994998710 1.3450772366949630 255 255 255
-0.0126229552886077 -0.2616688396164461 1.2845279232729090 255 255 255
-0.2284096312272463 -0.2557127314492707 1.2873224744188818 255 255 255
0.5441385620946282 -0.2523445734725641 1.3274369014625798 255 255 255
-0.1636006130097510 -0.2464830710595866 1.2722577542899922 255 255 255
0.0354454070071111 -0.2459132344278789 1.2718675577868483 255 255 255
0.1013085416100265 -0.2422791014085725 1.2789568192413998 255 255 255
0.5528746862101530 -0.2367929697360842 1.3171493387980038 255 255 255
0.3878119456809472 -0.2275678504357857 1.3879700965150306 255 255 255
0.5612437409266755 -0.2211417635755203 1.3577220815230950 255 255 255
0.0228772521533891 -0.2359796334951084 1.2620780999452421 255 255 255
0.4933142476545143 -0.1960566921844428 1.4478454135600978 255 255 255
0.1459239586641168 -0.2244949459117703 1.2627492562725406 255 255 255
0.0587754331696821 -0.2263089721187505 1.2291023363078166 255 255 255
0.6152197331209396 -0.2158280553480212 1.3187282646982015 255 255 255
0.2263893141318790 -0.2030040731524072 1.3464635700038750 255 255 255
-0.1455092823156516 -0.2169568466057143 1.2315746969083343 255 255 255
-0.1223947459056331 -0.2153169530276855 1.1942622606605626 255 255 255
0.1164068004055159 -0.2142409608468496 1.2275717687743442 255 255 255
0.5999933424496564 -0.2093401830111242 1.2814890653065800 255 255 255
0.0228361838245238 -0.2101291845522799 1.2373166911183759 255 255 255
0.1094862249461203 -0.2092692919213646 1.2118846387254882 255 255 255
0.2737516014853900 -0.1892638984124461 1.3538026933631415 255 255 255
0.1257275804672579 -0.2073563902990014 1.2150838994514912 255 255 255
0.5788869628956972 -0.1893544353560691 1.3242075295176554 255 255 255
0.0164634983582466 -0.2074774872852138 1.1763993974983518 255 255 255
0.5981230328227080 -0.1970104184862862 1.2801985611649820 255 255 255
0.2283061080520637 -0.1931266664330309 1.2821381726968375 255 255 255
0.0508691645686676 -0.1998844098735962 1.1968726686898501 255 255 255
-0.0466362481176323 -0.2031104408257107 1.1692757321150287 255 255 255
0.1376852848587908 -0.1973209132794801 1.2120441843074496 255 255 255
0.3098374884861645 -0.1759757967931007 1.3421271732979823 255 255 255
0.1175742790204557 -0.1987829463630472 1.1935256787440842 255 255 255
0.1761464127168333 -0.1931995067300871 1.2105772729456814 255 255 255
-0.0759162315386808 -0.1881944922700945 1.1778796609436561 255 255 255
0.3038871087354725 -0.1680342385353027 1.3357257425757199 255 255 255
0.0952147706241631 -0.1920926460269781 1.1781495613994424 255 255 255
-0.1692272248676170 -0.1870561406847336 1.1740255525741436 255 255 255
0.0379314603162779 -0.1878290242468123 1.1665437990737004 255 255 255
-0.2052665875155700 -0.1839425098126595 1.1444066770166819 255 255 255
0.1089234375169209 -0.1834354841044709 1.1789333161296407 255 255 255
-0.0519451805151922 -0.1838525659053519 1.1453456169854923 255 255 255
0.1582443323306453 -0.1840765817532234 1.1775854532135290 255 255 255
0.0598620558781955 -0.1814791119362617 1.1644031955058809 255 255 255
0.0824200962829491 -0.1815542406346743 1.1692459085052223 255 255 255
0.1177860445648327 -0.1815479870595382 1.1710653209130208 255 255 255
0.2812040113657622 -0.1566081973802173 1.3182209820251325 255 255 255
0.1724062285131356 -0.1743095847099253 1.1834339656710156 255 255 255
0.1134251298528770 -0.1728610237971024 1.1690501322319709 255 255 255
0.0935014702856617 -0.1734882985275067 1.1543677148816136 255 255 255
0.1344574655103135 -0.1691675847611765 1.1647586076842096 255 255 255
-0.1869766943720264 -0.1713330086562806 1.1156952638525908 255 255 255
0.0857788671395912 -0.1694158710145024 1.1504773786465663 255 255 255
0.1620666908437591 -0.1672719172621528 1.1720883449167663 255 255 255
0.0600235235326243 -0.1699378889978827 1.1408486518984280 255 255 255
0.1543227364620235 -0.1612050857493053 1.1657377250635961 255 255 255
-0.1605700551487131 -0.1588644846897535 1.1413611777609927 255 255 255
0.2311456153834574 -0.1418402742864859 1.2318955774742586 255 255 255
0.0619244821851407 -0.1568306934750924 1.1399599139256122 255 255 255
-0.1583624207950342 -0.1432752887249956 1.1395656187492451 255 255 255
0.5069248803810443 -0.1111251283194939 1.3565841779290040 255 255 255
-0.1193247091913642 -0.1438558890141086 1.1379271473342332 255 255 255
0.1810776981440236 -0.1495648916148599 1.1498105849494902 255 255 255
0.5519206902285707 -0.1104313202275647 1.3528508523206502 255 255 255
0.0803723192992036 -0.1486501326196921 1.1283397300403255 255 255 255
0.1101473002468037 -0.1486717751675374 1.1203974740085785 255 255 255
0.3965538181397762 -0.1059227615818004 1.3337536632850115 255 255 255
-0.2185193279380163 -0.1335909139117749 1.1142178329511048 255 255 255
0.2136596046116380 -0.1370838594538032 1.1587068578135806 255 255 255
0.1024357181628242 -0.1439032697310047 1.1174978930489905 255 255 255
0.2991231559955311 -0.1221535361600064 1.2429814642372392 255 255 255
0.0406292041636724 -0.1405730548617879 1.1115382786234822 255 255 255
0.2029099810630343 -0.1381796468083796 1.1439920963840320 255 255 255
0.5462763815610775 -0.0950336561479811 1.3434126648665841 255 255 255
-0.0920110421304935 -0.1119902869185868 1.1458302063146573 255 255 255
-0.1285037340573302 -0.0798856060798893 1.3038684625369785 255 255 255
-0.1149394959050795 -0.1210072249420542 1.1345695512338541 255 255 255
-0.0524281087610465 -0.1268113954827011 1.1232102888936650 255 255 255
0.0346869534430356 -0.1285830324216084 1.0973701882293403 255 255 255
0.1931247756066175 -0.1287244944990761 1.1199123193550671 255 255 255
-0.5634970722427434 -0.0541346375138516 1.2824872913894101 255 255 255
0.0943085884263557 -0.1151187369479848 1.1092432227085303 255 255 255
0.1822772529238746 -0.1177670961130794 1.1148879556753699 255 255 255
0.1313273531166125 -0.1137447273806436 1.1093777788696948 255 255 255
0.3759307168048421 -0.0672153281916387 1.2950510589576838 255 255 255
-0.1633986324121370 -0.0912935374208053 1.1329552562453091 255 255 255
-0.0339917981024015 -0.1022545536682203 1.1081839233230628 255 255 255
-0.1926960631520049 -0.0917788530470277 1.1112673110325328 255 255 255
0.0867954093880933 -0.1032323722075270 1.1043648121034961 255 255 255
0.3383303338156822 -0.0583295682619664 1.2806925846831925 255 255 255
0.0721177719220257 -0.1075244677650891 1.0833960258926694 255 255 255
0.1522139540972720 -0.1032511895920374 1.1012226150734130 255 255 255
-0.0153289715082899 -0.0923533301047418 1.1077310332652588 255 255 255
0.2159793760701428 -0.0997714079994586 1.0909602457170673 255 255 255
-0.2010385523295708 -0.0784869236562256 1.0967944425101148 255 255 255
-0.0252362450009889 -0.0850164069495314 1.0739365819051896 255 255 255
0.1921329230753660 -0.0890723464553011 1.0763400125796729 255 255 255
-0.2653181861234362 -0.0593203596849571 1.1199041264043130 255 255 255
0.1251193165391434 -0.0767185661857356 1.0999265724606815 255 255 255
0.1075008490295353 -0.0770522058046089 1.0973756623599533 255 255 255
0.5755629913948471 0.0063536144993951 1.4032088505172384 255 255 255
-0.1342623774334342 -0.0509579166585449 1.1403694111374498 255 255 255
0.0887453309779731 -0.0672005429654020 1.0917104601725158 255 255 255
0.0722928086683234 -0.0700205490580955 1.0665110916179528 255 255 255
-0.2778366166554873 -0.0189970547406113 1.1215777466843013 255 255 255
-0.0270452006571787 -0.0436164684869390 1.0584369831084612 255 255 255
-0.4908917534051688 0.0557559978029314 1.2583771413199514 255 255 255
-0.2983713746810301 -0.0171378766596443 1.1407580785111910 255 255 255
0.1829558901874563 -0.0327348543372441 1.0443481539043493 255 255 255
0.1492592927349856 -0.0250033317302335 1.0586322326041224 255 255 255
0.1918186419580708 -0.0273233695222949 1.0367902274086154 255 255 255
-0.4715208340514949 0.0620432330718096 1.1845977577701809 255 255 255
0.5966316327934278 0.0985829970100731 1.3730737210365500 255 255 255
0.0162399731925343 -0.0007385304507643 1.0476722144506663 255 255 255
0.5541091465892314 0.1501260261130728 1.4659198141395762 255 255 255
0.2150360405738733 0.0030371699504211 1.0642400548314170 255 255 255
-0.4467362194645346 0.1070816444176731 1.2413960562652153 255 255 255
-0.3827097707330673 0.1023977824857115 1.2263843149016516 255 255 255
-0.4510241660794869 0.1011451823905435 1.1442729635626903 255 255 255
0.5513736474472409 0.2031857943211423 1.4823827523569018 255 255 255
-0.4577482980140178 0.1313314974789969 1.2092195577392493 255 255 255
0.5922266145241283 0.1413876221515883 1.3264282234184261 255 255 255
-0.4367101011276622 0.1532369811687485 1.2294830967914383 255 255 255
0.5491038143258375 0.2218641661458724 1.4843248536611067 255 255 255
0.5059010528921658 0.3037458615396929 1.5821773470162155 255 255 255
0.5942800131751571 0.2363598567944732 1.4437578745369690 255 255 255
0.5125094717756108 0.3294389960270906 1.6076977236154506 255 255 255
0.6385436492966353 0.2749764124811450 1.4455070190898811 255 255 255
0.6277827354430638 0.2819254357986699 1.4397687651476467 255 255 255
0.6056399686426800 0.3046777265379572 1.4764340827346212 255 255 255
-0.0149497568099720 0.1899738226034665 1.1900935276412481 255 255 255
0.6953465556519476 0.2635847451069869 1.3804346812828259 255 255 255
0.5962204688131125 0.3519574760418961 1.5163711325731100 255 255 255
0.6186693011370820 0.3465942421505854 1.4864194563418049 255 255 255
0.5459906534225017 0.4642356935402207 1.6670905019094560 255 255 255
0.5885869519326754 0.4218632311648788 1.5957438110582221 255 255 255
0.5952544441907662 0.3987127724956024 1.5550313939170706 255 255 255
0.6264796864902081 0.4102665285996591 1.5474517804988213 255 255 255
0.6033506528013526 0.4707793237044833 1.6473398514111661 255 255 255
0.6501800217048741 0.3722618008603906 1.4800404437334007 255 255 255
0.6721423848677400 0.3512744326822262 1.4433265542098146 255 255 255
0.7077535037135377 0.3802575942908408 1.4399737945648368 255 255 255
0.6808208381326403 0.3966498442355074 1.4553317862547743 255 255 255
0.6140422886340090 0.5231232442743041 1.6344011649467576 255 255 255
0.6088790176383372 0.5477643793224503 1.6371070667309187 255 255 255
0.6246983174266094 0.4825146020758169 1.5302994604649036 255 255 255
0.6899005051117347 0.4661613882113791 1.4802914508165865 255 255 255
0.7064274733061666 0.4769535596147095 1.4650620687071043 255 255 255
0.7161363287881531 0.4743908089746199 1.4593317325624384 255 255 255
0.5481102293381183 0.6943993090133570 1.7713779264187808 255 255 255
0.6491301971013236 0.5293355225265001 1.4983066058289465 255 255 255
0.6920741933434599 0.5252135016396700 1.4632444921190146 255 255 255
0.7293154025118417 0.5183581439315362 1.4319728283664679 255 255 255
0.4303063700575897 -0.4625246074199328 1.6651446991013081 255 255 255
0.3991970467977420 -0.4077874889312155 1.6765866694028229 255 255 255
0.3912953778200498 -0.3937536797570120 1.5941346946279986 255 255 255
-0.0573804761422785 -0.3730981968788730 1.5450792426323594 255 255 255
0.4210831806695781 -0.3439453069360247 1.5260042094985582 255 255 255
0.0393233347130074 -0.3439537712062158 1.4767354020949246 255 255 255
0.5856073952642743 -0.3415554347388575 1.3525518883287317 255 255 255
0.3842952245245250 -0.3264497195925505 1.6350906390894047 255 255 255
0.4783680010474329 -0.3349654165674594 1.6494964814113475 255 255 255
0.5363852848821294 -0.3265213075029625 1.4356812523457214 255 255 255
0.4536543899442866 -0.3059731225434509 1.4826914286039008 255 255 255
0.5842196896262397 -0.3107307065790627 1.3033447344226963 255 255 255
0.5037464286509121 -0.3029222363513058 1.3920500100868403 255 255 255
0.5164981148518338 -0.2965745809837509 1.3732945967616021 255 255 255
-0.0324293909647299 -0.2833803927899435 1.3463065507198255 255 255 255
0.5374899605649675 -0.2832125191037037 1.3454461862862845 255 255 255
-0.0036890767293920 -0.2683655802599716 1.3580434088069622 255 255 255
-0.0293869128171106 -0.2695631768135273 1.2956310434598743 255 255 255
-0.2614960800451788 -0.2522812042172162 1.2828609450604671 255 255 255
-0.3418378367459340 -0.2111358788361882 1.2802435538609194 255 255 255
0.1951112368843306 -0.2034686557184786 1.2615674230808029 255 255 255
0.0159976964672320 -0.2084654675557656 1.1755850600308035 255 255 255
-0.1102761720929575 -0.2030062333708841 1.1839039949048518 255 255 255
-0.1632161637198931 -0.2007556356834882 1.1627653787117509 255 255 255
-0.3179201514038619 -0.1808312949938028 1.2147973604915325 255 255 255
-0.0829164175840359 -0.1898807704885745 1.2311017352638709 255 255 255
-0.0497554165726953 -0.1923052786189395 1.1643955422825290 255 255 255
-0.0037812332443993 -0.1850829978453555 1.1507957216854179 255 255 255
0.2604068374242630 -0.1666468687180685 1.2974479443816382 255 255 255
-0.1062871809773528 -0.1795429686004236 1.1673125278081788 255 255 255
-0.2245567432582425 -0.1836523935721104 1.1432836227532639 255 255 255
0.5981195756149912 -0.1415291733306267 1.3506682538722325 255 255 255
0.2282611550540134 -0.1502834924838456 1.2461795502006698 255 255 255
0.2558993428516604 -0.1537696396393976 1.2535248096204348 255 255 255
-0.3209683440187148 -0.1594330393133312 1.1754950642062967 255 255 255
0.0763641436770668 -0.1688844441979161 1.1568119684839973 255 255 255
-0.2057527835645655 -0.1642853716034457 1.1230869641633747 255 255 255
0.0935177065022236 -0.1562701977224586 1.1420948860067008 255 255 255
0.1167018573946873 -0.1590602501595404 1.1369514907297988 255 255 255
0.1016181842874846 -0.1544731494751148 1.1304230290239476 255 255 255
-0.2242809893126980 -0.1273740341769021 1.1528626325145857 255 255 255
-0.1045568547509909 -0.1355915532152545 1.1450116199597262 255 255 255
-0.1607434533449470 -0.1357331249271024 1.1085127925879816 255 255 255
0.5278746368910522 -0.0910283390625183 1.3624401526808352 255 255 255
0.3774135170092893 -0.0905681980992195 1.3170844530949115 255 255 255
0.0212119927130514 -0.1361747424441920 1.1086539979918830 255 255 255
-0.0659864592436304 -0.1178361700708100 1.1255511778170064 255 255 255
0.3164554409589544 -0.0681853773376178 1.2618294997156134 255 255 255
0.3540175398493366 -0.0389703666197381 1.2668582316762704 255 255 255
0.0712373188144222 -0.0816631128339644 1.0707008552166857 255 255 255
0.1311502139643438 -0.0686456633357340 1.0879181275933305 255 255 255
-0.1958502875408294 -0.0479341783208506 1.0983914095039609 255 255 255
-0.1110202843759258 -0.0388162584256798 1.0914010799699039 255 255 255
-0.0473867785135580 -0.0464838263715541 1.0603894957668976 255 255 255
-0.1539792485377845 -0.0238245175026830 1.1045577471185655 255 255 255
0.1943264354276995 -0.0539608579081378 1.0480215992461195 255 255 255
0.1576164319661853 -0.0331422827734103 1.0611300626014817 255 255 255
0.5740867733371747 0.0783158146804212 1.3882841562238339 255 255 255
-0.4695989536915604 0.1124853544205939 1.2297068127396285 255 255 255
-0.1379394825168724 0.0678572943302909 1.1582991144688770 255 255 255
0.5726510049786256 0.1768611994708762 1.4522943338789338 255 255 255
-0.4551234255147051 0.1530242885478814 1.2454638344872659 255 255 255
-0.4091461668763533 0.1588455037902181 1.2380225630037305 255 255 255
0.6707422430245905 0.2371021135939601 1.3870063375823019 255 255 255
0.6411967122151075 0.2844073253488788 1.4307963660839058 255 255 255
0.6608826399008403 0.3607591763288909 1.5532317199765044 255 255 255
0.1493709841315379 0.1713852112788633 1.1676272925768683 255 255 255
0.6295902249383939 0.4474294008557445 1.5405624526620965 255 255 255
0.7060758335579670 0.5209187948364165 1.4599174213734945 255 255 255
0.6774031208884415 0.5625145374279237 1.5148353386027129 255 255 255
0.5439743904380931 -0.4802074484925338 1.3082661045641004 255 255 255
0.5299909965797871 -0.4782684139623304 1.3261630378959974 255 255 255
0.5369405170371854 -0.4635338845642559 1.3291736949178263 255 255 255
0.5734644300966010 -0.4571952322961046 1.3449632847873982 255 255 255
0.5069042815728804 -0.4633619393492804 1.3680842513094393 255 255 255
0.5140525184051035 -0.4238516304458707 1.4043804395028667 255 255 255
0.5512973565461839 -0.3745529760764645 1.2952793501846980 255 255 255
0.1392263393206849 -0.1914585826389254 1.2229359427698403 255 255 255
-0.1251874550104696 -0.1949720446139931 1.1624658925686899 255 255 255
0.1581370844099062 -0.1893719858477048 1.2008443440176855 255 255 255
0.1419202677872761 -0.1828789004503578 1.2215975106812051 255 255 255
-0.2039330758619450 -0.1838943442075121 1.1435922047625573 255 255 255
0.0477420663391327 -0.1763608212418603 1.1604042026254806 255 255 255
-0.1423721620483209 -0.1688365611600843 1.1415723584939199 255 255 255
0.1632078374334203 -0.1637800262637646 1.1780570804153168 255 255 255
0.3284462270224776 -0.1363831633598539 1.3269093466704769 255 255 255
0.3425189563979613 -0.1298629234340277 1.3290650461816786 255 255 255
0.0756183925469837 -0.1611049178703978 1.1318180416924430 255 255 255
0.1909407580943750 -0.1543354193947037 1.1684581722200178 255 255 255
0.0427369312677575 -0.1364793450199049 1.1239271761237766 255 255 255
0.1940482727196817 -0.1362304996214226 1.1167148743727262 255 255 255
0.1936283559425157 -0.1151023409267483 1.1106544174665487 255 255 255
-0.0400843612970416 -0.1015339517977936 1.1233523881304355 255 255 255
-0.1468574792220928 -0.0907448899475433 1.1227165769389689 255 255 255
0.1800961963147225 -0.1060545242039976 1.1000147071448101 255 255 255
-0.0043396710879037 -0.0197916308729474 1.0410084913846804 255 255 255
-0.4547969295960300 0.1293735343834304 1.2074356730767757 255 255 255
0.5462676354481625 0.2418683826055419 1.4952632817826186 255 255 255
0.6076981191893788 0.3241222239440394 1.5523277108203053 255 255 255
0.5721034378566189 0.4701983366334029 1.6556878305166478 255 255 255
0.6458448805087971 0.3829826679292982 1.4917193150951085 255 255 255
0.5942804954308557 0.4311796813174159 1.5700426808473094 255 255 255
0.7191197413994755 0.3754413176150186 1.4305531922428736 255 255 255
0.6811147069494955 0.4271580336533021 1.4941510298891332 255 255 255
0.3895044447654281 -0.4132256328825155 1.6340919955319595 255 255 255
-0.0588446187336818 -0.3733178140489840 1.5403344001655506 255 255 255
-0.0297385193747182 -0.3661763267143710 1.5331772936452881 255 255 255
0.4923309334266048 -0.3573455024563171 1.4256270017630952 255 255 255
0.4412907474401290 -0.3353719744988977 1.4409210624770785 255 255 255
-0.0492136838500671 -0.3307696583355783 1.4903738854651309 255 255 255
-0.3841469950866158 -0.3199206430652954 1.5768280694782422 255 255 255
-0.0851527517607818 -0.3046408184743216 1.4603279181873083 255 255 255
-0.4077424646823880 -0.2940742599511205 1.4671669503780904 255 255 255
0.0367026249621594 -0.2671031009456873 1.3174364129264322 255 255 255
0.5222225049478105 -0.2640238718851425 1.3682770119380205 255 255 255
-0.3029703874829759 -0.2547313717406371 1.3179791526616107 255 255 255
-0.0517320525808036 -0.2632820340380371 1.2862251759294367 255 255 255
-0.1909849543314931 -0.2311292429520274 1.2069928506045453 255 255 255
0.5690589548587445 -0.1835550984649996 1.3506230515617825 255 255 255
-0.1620848222171390 -0.1983312061025110 1.1621784475285342 255 255 255
0.1394573940913084 -0.1978229815043858 1.1994694787611571 255 255 255
0.1919644971562364 -0.1817193726919809 1.2304574915597377 255 255 255
-0.0063454151901325 -0.1850114661324711 1.1564639071736509 255 255 255
0.0325344304776104 -0.1539795105858922 1.1255875186988786 255 255 255
0.0949512777639075 -0.1305512362518221 1.1108202477068343 255 255 255
0.2515008697044069 -0.1140894271507010 1.1706990498245851 255 255 255
0.2976241767307445 -0.0993717511485969 1.2437709011247120 255 255 255
0.3623402534193897 -0.0815825704345604 1.2990443016996607 255 255 255
-0.0360866495041018 -0.1037773313239155 1.1092902182363493 255 255 255
0.0452041694496784 -0.0658240163586298 1.0762643235400413 255 255 255
0.0069588513278350 -0.0514707896029738 1.0882998101607435 255 255 255
0.5224283729205886 0.0326629133148721 1.3823281715783502 255 255 255
0.3754780574140836 -0.0012919800069723 1.2650179540699997 255 255 255
-0.1696276823812116 -0.0318020292869446 1.1090877233804193 255 255 255
-0.1137591422813095 -0.0266352308863020 1.0918129267498238 255 255 255
0.1648664941751637 -0.0417049955827422 1.0551614288682616 255 255 255
0.1546668583895236 -0.0322962104599983 1.0630830371065678 255 255 255
0.5282919531712178 0.0887826882248584 1.4102600220982886 255 255 255
-0.3701452376443212 0.0365184144459311 1.1676490125944052 255 255 255
0.1703993830679378 -0.0087115278996148 1.0568973085483591 255 255 255
0.5056229865914043 0.1443856871760219 1.4510445825075560 255 255 255
-0.4776178602303591 0.0864909244443287 1.1959566747547778 255 255 255
-0.4559292361788766 0.0985345934231000 1.2095288822861003 255 255 255
0.5804824511825543 0.1827215659081279 1.4811554308637538 255 255 255
-0.1506517245643571 0.0832899326580045 1.1614284156814776 255 255 255
-0.1403598931504019 0.1004536625655461 1.1742166879771800 255 255 255
0.1054443807922084 0.0807921955537093 1.1284729456787714 255 255 255
-0.4132193705493750 0.1671057806619863 1.2563219590642252 255 255 255
0.1589195249452855 0.0780768550155470 1.0818090174841606 255 255 255
-0.1971039391727295 0.1568096277737641 1.1600182731754174 255 255 255
0.6015559241493855 0.2504443912868355 1.3689877776750599 255 255 255
0.6222947454458650 0.3196616576131820 1.4725028649481737 255 255 255
0.6358103342603615 0.3769309274546175 1.5140597460152574 255 255 255
0.7025547753202437 0.4001127113667838 1.4694528129332751 255 255 255
-0.2916527463187127 -0.3500904876832333 1.7234583629174807 255 255 255
-0.0785809385717509 -0.3465085660607956 1.5072807575119860 255 255 255
0.5153624593482415 -0.3347150312953733 1.3661208935205598 255 255 255
-0.1898161449970019 -0.2523007948808925 1.3318094953197583 255 255 255
0.2244950277040333 -0.2035750236831320 1.2929326988589260 255 255 255
-0.3577509024582297 -0.1769382649870974 1.2430777876112800 255 255 255
-0.0521662850009305 -0.1996640513472476 1.1571900683834071 255 255 255
0.1074169746318360 -0.1545320853656314 1.1367665529617950 255 255 255
-0.1707412091345648 -0.1415223371936037 1.1229893003654114 255 255 255
0.0919671393047070 -0.1340243525886540 1.1017498033824631 255 255 255
-0.3159437482640529 -0.0860002953313216 1.1563692836240977 255 255 255
-0.1480669527849238 -0.0724102057847903 1.1490886121232109 255 255 255
-0.3434387397821010 -0.0536751204212556 1.1787253608740229 255 255 255
-0.2389987375114384 0.0410031314114866 1.1362292365232101 255 255 255
0.0673672923899999 0.0091895656195474 1.0569825303401810 255 255 255
0.1270744035884479 0.0963773210644711 1.1310052302424309 255 255 255
-0.2007003409073254 0.1362691182450532 1.1452221950986303 255 255 255
-0.0631297345904102 -0.3877229548341637 1.5429267334067498 255 255 255
-0.0237549794815077 -0.3141274375780662 1.4667277905813230 255 255 255
-0.1206696753869300 -0.1474234636754539 1.1442608628286357 255 255 255
-0.1401296414783723 -0.1275537960444727 1.1388521154248574 255 255 255
-0.1090985651826933 -0.1181321665096742 1.1448851328604830 255 255 255
0.4305623345143395 -0.2586295060557690 1.4887996697576151 255 255 255
-0.1783242864841016 -0.2547908287977307 1.2953384039938840 255 255 255
-0.0053781514958216 -0.1925792924979931 1.1417855295032626 255 255 255
0.0865399221077096 -0.1312723258612815 1.1108139741869076 255 255 255
-0.1488805161774474 -0.0639377181486507 1.1492721061235442 255 255 255
0.0932566320531492 -0.0919759583578805 1.0834574781755548 255 255 255
-0.1523825152036870 -0.0088970885954267 1.1147914677079205 255 255 255
0.0815350854132356 0.0121090140485230 1.0883891210243706 255 255 255
0.1293598096121205 0.0051614728018676 1.0555112673461780 255 255 255
-0.1467716681171264 0.1017489599664560 1.1700393305752339 255 255 255
0.1974152966304870 -0.2270948442329525 1.3770533872912230 255 255 255
0.0767928520619885 -0.1352004769830962 1.1119771707852923 255 255 255
0.1598558550594004 -0.1062804056370991 1.1131264696401690 255 255 255
-0.0688260123532232 -0.0929314042109255 1.1285199209949630 255 255 255
0.4687423419169975 -0.5304196185726923 1.4645612362332576 255 255 255
0.4694995633480258 -0.5335757741586612 1.3718706052947391 255 255 255
0.4685371878748121 -0.4833223763424020 1.3910683161903075 255 255 255
0.4550376204813214 -0.4729024367184951 1.4192940956305422 255 255 255
0.4637654424735997 -0.4707759730536953 1.4016374398019356 255 255 255
0.4764486370699609 -0.4683998042806282 1.4135513220196099 255 255 255
0.4768678999496683 -0.4548548938126365 1.4061832901691798 255 255 255
0.4580417439167913 -0.4466202865441020 1.4084931084184631 255 255 255
0.4485765204654059 -0.4372304943936495 1.4300419948734098 255 255 255
-0.2889917393585047 -0.3491294392262051 1.8190175328758387 255 255 255
0.4074837949272424 -0.4055094018889958 1.5588175469283108 255 255 255
0.4756524225573635 -0.4123156388036528 1.4304793551442880 255 255 255
0.4575283959096652 -0.4035419500482119 1.4191811478753387 255 255 255
0.4700662092912219 -0.4038854058609337 1.3828294177989124 255 255 255
-0.0531379694006923 -0.3552539940731435 1.5486059244669215 255 255 255
0.0469488368675720 -0.3614909678301396 1.5140176195754516 255 255 255
0.4569884418731847 -0.3913550998122607 1.4071039478514542 255 255 255
0.3980903010905408 -0.3596868734813680 1.5309346936313779 255 255 255
0.5027121886041446 -0.3783860719501716 1.3992201103371200 255 255 255
0.4877086946765328 -0.3746196652283471 1.4141947946006905 255 255 255
0.4992053482457018 -0.3697189786524060 1.3652817872700982 255 255 255
0.4816004411968400 -0.3580313076215193 1.3877189147358799 255 255 255
-0.0459342407152454 -0.3172457574158959 1.4936960999599813 255 255 255
0.5116676526296361 -0.3367504521943455 1.4384248538213629 255 255 255
0.5025062465162565 -0.3383424254616329 1.3634730675589670 255 255 255
-0.1466818957470188 -0.2891703760842760 1.4222221507587594 255 255 255
0.4806411565077565 -0.3098891877590650 1.3782474248935470 255 255 255
-0.1161035691403860 -0.2750398602866648 1.4176630054811812 255 255 255
0.0081896458890573 -0.2821472808484848 1.3510560791559239 255 255 255
-0.3550878316738271 -0.2566313271001820 1.3526530759691662 255 255 255
-0.1040197924086354 -0.2718954325122939 1.3227034368200208 255 255 255
-0.1318643124757980 -0.2647425139791337 1.3304510967580445 255 255 255
-0.3439173161528626 -0.2534523838646210 1.3298605193773056 255 255 255
-0.0628373294862651 -0.2667224745863240 1.3172754534330269 255 255 255
-0.0133168349561536 -0.2671617012272151 1.3070710063840369 255 255 255
-0.1303366011657126 -0.2567866796637444 1.3131765528835118 255 255 255
0.0505430089955488 -0.2575272678796746 1.3216234510801304 255 255 255
-0.2792936132591952 -0.2257305717516207 1.3705986090779672 255 255 255
0.5499601459624546 -0.2586826048527412 1.3582941951967782 255 255 255
0.0600049155025336 -0.2547790345280393 1.2897185799359709 255 255 255
-0.0653998778963505 -0.2530408291936277 1.2738057603845738 255 255 255
-0.3531404905201209 -0.2211008886471041 1.3324342617633265 255 255 255
-0.3211886140120784 -0.2170449478392366 1.3270730984711794 255 255 255
0.0752365181150227 -0.2497894178282822 1.2746742433262217 255 255 255
0.0479914263722895 -0.2491696041605316 1.2723487320400055 255 255 255
-0.3018027065574408 -0.1989509827426197 1.3376607706566916 255 255 255
-0.3067626530902456 -0.2157925467523875 1.2703220694915525 255 255 255
0.0515201463919171 -0.2361723586594082 1.2404047221238317 255 255 255
-0.1724015919990584 -0.2194065954744362 1.2184052540885473 255 255 255
0.0325233208929609 -0.2243631905692691 1.2268554590827483 255 255 255
0.1820404678272085 -0.2156715603333483 1.2548347716490909 255 255 255
-0.1386295426400500 -0.2155362580446436 1.2108156302056450 255 255 255
0.0505336121271094 -0.2187945929344193 1.2170279707993321 255 255 255
-0.2232684729997037 -0.1995915915024208 1.2024441727405968 255 255 255
0.1524935773430638 -0.2042107795547733 1.2258388232450754 255 255 255
0.0901661934127822 -0.2076768260539456 1.1926483830348173 255 255 255
0.3211779766140609 -0.1662929960622221 1.3294594743173473 255 255 255
-0.0109155803075846 -0.2092115556653555 1.1651552443416571 255 255 255
0.2165297201544466 -0.1795624620060567 1.2657432456443398 255 255 255
0.0853420566973290 -0.2003573405401285 1.1923178893503064 255 255 255
0.1031551689691675 -0.2024610919905448 1.1917496464793589 255 255 255
0.3770696943430800 -0.1347975065682027 1.3631275588465595 255 255 255
0.1243969269419739 -0.1851468424174090 1.1769652804526820 255 255 255
0.1393705721287410 -0.1851007468326260 1.1834989483779224 255 255 255
-0.3659100940904180 -0.1348056749805350 1.2266150762173520 255 255 255
0.1040583882370081 -0.1810481196233199 1.1682968706493579 255 255 255
0.0342877904466605 -0.1751832211182225 1.1663591705625924 255 255 255
0.1026582804745323 -0.1722478019888976 1.1581376741173992 255 255 255
0.1780986562018467 -0.1654613554091340 1.1846726361846975 255 255 255
0.1434238828304049 -0.1708454937686330 1.1595852924429713 255 255 255
0.1279499549260634 -0.1615240788249846 1.1533936668670857 255 255 255
-0.3085897107805629 -0.1152539981038369 1.1939156760980498 255 255 255
0.1384244377205200 -0.1623128518145452 1.1434244355861631 255 255 255
0.3153849430284341 -0.1001429258455906 1.2618589438538586 255 255 255
0.1931710550223494 -0.1464984511919751 1.1415658178437287 255 255 255
0.1852182896146719 -0.1449885016024421 1.1352553289021936 255 255 255
0.1495994220733001 -0.1363556788924138 1.1421739771216906 255 255 255
-0.1542042445220095 -0.1096475524298644 1.1449225323249643 255 255 255
0.1939051685967667 -0.1325878629907790 1.1403726489770347 255 255 255
0.1473425354463926 -0.1265283000651087 1.1187191628864397 255 255 255
-0.5383682839326195 0.0239639306850652 1.2932449687994236 255 255 255
0.1922916921368633 -0.1140325002672535 1.1155303096131051 255 255 255
0.1774394551990382 -0.1136231599008946 1.1096663421814075 255 255 255
-0.1247112340797093 -0.0649424111908826 1.1614881367422021 255 255 255
0.0288731038995113 -0.0912320662422218 1.1108957362945657 255 255 255
0.3472924923813978 -0.0330558418176673 1.2554904323682026 255 255 255
0.1681362299706869 -0.0997778900657437 1.1109988007361047 255 255 255
0.1740129538860333 -0.0937261892029512 1.0864675275416193 255 255 255
-0.0483899560328371 -0.0627469331234305 1.1009339050063360 255 255 255
0.2152059815358894 0.0015345135755593 1.2229630033468171 255 255 255
-0.1277180473875421 -0.0417505124480684 1.1280060880709342 255 255 255
-0.3689344092059393 0.0353310751718681 1.2073738678750381 255 255 255
-0.0127288854557782 -0.0594158681689756 1.0792365789752856 255 255 255
0.1884692412846803 -0.0790488260445392 1.0710281172860825 255 255 255
0.1977768978474033 -0.0723459711751614 1.0731091783499254 255 255 255
0.0648621933700688 -0.0612585462859609 1.0620072305971320 255 255 255
-0.1568644030531365 0.0087368381749394 1.1263562445190312 255 255 255
0.1552853490596235 -0.0445425486089062 1.0719878892828985 255 255 255
0.5340352907731175 0.2263294163852084 1.5325926821841804 255 255 255
0.5047450223529213 0.2336194579194991 1.5242957939003423 255 255 255
0.5503328761399325 0.2483429360021414 1.5429740923116690 255 255 255
-0.4656589733350331 0.1518320955695229 1.2624862787161697 255 255 255
-0.4882092757088072 0.1278823169322383 1.2122220772711199 255 255 255
0.5499766274563864 0.2737144590693643 1.5408542689303621 255 255 255
0.0056429345141868 -0.0007820896039056 1.0586683197551603 255 255 255
0.5689523531527364 0.2775797077182992 1.5276476861220152 255 255 255
-0.1419325463077591 0.0920734826026551 1.1601562365081390 255 255 255
0.5687257414239771 0.3182949930021159 1.5729829712940544 255 255 255
0.5907366313729311 0.1893091462820377 1.3902237923127116 255 255 255
-0.1690000475631903 0.1096397509518236 1.1630621543753956 255 255 255
0.5582036913368762 0.3253647413381620 1.5605995299731932 255 255 255
0.5855298883644497 0.3283205321411891 1.5474573986434976 255 255 255
0.5748066562563083 0.1217071084918209 1.2541004396693438 255 255 255
0.5702353520258758 0.3659119976736456 1.5916858059998509 255 255 255
0.6084558376553841 0.3312697745826895 1.5330038808410584 255 255 255
0.6002302027737926 0.1750498353803020 1.3016920402941370 255 255 255
0.6369932448850082 0.3341836104267987 1.4993302676001217 255 255 255
0.6837226537119508 0.2695156037710978 1.4119235001932273 255 255 255
0.1786631349716073 0.0323893554097423 1.0269348985238496 255 255 255
0.5857677580481175 0.4692077918428236 1.6312321280989599 255 255 255
0.6601982823438346 0.3134433701755466 1.4366570477073564 255 255 255
0.6297931321794786 0.4355966544217940 1.5870582842661283 255 255 255
0.6970699880667475 0.3457202085647282 1.4644680519021585 255 255 255
0.6706144688620304 0.3611371326330111 1.4541691380567572 255 255 255
0.7089876852155839 0.3602548031129569 1.4319445543535283 255 255 255
0.6796060160314145 0.4297625508403857 1.5048829402208661 255 255 255
0.5745332814478132 0.3453438288004583 1.3570363224795117 255 255 255
0.6877377316390616 0.4912098594194018 1.5308881519286657 255 255 255
0.6360064131938078 0.5982827809608382 1.6494673005200537 255 255 255
0.7165811905218268 0.5083477382079657 1.5215879023505725 255 255 255
0.7266025556660389 0.5192284505819578 1.4980329846249518 255 255 255
0.7153833741309744 0.5238560524708946 1.4894847298159708 255 255 255
0.4054611966390707 -0.4114716890281091 1.5327760244190838 255 255 255
0.3756593124247447 -0.3890333892837043 1.6322295308719914 255 255 255
0.0000874720730706 -0.3650744066058430 1.5294084711459206 255 255 255
0.0158051998650397 -0.3434845226642625 1.4680921932778876 255 255 255
0.4804975218456338 -0.3452353668984959 1.3836652630748592 255 255 255
0.4559075946100058 -0.3319683656565621 1.4358804144220760 255 255 255
0.4684550781246062 -0.3185009193833443 1.4104495019299033 255 255 255
-0.0958965048989909 -0.2835107322255823 1.4478922296905619 255 255 255
-0.3217820524736453 -0.2832141335583384 1.4158153036708736 255 255 255
0.4903594712316390 -0.2931325487269953 1.3433006233864051 255 255 255
-0.1550171034583778 -0.2673207572411046 1.3480526857610118 255 255 255
-0.1890127420410552 -0.2516506185111154 1.3442509025651594 255 255 255
-0.1177578487459810 -0.2577714124059889 1.3234626476243412 255 255 255
-0.0481088372423156 -0.2630404029334513 1.3011723954648822 255 255 255
0.0066744975815493 -0.2656214913064434 1.3046079393366079 255 255 255
0.5188303794277922 -0.2625053869711198 1.3741244286972516 255 255 255
-0.3115808678045484 -0.2408151734210499 1.3239969878409348 255 255 255
-0.2677199097027815 -0.2425441601041411 1.3130507910064075 255 255 255
-0.0028092803669854 -0.2523536984147897 1.2876043046932826 255 255 255
-0.2741026064808668 -0.2380145963574847 1.2845838077494005 255 255 255
-0.2262682049708210 -0.2347754363044312 1.2728708948826941 255 255 255
0.1967343368426505 -0.2326788118648138 1.3010989047449157 255 255 255
-0.0189285543045318 -0.2380080492531120 1.2284177906804032 255 255 255
-0.1882256506485734 -0.2616573435143826 1.1198639829741899 255 255 255
0.0775409276139160 -0.2221732413799563 1.2409275102644302 255 255 255
-0.0836656524668930 -0.2133572703568529 1.2166391367395897 255 255 255
-0.1853675933351249 -0.1959494257245140 1.1588761895155899 255 255 255
0.4987090463157104 -0.1526322603656650 1.3527398534650148 255 255 255
0.0787919421647290 -0.1902455159788641 1.1881564633187700 255 255 255
-0.3200517676400473 -0.1347844749399306 1.2025763406643009 255 255 255
0.1139806363723727 -0.1745991661303750 1.1636813348771151 255 255 255
-0.0590619410634740 -0.1664610876487508 1.1513742364509874 255 255 255
0.1510153326664426 -0.1569387139063185 1.1417756287394552 255 255 255
-0.5600808746860799 -0.0419336577987349 1.2647554639357166 255 255 255
-0.3486505103414907 -0.0951169581602397 1.1729765193210362 255 255 255
0.1714395943003467 -0.1442437241830717 1.1310048022847137 255 255 255
-0.5801600721482348 0.0110946604834732 1.3111731245356399 255 255 255
0.0951826675819940 -0.1280844324611183 1.1206545106090529 255 255 255
-0.1521164174539282 -0.0900913218625468 1.1372956627415269 255 255 255
-0.1140995151423923 -0.0704023640329519 1.1408386179905425 255 255 255
0.4775917517944113 0.0077813443330046 1.3287182888461111 255 255 255
-0.5787680330319688 0.0714357791335246 1.3050136251005133 255 255 255
-0.1184112601248098 -0.0425680663606903 1.1593739005502208 255 255 255
-0.2434978537000196 -0.0624137548510809 1.1038056646863565 255 255 255
0.0953435608855074 -0.0773018124370691 1.0934688190152180 255 255 255
-0.1682924605119771 -0.0348871238581540 1.0999144099484055 255 255 255
-0.2468056299247864 -0.0125020207667343 1.1106675727758299 255 255 255
-0.0479869501845594 -0.0355816394683442 1.0817659399937711 255 255 255
0.6022455366543504 0.1436568932245672 1.4044358227433371 255 255 255
-0.1485345519723350 0.0288315042200011 1.1310094248579452 255 255 255
0.5809483659971898 0.1433124679379896 1.3631084243001768 255 255 255
-0.4745831588076131 0.1393473101567171 1.2153406935354665 255 255 255
0.0292323140394014 -0.0112535362758125 1.0551448138009927 255 255 255
0.5856983471438869 0.2655129344643183 1.4860656689152847 255 255 255
0.5866783819952371 0.1428077477597157 1.2920087346871880 255 255 255
-0.1985438916142209 0.1434424545867144 1.1566360664149598 255 255 255
0.1302992071371379 0.1035061952590541 1.1270777075556973 255 255 255
0.5962239949554903 0.3814568587120447 1.5574085222493417 255 255 255
0.1601870302008856 0.0727135614423493 1.0863504707081313 255 255 255
0.6565799347140253 0.5290332502114099 1.5413194296092971 255 255 255
0.6839205391951991 0.7484620802115738 1.7852597206344560 255 255 255
0.4884399545132342 -0.4507774974339038 1.3807200237835364 255 255 255
0.4790360617480746 -0.3832131471974693 1.3778723016510996 255 255 255
-0.1136521751255225 -0.2613361864356742 1.4029553641869195 255 255 255
0.5079026496188845 -0.2881776471735099 1.3407711097904642 255 255 255
0.5384845543419184 -0.2510106015642092 1.3406930908726722 255 255 255
0.0781904018097168 -0.2140130243079730 1.2063486211846086 255 255 255
0.1088928851155418 -0.2091914937671322 1.2122473565945786 255 255 255
0.1278752164771154 -0.1883243603408225 1.1882228245226496 255 255 255
0.0614187241563115 -0.1769868008326237 1.1750677037440751 255 255 255
0.1533898567482696 -0.1649564690312233 1.1582806821296689 255 255 255
0.0708739388785088 -0.1105638966999613 1.0842246257997479 255 255 255
-0.0751267431070199 -0.0400923912463015 1.1380278827195534 255 255 255
0.1942013972682836 -0.0911517329191426 1.0789041879539900 255 255 255
0.1788704968710867 -0.0842579211330525 1.0762763549956158 255 255 255
0.5447671801116073 0.2690301898118383 1.5312143671683682 255 255 255
0.5758657799361631 0.2601924008907902 1.5070037966520937 255 255 255
0.5706002480263559 0.3497249063134867 1.5619663020211547 255 255 255
-0.2389306764141606 0.1445088090811449 1.1708164757820474 255 255 255
0.6614843445421336 0.5284177989363662 1.5764347455108898 255 255 255
0.7193245770207234 0.4489352658941966 1.4609342422767533 255 255 255
0.4167706668791635 -0.4652005594707074 1.6171453288654194 255 255 255
-0.3511483214687300 -0.3484281686015200 1.7668130692258437 255 255 255
0.0000763068265971 -0.3643185925795202 1.5314362894001570 255 255 255
0.4726677242844144 -0.3487139751103536 1.4410277544721901 255 255 255
-0.1121457823618877 -0.3113728673448851 1.4834417069482713 255 255 255
-0.0658461409722200 -0.2921255048950651 1.4169041448678084 255 255 255
-0.0919687276427093 -0.2844448869807828 1.4267652581445611 255 255 255
0.0164287977354781 -0.2801440496550178 1.3536922847821722 255 255 255
0.4996206776928450 -0.2850765784408269 1.3702340050005395 255 255 255
-0.1534532648258262 -0.2667030268911549 1.3503632910853034 255 255 255
-0.1158501380211326 -0.2619964225080200 1.3063163155160831 255 255 255
0.0617374498630926 -0.2638326057490987 1.3222141750690137 255 255 255
