ply
format ascii 1.0
element vertex 684
property double x
property double y
property double z
property uchar red
property uchar green
property uchar blue
end_header
0.0868646455122265 0.1882685601160032 1.1767160701408370 255 255 255
0.4773738482146201 0.1386977431775126 1.3571205797203136 255 255 255
0.4575713831259416 0.1789312747534362 1.3846976727048603 255 255 255
-0.1625576237506693 0.2329999639926111 1.2956524657298958 255 255 255
-0.1391998551019038 0.2326344430252431 1.2971075926816189 255 255 255
-0.1013972457573725 0.2373958504143653 1.2808321431733634 255 255 255
0.5862021357044728 0.3566700397057249 1.3570403536985023 255 255 255
-0.1427416160514914 -0.2073678016772902 1.1680702572586690 255 255 255
0.5840312964594342 -0.2448045693402405 1.3012436544765935 255 255 255
0.1933306008827294 0.0378942138327536 1.0089561189790459 255 255 255
-0.1316045880158788 0.0457198987855878 1.1322198737370133 255 255 255
0.0599275491299661 0.0944439978669375 1.0733465693557946 255 255 255
-0.0538031084713169 0.0883953272590419 1.0932174708048690 255 255 255
0.1918567878701986 0.1290871784094859 1.0921993132033578 255 255 255
0.3465658047911675 0.0518298499497073 1.2358786018638477 255 255 255
0.0437715142385279 0.1620354058474573 1.1107392228244422 255 255 255
0.0866121087253646 0.1615667183947661 1.1319243788974767 255 255 255
0.1316409523521458 0.1686813309836996 1.1373188553127518 255 255 255
0.1587338474055369 0.1768735204490345 1.1430161442360334 255 255 255
0.3699840771348035 0.1059654225594019 1.3012346244387312 255 255 255
0.1612037584541644 0.1816991813933682 1.1612963439694786 255 255 255
0.1000065821635095 0.1928313353452808 1.1656392671870845 255 255 255
0.6700003850884693 -0.5069069451414022 1.2834723558535699 255 255 255
0.6483493748559749 -0.4863499566914284 1.2847793325878343 255 255 255
0.4952693070097905 -0.6708280607228417 1.5438335767912683 255 255 255
0.6359134746263706 -0.2400041187883155 1.2740802413178312 255 255 255
-0.4900876996662217 -0.1771383821708498 1.3171577273287616 255 255 255
-0.2318279237469899 -0.0154493547284138 1.0881122106376053 255 255 255
0.5926785501452807 -0.1400298497599910 1.2657664719934054 255 255 255
-0.4849893017670285 -0.0204488347668842 1.1606658475605411 255 255 255
0.5495714582326194 -0.1623076618940708 1.3483119871309703 255 255 255
-0.5297303336688006 -0.0110999055838827 1.2073502465282435 255 255 255
-0.1853119560459769 0.0759329535851253 1.1040719461865516 255 255 255
-0.5596286182408249 0.0179747429888230 1.2546804907415887 255 255 255
0.2079581439398695 0.1230241492025581 1.0961937072316246 255 255 255
0.3503411288513903 0.0620381736704667 1.2621303449970540 255 255 255
0.4088687638869829 0.0743362462057715 1.3036391790959470 255 255 255
0.2017874257056467 0.1583402124615032 1.1698782745906513 255 255 255
-0.0179321142014210 0.1835680173000848 1.1430605834681957 255 255 255
0.0374859821169208 0.1783933671473759 1.1531820690820804 255 255 255
-0.1630748056496179 0.1856571027278082 1.1741357657925322 255 255 255
0.0809406112262938 0.1931973520639760 1.1667371544203784 255 255 255
0.2605236302987830 0.1518300587227752 1.2707266521654608 255 255 255
0.0802903316600797 0.2023176407018196 1.1924191775702810 255 255 255
0.5710505032339886 0.2006056922835567 1.3097903579134076 255 255 255
0.2521376459393926 0.1902197173568181 1.3768940459752799 255 255 255
-0.0317413524664167 0.2396322119216755 1.2762447407171233 255 255 255
-0.0725697159291294 0.2424957406063075 1.2804608914163724 255 255 255
-0.0148282344896117 0.2544047709618826 1.3978041955333924 255 255 255
-0.0336082582865462 0.2681819061903182 1.4406372583429925 255 255 255
0.4136263726459751 0.2662872432089903 1.5336996934599108 255 255 255
0.3653814192186074 0.2584601810543872 1.6082732361708132 255 255 255
-0.0224034553333863 0.3182768369788266 1.5068215888641552 255 255 255
0.1327833770701433 0.0069515563486085 1.0238902121205642 255 255 255
-0.1889792338042630 0.0692537571553924 1.0862138599869631 255 255 255
0.1628588964536300 0.0790288809186473 1.0585362557341271 255 255 255
-0.0289038440253033 0.1463278935043105 1.0995617660927131 255 255 255
0.1678560399867184 0.1359816317558794 1.1104531410297049 255 255 255
-0.0179995600413282 0.1790755989143866 1.1495961620541040 255 255 255
-0.0694389487015881 0.2408962714659014 1.2746976409283679 255 255 255
0.3667056651169123 0.2611150676480202 1.5832311022618146 255 255 255
0.3748702964895091 0.3148208541039979 1.6058468467507099 255 255 255
0.0394199560151743 -0.0211904623036526 1.0280637199841660 255 255 255
0.0048524025941871 0.0410764618122350 1.0718778076008766 255 255 255
0.0779840409525498 0.1654697806584829 1.1283821698592154 255 255 255
-0.1404555037826873 -0.1552638933065110 1.1483423740858894 255 255 255
0.0966509610745427 -0.0729155522548201 1.0518324943436343 255 255 255
-0.3781161060732499 -0.2096637270030007 1.2401503977976809 255 255 255
0.0927105962125371 0.1363663844734431 1.1031550777056760 255 255 255
0.1696538046079889 0.1351248578053399 1.1077873736967283 255 255 255
0.0830913426562167 0.1875009443878876 1.1471289381849619 255 255 255
-0.3271577529850542 0.1611133112783464 1.2342580908350957 255 255 255
0.0923902050474874 0.2132319512437935 1.2140251898135124 255 255 255
0.0202754180397449 0.2147481171614013 1.2603327742627903 255 255 255
0.0642046036898544 0.2561625903823767 1.3661903534864721 255 255 255
0.4591231194681671 0.2504235588707527 1.3637789568796763 255 255 255
0.0877431388000999 -0.0672270876118373 1.0627303351832622 255 255 255
-0.3580215105420585 -0.1016825679262416 1.2102142231595650 255 255 255
-0.3142725879291723 -0.0191376882787271 1.1359957897363180 255 255 255
-0.3304425822606669 0.0356455966335443 1.1523895800777835 255 255 255
-0.2240428586518951 0.0833875793542499 1.0996379699573837 255 255 255
0.6159977350137174 -0.0297352573441055 1.2690658644652013 255 255 255
0.6150941067608188 0.0314337039868923 1.2054130242771948 255 255 255
-0.2820427581804525 0.0871268556918013 1.1746069683813871 255 255 255
0.6682618006788313 0.0516626366719521 1.1997090499826928 255 255 255
0.6058261138158662 0.0677105020226957 1.2059779041115382 255 255 255
-0.1624939894693344 0.1469828403397954 1.1620148009231694 255 255 255
0.6280942030530323 0.1206246564932950 1.2236724740782001 255 255 255
0.6522098751285879 0.1488908834976272 1.2174412615109285 255 255 255
0.6649082267435038 0.2443995751708250 1.2487564423008723 255 255 255
0.5534484445693694 0.2094525936273024 1.3835814635320882 255 255 255
0.1321694826241010 0.0260767548283326 1.0356949888400864 255 255 255
0.0995636477999304 0.0468533584795826 1.0404649519220450 255 255 255
-0.0838514157524877 0.1133287338507081 1.1453634406996065 255 255 255
0.6488601633598042 0.0639915667754616 1.2015711910461180 255 255 255
0.4846293971704115 0.0012480377133451 1.3524477929457099 255 255 255
0.5600955914517792 -0.0461675661110072 1.2305941324314127 255 255 255
0.6154385080656460 0.0792705213076549 1.2129167194479231 255 255 255
0.5697718459993710 0.1610714187893201 1.3388567605253727 255 255 255
0.6761306222967107 0.3307503732911067 1.3736965996969286 255 255 255
-0.0316726499169555 0.0264969970088083 1.0491951897854950 255 255 255
0.0735598580869915 0.0577063758572022 1.0448300530443624 255 255 255
0.6085211386698390 0.0161079575759608 1.2368825263993746 255 255 255
0.6432627198109843 0.1748673027285931 1.2570781699138642 255 255 255
0.5278558257154344 -0.0084617065549112 1.3370745361288963 255 255 255
0.5141212931383679 0.0289027269206642 1.3198521109068617 255 255 255
0.5955652599194264 0.1065237210004826 1.2271827808669007 255 255 255
0.6130761498618599 -0.1742383459362118 1.2317474807244206 255 255 255
-0.0813600088570097 -0.1088006730354548 1.1110355491099320 255 255 255
-0.2415281575573685 -0.0717461190954841 1.1244938791036372 255 255 255
0.6055304955994134 -0.0959090541339332 1.2520510359032329 255 255 255
0.3443989031060818 -0.1156997383933769 1.3100439430897515 255 255 255
-0.2754834167043871 -0.0297904820465652 1.1176917272246700 255 255 255
-0.3871921893328504 -0.0257622103837811 1.1525958899997171 255 255 255
0.1815890935478012 0.0374780715913884 1.0069939050617933 255 255 255
0.2186132308274993 0.0468288228513184 1.0115935460466152 255 255 255
0.3161975618756557 -0.0289738249324415 1.2222014004781405 255 255 255
0.6223098104534531 -0.0046037204408026 1.1865383732051697 255 255 255
0.6570477212683230 0.0011153571979443 1.2381656805416181 255 255 255
0.3235965615235488 0.0255167346947461 1.2045211577407200 255 255 255
0.3346954472261311 0.0404010241120271 1.2069676894016910 255 255 255
0.6118218997691437 0.0428097150356238 1.2005006721776648 255 255 255
0.4074669378338646 0.0260838379720656 1.2641938697615132 255 255 255
0.5905640188474313 0.0094613417991887 1.3159210049666796 255 255 255
0.6587773423628845 0.0480027852190310 1.2147354122506022 255 255 255
0.6616108420737866 0.0628782513479084 1.2000970879372115 255 255 255
0.6597695232069142 0.0747832856749689 1.2000392225759100 255 255 255
0.6357575193664771 0.0790217392074612 1.1978028905599676 255 255 255
0.6635673443738759 0.1400216924995148 1.1951866608546851 255 255 255
0.6509401463023851 0.1514535543853939 1.2443154447179132 255 255 255
0.6744365944543744 0.1561991186816887 1.2397798558888211 255 255 255
0.6750326899380814 0.1707814332324047 1.2323530343834412 255 255 255
0.6219402501711842 0.2421780589023634 1.3028454058213896 255 255 255
0.6641142762675679 0.3190656792909505 1.2725531809751007 255 255 255
0.6641339951312331 0.3962563607164064 1.2952455834896819 255 255 255
-0.1086520040956344 -0.1207809161875863 1.1446612730331553 255 255 255
0.6389476272036230 -0.1649045020697680 1.2433362181163452 255 255 255
0.0585771164022399 -0.0079730158149202 1.0273434988764560 255 255 255
-0.3459837910601965 -0.0507080889186120 1.1726150351120876 255 255 255
0.0441245621209202 0.0233341672987621 1.0232771839834098 255 255 255
-0.3657607693956330 0.0174772287093477 1.1404821645719030 255 255 255
0.0747929105464507 0.0583470799183447 1.0453564306456977 255 255 255
0.6188386818170085 0.0017641667658273 1.2552364570394969 255 255 255
-0.3272035539690175 0.0574290380712750 1.1341824175805775 255 255 255
-0.1829374752708831 0.0762793288786685 1.1043791653178974 255 255 255
0.4106832445039504 0.0777923249225413 1.3019286289259293 255 255 255
-0.5355384716372160 0.1324252956197668 1.3312100456379217 255 255 255
0.6012442505268646 -0.1736274007425989 1.2686018737662290 255 255 255
-0.1653038865676842 -0.0341448894451364 1.0853281078722694 255 255 255
-0.3350591329103408 -0.0356314876930977 1.1815727725444052 255 255 255
-0.1674547433270059 0.0875192858531726 1.1037872144379859 255 255 255
0.6044560510761258 0.0696107329360146 1.2101753271728179 255 255 255
0.5824507695514638 0.0457410347453120 1.3189413256857452 255 255 255
0.6201469024355726 0.0865177401243752 1.2649186991441550 255 255 255
0.6172902199313255 0.0946323023897065 1.2192194488834212 255 255 255
0.6143392828635054 0.1746429640563721 1.2688863311752927 255 255 255
0.6354738941627829 0.2431536593037732 1.2889473579288762 255 255 255
0.5870492057779894 0.2767977353549066 1.3224889114949434 255 255 255
0.4976959369971100 -0.3685964253235151 1.4341146521149370 255 255 255
0.6260017052432670 -0.1291443601764215 1.2326649652549386 255 255 255
0.4687414198166853 -0.0396920477396306 1.3038839750339841 255 255 255
0.6121052155629940 0.0153524437294467 1.1885783512329684 255 255 255
0.4198799406512568 0.0086452819704704 1.3075135032941314 255 255 255
0.4998710906673597 0.0096484057772975 1.3296700212840853 255 255 255
-0.1262880350375785 0.0922337258498466 1.1226090440626801 255 255 255
0.5887362627737046 0.1068024546602256 1.2354988554137889 255 255 255
0.2018668805516818 -0.0447026462075563 1.2895903259902330 255 255 255
0.3735714483048903 0.0058229892224893 1.2417527540801290 255 255 255
0.5847370660547944 0.1402858048038771 1.2531024606675982 255 255 255
0.5117702981303711 0.0147651424291414 1.3041672044474510 255 255 255
0.5027182620860838 0.2696776177874901 1.4612029186277276 255 255 255
0.4457079292530827 -0.5045413950793034 1.4942959886688676 255 255 255
0.5721316673598624 -0.4421955659523097 1.2867889625070470 255 255 255
0.5517202968654453 -0.4458303631906472 1.3115673338806710 255 255 255
0.4584283392916692 -0.5051430749364648 1.5864082197065981 255 255 255
0.5193382427067323 -0.4477925573029865 1.3481925735286169 255 255 255
0.4146749494453855 -0.4697907457404715 1.4595857729140846 255 255 255
0.5692065681125400 -0.4291512752998876 1.3017351834914370 255 255 255
0.5794558345107942 -0.4125645090531277 1.3200957599686804 255 255 255
0.5745476411296462 -0.4029542702229587 1.3320189368245852 255 255 255
0.5927002434688453 -0.3808689915767431 1.2839694882806914 255 255 255
0.5766794802446150 -0.3648920295500449 1.2946985978246179 255 255 255
0.6250900840969351 -0.3406526047344945 1.2547926338569617 255 255 255
0.4734284589084088 -0.3454725706825431 1.4171137406701524 255 255 255
0.5522704628395018 -0.3260376837120196 1.3332710677571447 255 255 255
0.0053216835896755 -0.3509074017426430 1.5139371998162265 255 255 255
0.5780726217653571 -0.3115515483438481 1.2824913667985336 255 255 255
0.6236578254446037 -0.3064490926873351 1.2583249217441075 255 255 255
0.5933930300746240 -0.3091982890608608 1.2869116322950631 255 255 255
0.5484418784854189 -0.3117442743957398 1.3366993398716285 255 255 255
-0.0015421872496419 -0.3327121681580892 1.4776761111165537 255 255 255
0.4906949095410457 -0.3132321657270176 1.3754552569605438 255 255 255
0.4556056696150844 -0.3199309683262744 1.4308292780257772 255 255 255
0.5693702968124709 -0.2958765552411518 1.2958580103872948 255 255 255
0.3906769615878553 -0.3259311130170873 1.5722940679317952 255 255 255
0.5483036720610428 -0.2929554084595877 1.3127018820836520 255 255 255
0.0724557331998970 -0.3132527876534962 1.4483434044424290 255 255 255
0.0478134330133183 -0.3074399377747804 1.4363365040782465 255 255 255
0.0214026510861879 -0.2977196531030787 1.4259521452402095 255 255 255
0.0609820098823413 -0.2641490788421569 1.3120232807343257 255 255 255
0.5136476117389421 -0.2620964322078671 1.3318677008355433 255 255 255
-0.2520622821066493 -0.2472864326668970 1.2834312611993759 255 255 255
0.0087540006506710 -0.2401915342383575 1.2770104370309205 255 255 255
0.4207719672196903 -0.2533286022135643 1.4219534868769874 255 255 255
0.0516310391153077 -0.2340227551975241 1.2824799744784963 255 255 255
0.5352742160420336 -0.2328034152287897 1.3093966700872537 255 255 255
0.4926817122030766 -0.2288573166282578 1.3697632322967217 255 255 255
0.2433191015126802 -0.2192609194619409 1.4553771223039913 255 255 255
0.2184841005916210 -0.2014284334689905 1.3282538655808429 255 255 255
0.5738052229175908 -0.2005202844082020 1.3269330232492640 255 255 255
-0.0959770457632431 -0.1862081318423913 1.1603756742899853 255 255 255
0.6448530229730627 -0.1924467204517859 1.2375783339575190 255 255 255
0.0431081277265952 -0.1842785538184885 1.1490460951517951 255 255 255
-0.3302528359578793 -0.1825821055140624 1.2057134771351714 255 255 255
0.6171931518383648 -0.1890949836527465 1.2542906979354873 255 255 255
0.0960913124265060 -0.1771301197104939 1.1441638236167953 255 255 255
0.0646914647783701 -0.1761833435375005 1.1517105428782364 255 255 255
-0.1352753786685812 -0.1683483362068835 1.1341962153864189 255 255 255
0.0974613845949927 -0.1700558595743495 1.1537416052709659 255 255 255
0.1496270784953207 -0.1707259958141079 1.1599496815311066 255 255 255
0.3058153216871199 -0.1769720466643323 1.3295613888138695 255 255 255
0.3501225862742458 -0.1768760174963262 1.3324776645548937 255 255 255
0.0799962788400192 -0.1547638096747887 1.1171202910414022 255 255 255
0.2862996525431782 -0.1628988647701262 1.3129848740058483 255 255 255
0.6613048953668863 -0.1617188726498141 1.2369203170866285 255 255 255
-0.2053787790743470 -0.1540911703100403 1.1234724302908310 255 255 255
0.5622103236048164 -0.1566499961700061 1.3085260736183770 255 255 255
-0.0728733161613311 -0.1481226854302368 1.1262542204881067 255 255 255
0.5824414523645625 -0.1533073582657040 1.2650571922367262 255 255 255
-0.4542462786756709 -0.1463946939647441 1.2434080825052956 255 255 255
-0.0530550515102343 -0.1475994003243475 1.1123365236258083 255 255 255
0.1612569555396423 -0.1431358978855918 1.1128506575429589 255 255 255
0.0054968401866839 -0.1407194946743874 1.0980271226403826 255 255 255
-0.1033966559656312 -0.1378797549994518 1.1219543383220267 255 255 255
-0.0192091184676431 -0.1333078288951499 1.0987983410446489 255 255 255
-0.0033016079384577 -0.1365460647189658 1.0986146431065629 255 255 255
-0.3405771037400607 -0.1362946281542377 1.1924426228435943 255 255 255
0.6003492037559257 -0.1361707776912615 1.2541897164683742 255 255 255
0.6636633056463093 -0.1356362422626588 1.2355977010233672 255 255 255
0.2989484576874858 -0.1366308101025221 1.3143311673400659 255 255 255
-0.3716967852937054 -0.1261699847652387 1.1872388306905228 255 255 255
0.4209154777930321 -0.1255366009184715 1.3174107808550894 255 255 255
0.3277196959910996 -0.1243373030773587 1.3009785403262129 255 255 255
0.6284485896676094 -0.1264654619849534 1.2488886682522633 255 255 255
0.2219948034193271 -0.1201871496360583 1.0865380702552352 255 255 255
0.3237952785103699 -0.1138592622548249 1.2923589100049144 255 255 255
0.6579574699547985 -0.1167559053420907 1.2317180506490149 255 255 255
0.1546137871507579 -0.1142809765147599 1.0936993134556987 255 255 255
0.2756640845735253 -0.1088210622745549 1.2118400949926680 255 255 255
0.6149451683312901 -0.1094843527620962 1.2327725491968757 255 255 255
0.5937152575188254 -0.1034961856865810 1.2578368397960480 255 255 255
0.1840265172966223 -0.1004273054501072 1.0859488095220267 255 255 255
0.6076488185419932 -0.0967309094561186 1.2289206468873881 255 255 255
0.3423897474901806 -0.0921113040498099 1.2764621875831625 255 255 255
0.6233532914600458 -0.0954486249759996 1.2315166026805648 255 255 255
-0.1498603297292918 -0.0913643025775938 1.1349758677826671 255 255 255
0.4053388819649930 -0.0876089646979665 1.2987961112029824 255 255 255
0.4263460097734555 -0.0871687587218768 1.2961423507041567 255 255 255
0.6020393545106311 -0.0871178621969370 1.2260509148329286 255 255 255
-0.1063149832495026 -0.0882182862606289 1.0937257265596672 255 255 255
0.1806081496897259 -0.0809265622612526 1.0620304133245151 255 255 255
0.6555922792496391 -0.0784974263781356 1.2248494391253784 255 255 255
0.6275700398315704 -0.0742615750721724 1.2139017394599914 255 255 255
-0.1353511368743034 -0.0680610009507658 1.1249269472598020 255 255 255
-0.1099232486479085 -0.0696347896535227 1.1166714841145993 255 255 255
0.3597694515962390 -0.0678177336474017 1.2628646740460476 255 255 255
0.2253176891329093 -0.0222299606833424 1.1771165279942313 255 255 255
-0.0198010387956497 -0.0641499582126864 1.0743093557085603 255 255 255
0.3646743444447766 -0.0597329734171574 1.2597491535143832 255 255 255
0.5027223816803353 -0.0573726830862855 1.3208635118167193 255 255 255
-0.1116036844818018 -0.0579377808840359 1.1075276210228286 255 255 255
-0.0332593407507840 -0.0593203785111603 1.0745637573382205 255 255 255
0.0554779155777284 -0.0604882648334613 1.0438706782964982 255 255 255
0.0647447048931668 -0.0641820261095946 1.0607212828810735 255 255 255
0.6664447521484639 -0.0576987871001040 1.2269957327227761 255 255 255
-0.0602806799967530 -0.0527678890766844 1.0706659921916473 255 255 255
-0.3813242199935939 -0.0383194401890950 1.1279254810562904 255 255 255
0.6321734609045667 -0.0462818506074972 1.2050524043991295 255 255 255
0.1061307879376338 -0.0449498824536277 1.0552246413019695 255 255 255
0.1571320250696329 -0.0406943770131085 1.0578492149638035 255 255 255
0.6445134658906153 -0.0407031642803930 1.1975210721474190 255 255 255
0.6364547768937463 -0.0350086581192024 1.1976303141712803 255 255 255
-0.0463272671258372 -0.0380205499636289 1.0173325101113762 255 255 255
0.5777398832454549 -0.0198626513443653 1.3117067732522500 255 255 255
0.3457443962056857 -0.0226510749718761 1.2258978656548796 255 255 255
-0.0200505597356715 -0.0284975676932151 1.0140571948061010 255 255 255
0.3545370538053698 -0.0138295618608572 1.2284876031148597 255 255 255
-0.0072275752349798 -0.0272462103520011 1.0344068337604908 255 255 255
0.5189157874776892 -0.0075649409872012 1.2994937196560514 255 255 255
0.3105747870346687 -0.0118040921770774 1.2421017619608210 255 255 255
-0.0409232444084848 -0.0027184023952752 1.0186715503170001 255 255 255
0.5644031169829444 0.0273176779929481 1.3327087139495095 255 255 255
0.6519727685699221 0.0138085706650462 1.1997041368710621 255 255 255
0.6077393046603478 0.0554910235887311 1.2497350614135501 255 255 255
0.0289600560525243 0.0414533535770976 1.0480789359806930 255 255 255
-0.5197184844240821 0.1520629654028669 1.4262093014060711 255 255 255
0.0781970573944734 0.0901469487678496 1.0834200530256659 255 255 255
-0.4287423999050169 0.1657417494347658 1.2424606555384945 255 255 255
-0.3729833139091490 0.1794133618525110 1.3065917519651331 255 255 255
-0.1597129722708478 0.1630710658309962 1.2143858246689598 255 255 255
-0.4113561232104540 0.1856244546160862 1.1828416018258270 255 255 255
0.7063822983079099 0.2272465980977813 1.2794510666975192 255 255 255
0.5529967613068266 0.3030939288363163 1.4503518228613914 255 255 255
0.6270976208550733 0.2715233377738032 1.3352154600514159 255 255 255
0.7075712194502158 0.2663112784412615 1.2861026398067781 255 255 255
0.6004943485723422 0.3250884543190150 1.3862661402551142 255 255 255
0.5275276391602998 0.3932592796436301 1.5302355543158115 255 255 255
0.7212574716173551 0.3058435191826401 1.2916976981112676 255 255 255
0.6650143955454357 0.3747248654680303 1.4305680868657134 255 255 255
0.5898370905578941 0.3666925870629200 1.3849265438728908 255 255 255
0.5604160003319201 0.4126350240263594 1.4858018957065442 255 255 255
0.7299658255669159 0.3593231551640128 1.2979901685381425 255 255 255
0.6039126675554792 0.4334800090473021 1.4436062849252216 255 255 255
0.6345692511065344 0.4167147413767666 1.3977254568270314 255 255 255
0.7271519199506730 0.3757812532198035 1.3035080908035135 255 255 255
0.5617621164913644 0.4849719552794423 1.5234310319641828 255 255 255
0.5481581568366332 0.5171066493306089 1.5281650690903110 255 255 255
0.6655871223339690 0.4817401987839856 1.3929483268241400 255 255 255
0.5327734329357787 0.5646387680919313 1.5483504004821411 255 255 255
0.5474753509383662 0.5404323084224690 1.4989705626251473 255 255 255
0.6764196510682596 0.5010632766156881 1.4077111929643671 255 255 255
0.6608270499498345 0.5009776101569721 1.3877164340646009 255 255 255
0.5280245796230069 0.6746544455294656 1.6676570291704447 255 255 255
0.5320373077625089 0.6389281226682019 1.5748592265484822 255 255 255
0.6533262840027744 0.5435379944898443 1.4073598845680861 255 255 255
0.6649721029425949 0.5216179220101615 1.3630800192155337 255 255 255
0.5488269269194506 -0.4290262665898328 1.3237381197765556 255 255 255
0.4359508426127091 -0.4725937963821010 1.5641567992367347 255 255 255
0.5167143120402640 -0.3755671224605292 1.4797093381322517 255 255 255
0.4556748623732015 -0.3751760264691874 1.5872117723146428 255 255 255
0.4782104590990242 -0.3308642791132580 1.4205050011746523 255 255 255
0.0485614688803876 -0.3241906591118536 1.4562917185991853 255 255 255
0.3958452863045029 -0.3263305576124700 1.5657454112170388 255 255 255
0.5513696698465366 -0.2455588197237778 1.3037825618203323 255 255 255
0.4940380418489184 -0.2488781215110807 1.3841862831474854 255 255 255
0.5362383941944362 -0.2181834597884188 1.3088356803675985 255 255 255
0.5625889825434037 -0.1971695864668033 1.2859646827235920 255 255 255
0.5539009726013632 -0.1917661862906608 1.3077339424147718 255 255 255
-0.0976719303196777 -0.1771792843399253 1.1538848407986855 255 255 255
-0.1393709265577860 -0.1745874752086085 1.1557287671093812 255 255 255
0.0801626319140210 -0.1627853957039684 1.1385935602483097 255 255 255
-0.3497321747652009 -0.1651409032890314 1.2132711762004231 255 255 255
0.3717129169647902 -0.1645566617998344 1.3245568520910249 255 255 255
0.6541144596201447 -0.1644510435040228 1.2449968210744746 255 255 255
-0.2788868756793190 -0.1693235071257665 1.2232173518274359 255 255 255
0.1494184227709345 -0.1515124653844765 1.1236405238524130 255 255 255
-0.0766821187310253 -0.1399766779222990 1.1249733715578845 255 255 255
-0.1563204627585997 -0.1382597441699720 1.1254042000059215 255 255 255
0.0648824584759902 -0.1379049566898133 1.1001576774845496 255 255 255
0.1203429264483251 -0.1182067921208837 1.0893518412838539 255 255 255
-0.1033649472979062 -0.1110227419707355 1.1182818305417703 255 255 255
-0.1854999557610186 -0.1037262668085039 1.1094315581133727 255 255 255
0.6645614316364650 -0.1055347001533102 1.2341881451837264 255 255 255
-0.5408919404946305 -0.0829300477324607 1.2530740596621193 255 255 255
0.4291583056469618 -0.0895999520153365 1.3037734244872687 255 255 255
0.0419577269696575 -0.0885430362880148 1.0685675784022317 255 255 255
-0.3234423945488575 -0.0786075378135077 1.1630182374934881 255 255 255
-0.1273200918715261 -0.0735335491516714 1.1204734034950576 255 255 255
0.1283853941470913 -0.0745963495025275 1.0789223857757169 255 255 255
-0.1463791529874625 -0.0600508286261264 1.1226406281220511 255 255 255
0.1308838189363674 -0.0420559453682163 1.0513563772397589 255 255 255
0.3798133153852916 -0.0279055224521846 1.2548077924647247 255 255 255
-0.3443646186935737 -0.0116261438096677 1.1501463594027255 255 255 255
0.5016694091248252 0.0191282794503468 1.3132452130969376 255 255 255
0.0874409469835640 0.0064482447616877 1.0571693044907979 255 255 255
0.6088499336859531 0.4394262072599726 1.4594603535080055 255 255 255
0.6414530497938571 0.4817545540603644 1.4188409732000788 255 255 255
0.4951994654843527 0.6060617613697539 1.6687394694895747 255 255 255
0.5656962288361567 0.5555620951787066 1.4778545167477439 255 255 255
0.5049308192241250 0.6501214493245234 1.6570815831106134 255 255 255
0.4911688550560078 -0.3420883722030086 1.4140125823691116 255 255 255
0.5763027717143392 -0.2530927023662918 1.2807218479572835 255 255 255
0.1819271063385085 -0.2313440744345479 1.3703432790605736 255 255 255
0.1094965478254717 -0.2171558229392621 1.3394487979185838 255 255 255
0.5603854404037143 -0.2103889726759032 1.3262634963328359 255 255 255
0.6309443021772567 -0.1877710976048149 1.2505923294994663 255 255 255
0.3100143071404097 -0.1816414530927451 1.3476352120352888 255 255 255
-0.1395604255540220 -0.1223220672808557 1.1218999778610894 255 255 255
-0.1058673801901369 -0.0928591587458334 1.1136573841608275 255 255 255
0.3265404557662737 -0.0931913523664027 1.2698838153064609 255 255 255
0.6261954570622362 -0.0472645235807791 1.2331234549967851 255 255 255
-0.5129176040357607 -0.0245404923333168 1.1994116468886837 255 255 255
0.2091185195940852 -0.0280728940565110 1.0329153644687044 255 255 255
0.4893575336117015 0.2774245505063727 1.4914989672409589 255 255 255
0.5565286742945773 0.4572398092762455 1.5368249831597018 255 255 255
0.4910643557525816 0.5246530826568122 1.6634453261529336 255 255 255
0.6806222543587014 0.4229792382427098 1.3556659681620262 255 255 255
0.6145112171936760 0.4959066047892596 1.4163348182924957 255 255 255
0.6512029781630421 0.4960899576445749 1.3755378245068097 255 255 255
0.4181579707222517 -0.4401278400594887 1.5784290918577495 255 255 255
0.5103668457780010 -0.4029454044643040 1.4960422513474312 255 255 255
0.0707364220321436 -0.2515133641413209 1.3331905542821600 255 255 255
0.1308947936023152 -0.2451445498722516 1.3391391260112253 255 255 255
0.0817622215800067 -0.1890426945223903 1.1661264719793740 255 255 255
0.6127050424601744 -0.1880181702975144 1.2559522086168577 255 255 255
-0.1208154248644290 -0.1677728811909513 1.1449017584169390 255 255 255
-0.2103591894438193 -0.1450940206170758 1.1003621732867639 255 255 255
-0.1657108958117683 -0.1399231828094895 1.0958451505016529 255 255 255
-0.0754072784215826 -0.1400787418638767 1.1249910828807133 255 255 255
-0.0970409464935067 -0.1334568530596457 1.1214684232851353 255 255 255
-0.1278043344868966 -0.1196590165421978 1.1247802818591894 255 255 255
0.0201230336326652 -0.1134885009525682 1.1052923343055499 255 255 255
0.1083016130714678 -0.1018329026629252 1.0764629452623751 255 255 255
-0.0762523655777333 -0.0910395030748316 1.1064589414093111 255 255 255
0.0260372312260363 -0.0919624279646168 1.0761207800428236 255 255 255
0.4315597421663963 -0.0865502221817896 1.3073392819335146 255 255 255
-0.3516150791640360 -0.0793255497134269 1.1513627862532063 255 255 255
0.1930411753994657 -0.0822620604332915 1.1081092388648592 255 255 255
-0.1105684785484483 -0.0810322804727200 1.1355143565992916 255 255 255
0.3138048194704127 -0.0639178976724021 1.2364828612982892 255 255 255
0.6182019285504987 -0.0652169698519850 1.2149259370614800 255 255 255
-0.5573555774753735 -0.0372996122592861 1.2472931685874584 255 255 255
0.5222390105488931 -0.0517144154741889 1.3168473855114464 255 255 255
0.1001083218687221 -0.0564187526799273 1.0685101490397242 255 255 255
-0.1896474328220649 -0.0497213641261704 1.0802516433858433 255 255 255
0.1955531101415344 -0.0573432031822029 1.0304439761230646 255 255 255
-0.3484612587765866 -0.0221988577205338 1.1517744880113532 255 255 255
0.0191574208810662 -0.0001185677740869 1.0356303663025221 255 255 255
-0.3866804762030746 0.1947743383996522 1.2640269230027033 255 255 255
0.4466283517813537 0.4551225846920761 1.7105649405549392 255 255 255
0.4741168715008415 0.5300645567009133 1.7187314350212570 255 255 255
0.6996027958316426 0.3816419711569624 1.3400255187303713 255 255 255
0.4616666211201815 0.5438285956696484 1.6897103891816414 255 255 255
0.4874993922101573 0.5704980667040636 1.7086073116820359 255 255 255
0.4754715101708870 0.5845270369362586 1.6765861254503904 255 255 255
0.6704954528598889 0.4661891634010930 1.3933677271243108 255 255 255
0.5053106559295519 0.6281199450022354 1.7052351665181400 255 255 255
0.0871366142838122 -0.2521178667494347 1.3354288809933372 255 255 255
0.0801777903055530 -0.1859184948033037 1.1561252162153348 255 255 255
0.1126691179659758 -0.1541819131749995 1.1210987040524290 255 255 255
-0.2718293509790823 -0.1045228282680392 1.1108912290177395 255 255 255
-0.0774325147469997 -0.0871067361185732 1.0942095427295169 255 255 255
0.0997660977821487 -0.0917627327501297 1.0646264088599224 255 255 255
-0.0379331935785125 -0.0817317725700404 1.0887963083310566 255 255 255
0.1311206208352362 -0.0747609929013792 1.0748581341450441 255 255 255
0.2948603881058625 -0.0461357459287984 1.2207060923338136 255 255 255
-0.1414308811343570 0.0408325090026850 1.1311161108293495 255 255 255
-0.2013229342647276 0.0730581855766043 1.1281796327197990 255 255 255
-0.3504830014925159 0.1276088943459868 1.2434888563667370 255 255 255
-0.4101177867388712 0.1621706459552566 1.2389711737768279 255 255 255
0.2491008473153659 0.1432318107256182 1.1215979495284432 255 255 255
0.5526536775259424 -0.0585112655585015 1.3304720260178646 255 255 255
-0.1403369187945929 0.0389880952817823 1.1173516580614409 255 255 255
0.4226774840655393 0.0677482268314973 1.3042841416838391 255 255 255
-0.3692169351437961 0.2048416010115997 1.3050174478201118 255 255 255
0.5169597832314339 -0.5021828897891772 1.3880343570918039 255 255 255
0.5133245569364850 -0.4872833559128797 1.3366309974449662 255 255 255
0.5264539074419505 -0.4778926629879775 1.3202381802480643 255 255 255
0.5371751219482178 -0.4735769716073720 1.3126621287612066 255 255 255
0.5111323873635026 -0.4735703424917219 1.3501948082446265 255 255 255
0.5519932844123503 -0.4666386049789631 1.2824403786029321 255 255 255
0.4488663223820697 -0.4700512202764534 1.5429854855682825 255 255 255
0.5463673402507337 -0.4646724459459948 1.2918247058643111 255 255 255
0.5023130359367304 -0.4548028363724744 1.3602482689584845 255 255 255
0.5430451118258706 -0.4454674125370260 1.3246254288467159 255 255 255
0.5099889227576254 -0.4452799412360714 1.3538947464829572 255 255 255
0.5006284949118115 -0.4275716400601410 1.3662238088463472 255 255 255
0.5202542928555883 -0.4263847809072355 1.3507260459488071 255 255 255
0.5046172542408532 -0.4105477888734405 1.3856241136601033 255 255 255
0.4816421533473221 -0.4127565942010404 1.3811572102960792 255 255 255
0.4260970755128645 -0.3861082488882293 1.5344151719503787 255 255 255
0.4430680178444122 -0.3658511325744147 1.4462106088738971 255 255 255
0.5138509663723367 -0.3651893313914997 1.3907598188231627 255 255 255
0.5329961904856664 -0.3646759191161908 1.3509701554436682 255 255 255
0.4538812495742313 -0.3604411453215972 1.4234121672449844 255 255 255
0.4921937622007175 -0.3588526066082444 1.3807825035408974 255 255 255
0.5807675500455847 -0.3564229130163451 1.2829203272608731 255 255 255
0.5546901561310433 -0.3487600565177099 1.3162992235803075 255 255 255
0.4480710661750372 -0.3291266449648926 1.4473323049164706 255 255 255
0.4593848143061404 -0.3279784690527495 1.4177470998325137 255 255 255
0.3560098797425322 -0.2937030847037259 1.6668016011864042 255 255 255
-0.0353055480686306 -0.3165177768294618 1.4467827923354706 255 255 255
0.5913099211857690 -0.3213107938229980 1.2675639476795764 255 255 255
0.0228359167774815 -0.3102793891714604 1.4454396402453886 255 255 255
0.5265665549610391 -0.3102581387540217 1.3427346781859686 255 255 255
-0.2175158772925826 -0.2834863428071729 1.5727554212948565 255 255 255
0.5319842609593077 -0.2958753484844198 1.3531641731556414 255 255 255
0.5581158750160797 -0.2866934861683141 1.2870822318098327 255 255 255
0.5344094742831946 -0.2834641388782848 1.3163819514287929 255 255 255
-0.1367401934652591 -0.2729357175675201 1.3435102883140171 255 255 255
0.4995961027299699 -0.2693839042178590 1.3733268824344018 255 255 255
0.5612896920208963 -0.2762157923758199 1.2851300504715042 255 255 255
0.0840964834956212 -0.2672349186582090 1.3688457320535965 255 255 255
0.5532945541834020 -0.2744932169303902 1.2906022682672311 255 255 255
0.5732892197649324 -0.2711858138202677 1.2772176191445455 255 255 255
-0.1703438223457667 -0.2654856662975866 1.3132965263358227 255 255 255
0.5388393567861106 -0.2633368895325118 1.3048875054274010 255 255 255
0.5468146327295073 -0.2623569288371000 1.2982182108320082 255 255 255
-0.1900299359695879 -0.2605854540280183 1.3000814470539626 255 255 255
0.0704429664392779 -0.2479430986762744 1.3760364616300822 255 255 255
-0.0691005701557585 -0.2582566810672481 1.2606514668089919 255 255 255
0.5228572510357334 -0.2493876616203932 1.3158287979858525 255 255 255
-0.0047689215979625 -0.2538788676977011 1.2648026441361575 255 255 255
-0.2170726893309177 -0.2494356647658738 1.2722961772449475 255 255 255
0.5414388965979672 -0.2375976342698903 1.2988104149183353 255 255 255
-0.1534858646137714 -0.2424562676895615 1.2506005710598003 255 255 255
0.0422028412229184 -0.2390887260761686 1.2502501770864900 255 255 255
0.1070019640342496 -0.2344682934180277 1.2565773150639581 255 255 255
0.5519108524558852 -0.2238515436544801 1.2919602707502724 255 255 255
0.3876125321205928 -0.2134807371631249 1.3559103893853546 255 255 255
0.5478704919811588 -0.2134929087892747 1.3023089755053117 255 255 255
0.0294416409443597 -0.2285125757917050 1.2444178921419891 255 255 255
0.4902449393623893 -0.1804998820689037 1.4099331579491308 255 255 255
0.1506647613847824 -0.2168750143750216 1.2403292607733893 255 255 255
0.0646672091535580 -0.2202766969653831 1.2096080978074222 255 255 255
0.6020414272713795 -0.2100369629909744 1.2654809671930314 255 255 255
0.2295943577168252 -0.1923337304122184 1.3187081012644251 255 255 255
-0.1372637095163715 -0.2123858698001354 1.2135012208742342 255 255 255
-0.1143466736536082 -0.2107904129668073 1.1826573264994598 255 255 255
0.1213796813289938 -0.2080307139671662 1.2069127431225815 255 255 255
0.5975596801697733 -0.1977826008362785 1.2549351054943594 255 255 255
0.0291287949449816 -0.2047675529383691 1.2167203981463572 255 255 255
0.1143622728363410 -0.2031248939510869 1.1928291229610419 255 255 255
0.2754775942368345 -0.1791649987342732 1.3216470777207514 255 255 255
0.1304588993400982 -0.2014809399029418 1.1946987506559950 255 255 255
0.5697922757371694 -0.1833527981177727 1.2776028429699058 255 255 255
0.0224072790947932 -0.2037053934027590 1.1591008733635590 255 255 255
0.5955210860999366 -0.1857607816756271 1.2531129206646729 255 255 255
0.2312013988408831 -0.1850216845765365 1.2554632307732476 255 255 255
0.0563595506196988 -0.1950834386859211 1.1784481257757331 255 255 255
-0.0401009790829300 -0.2004231354783364 1.1523622863950973 255 255 255
0.1422231891965437 -0.1904550243731951 1.1934042954970030 255 255 255
0.3108837254620038 -0.1646041954178958 1.3128932335659078 255 255 255
0.1225281254372388 -0.1924071401875533 1.1774490436468399 255 255 255
0.1799140903613346 -0.1863707440027654 1.1907850865630143 255 255 255
-0.0693541510562202 -0.1875197294177708 1.1556015928170473 255 255 255
0.3049024247831658 -0.1571641092185735 1.3062853839214288 255 255 255
0.1000527974927208 -0.1876974260398694 1.1592891137519918 255 255 255
-0.1618168038737789 -0.1844873799921469 1.1594090134417687 255 255 255
0.0433117910903613 -0.1843529428884415 1.1487863586520557 255 255 255
-0.1973818618425447 -0.1832229778858362 1.1303599432130873 255 255 255
0.1133743165631841 -0.1784999825143081 1.1605874794995856 255 255 255
-0.0457973655262880 -0.1810210610552561 1.1309124281213474 255 255 255
0.1622905002681974 -0.1779914451941257 1.1600479919548377 255 255 255
0.0649413490936657 -0.1768820892673933 1.1481648773194553 255 255 255
0.0873249381184540 -0.1766142789536596 1.1524291108710707 255 255 255
0.1220794119221835 -0.1766920957231005 1.1530525351001970 255 255 255
0.2825222514991272 -0.1479238138038442 1.2871066965218019 255 255 255
0.1760828386420795 -0.1691536619068028 1.1630629244469375 255 255 255
0.1169558885761137 -0.1711893412360437 1.1438314014274300 255 255 255
0.0980743131554096 -0.1688234357542281 1.1380961667595118 255 255 255
0.1383802249268085 -0.1643790219308811 1.1465541812319480 255 255 255
-0.1799192310056415 -0.1711558228893040 1.1026149734251260 255 255 255
0.0903709925853288 -0.1649576931374525 1.1343530555786694 255 255 255
0.1658432480958676 -0.1615251622262003 1.1540345554872562 255 255 255
0.0648709857561861 -0.1658424754218815 1.1256401620039878 255 255 255
0.1570515836427991 -0.1594470060170333 1.1398618176836126 255 255 255
-0.1536539743211576 -0.1597255381675227 1.1223235822138320 255 255 255
0.2337100982898616 -0.1349277117876840 1.2082667067406874 255 255 255
0.0665507088380832 -0.1541481999020870 1.1219545445434211 255 255 255
-0.1516872055703273 -0.1442569243432488 1.1204238630531047 255 255 255
0.5040586606409941 -0.1007368972940725 1.3222978399781453 255 255 255
-0.1129581289938275 -0.1426555830392467 1.1222114503787533 255 255 255
0.1844600125441842 -0.1444361561652372 1.1330213683973152 255 255 255
0.5463748208885152 -0.0980171623480710 1.3166676074945982 255 255 255
0.0845236009626810 -0.1458041837345079 1.1111839535912178 255 255 255
0.1139549259991540 -0.1455729736544789 1.1035562719746170 255 255 255
0.3948873615507018 -0.0965146937473529 1.2991902609486756 255 255 255
-0.2104316185357031 -0.1346042250969852 1.0945763282342942 255 255 255
0.2162993022269594 -0.1329093406266930 1.1370096713698665 255 255 255
0.1064040556472742 -0.1403632306246415 1.1016579495094481 255 255 255
0.3001701269449566 -0.1143582410148707 1.2170696926905751 255 255 255
0.0454404947165731 -0.1371931716483377 1.0997832910107916 255 255 255
0.2058083626486844 -0.1330687892437152 1.1256365480062684 255 255 255
0.5378857637684790 -0.0857211686820645 1.3010205243712918 255 255 255
-0.0862064008425573 -0.1136232287691992 1.1227356923636203 255 255 255
-0.1230842108926473 -0.0768017960725595 1.2905507047776335 255 255 255
-0.1089224921194917 -0.1184892221915208 1.1237736427333387 255 255 255
-0.0464401784339749 -0.1258714182596568 1.1033148942932027 255 255 255
0.0389971262230990 -0.1275401193712889 1.0803342109310403 255 255 255
0.1960080754432121 -0.1243457573144408 1.1024666711710160 255 255 255
-0.5468598474213894 -0.0607878666149153 1.2496289912226921 255 255 255
0.0980787321670302 -0.1122537222676751 1.0922054951530769 255 255 255
0.1851216248352912 -0.1137735158382410 1.0972584074680605 255 255 255
0.1344220372476397 -0.1111164651393534 1.0913491333016945 255 255 255
0.3741775931802730 -0.0588925458751239 1.2623831893771786 255 255 255
-0.1576238772323733 -0.0927271325170468 1.1119371580474238 255 255 255
-0.0293297404134214 -0.1034340332699053 1.0873112804122891 255 255 255
-0.1870703398733572 -0.0903177063196598 1.1025873262057901 255 255 255
0.0903927709219671 -0.1016734894217024 1.0856848863944466 255 255 255
0.3351946565159902 -0.0565866391098647 1.2385227822752325 255 255 255
0.0757543922922759 -0.1054984202715490 1.0678049949123407 255 255 255
0.1551504468306708 -0.1000423436737865 1.0839052442665329 255 255 255
-0.0108558831148080 -0.0883755988189132 1.0998356675009231 255 255 255
0.2186981329825453 -0.0973939424852701 1.0707360353765680 255 255 255
-0.1954599333924003 -0.0806360490271038 1.0794127122452610 255 255 255
-0.0209473876484600 -0.0827995207506785 1.0647019862625091 255 255 255
0.1941412303039789 -0.0881257241357310 1.0558054052914390 255 255 255
-0.2594063709509244 -0.0611643201864429 1.1048091312746733 255 255 255
0.1276919506033891 -0.0776778970682633 1.0748286950117871 255 255 255
0.1104935283631559 -0.0749011763451070 1.0791458947395260 255 255 255
0.5606322212113912 0.0069317743769078 1.3389515840972954 255 255 255
-0.1278039474532945 -0.0524707481450705 1.1169461394164788 255 255 255
0.0918534351885982 -0.0662605589424945 1.0721138793483225 255 255 255
0.0758120516443034 -0.0677609124970611 1.0544181082062318 255 255 255
-0.2724731665976716 -0.0209345578333134 1.1063979867929794 255 255 255
-0.0234889100785788 -0.0450108777815821 1.0398702973249305 255 255 255
-0.4810449565374176 0.0519064125445638 1.2298799886555207 255 255 255
-0.2923506054368553 -0.0201670393899919 1.1210118009272882 255 255 255
0.1846252081412832 -0.0333055737861226 1.0227321972032266 255 255 255
0.1515314796280037 -0.0237211145045796 1.0402279745973171 255 255 255
0.1933227639159338 -0.0281034907942554 1.0150636985537806 255 255 255
-0.4631849449760781 0.0564618102604408 1.1584762155969441 255 255 255
0.5874927328778559 0.1031399170778591 1.3251033495194444 255 255 255
0.0192098713252373 0.0004625326907046 1.0352582715384606 255 255 255
0.5420983619904368 0.1546184061508153 1.4079033260318474 255 255 255
0.2155698891031104 0.0036452902690392 1.0416772866096833 255 255 255
-0.4376298562159964 0.1018322275012478 1.2099128343580048 255 255 255
-0.3757197226373438 0.1023564842603506 1.2076386626394722 255 255 255
-0.4418999132382125 0.0915716714473645 1.1159300214940913 255 255 255
0.5387809783973286 0.2062156416228550 1.4215576943591810 255 255 255
-0.4463423609770520 0.1208159995049703 1.1742841445039225 255 255 255
0.5834981364730867 0.1444794649836798 1.2804739152943603 255 255 255
-0.4260096298644583 0.1434769546017149 1.1933239401236642 255 255 255
0.5365144479287025 0.2244865406549116 1.4231572627954119 255 255 255
0.4896647392210169 0.2967330617348279 1.4968610272133083 255 255 255
0.5800005722158901 0.2378467202139158 1.3834561309913647 255 255 255
0.4992587836956975 0.3297939868578851 1.5347681991248070 255 255 255
0.6201059002473447 0.2729180544146427 1.3765081045311711 255 255 255
0.6116483003122771 0.2818025751549126 1.3772186593877322 255 255 255
0.5897245745561293 0.3041415944911550 1.4109861566022708 255 255 255
-0.0126375992335584 0.1910371575881963 1.1649179883380674 255 255 255
0.6801452512206644 0.2625049630500256 1.3224344377797637 255 255 255
0.5799107517545636 0.3503866776172885 1.4469978282837304 255 255 255
0.6016629082240096 0.3447291806963650 1.4185260557246888 255 255 255
0.5192768232457294 0.4391551234638311 1.5521502341666020 255 255 255
0.5716108633172213 0.4147837497081744 1.5151529235681436 255 255 255
0.5780523326965507 0.3957450224137120 1.4811029404120137 255 255 255
0.5963979836210312 0.3862561163836445 1.4435564039660151 255 255 255
0.5794022735028805 0.4562473245825246 1.5469678995889786 255 255 255
0.6265875996286882 0.3542995150061443 1.3942438093590268 255 255 255
0.6459711713601651 0.3376039886525858 1.3599440984329492 255 255 255
0.6837917291581269 0.3724245153354735 1.3632361836983031 255 255 255
0.6605722186336835 0.3921138266970571 1.3854924144396541 255 255 255
0.5868848422062322 0.5011987915490651 1.5261179438749435 255 255 255
0.5800164546119081 0.5203941133792898 1.5230246328487318 255 255 255
0.6053488378031447 0.4759608230446506 1.4541410214983190 255 255 255
0.6584519875996645 0.4431963201271825 1.3846226809883342 255 255 255
0.6842163387194045 0.4697958440167500 1.3914994621655046 255 255 255
0.6825003564470488 0.4482286704139548 1.3624665883830465 255 255 255
0.5272912215052046 0.6794111335986424 1.6692800464761486 255 255 255
0.6284751513454970 0.5207359474818051 1.4221476652570970 255 255 255
0.6698870266194589 0.5162491629097830 1.3883994453992061 255 255 255
0.7058327093985417 0.5091463892939679 1.3583765656342293 255 255 255
0.4215028037816120 -0.4385552336669316 1.5869793369779412 255 255 255
0.3903124218867300 -0.3856270422340985 1.5932901472296483 255 255 255
0.3939570130402493 -0.3713330391741916 1.5641103688730107 255 255 255
-0.0443801967291312 -0.3556052903029782 1.5091629964865794 255 255 255
0.4204042692011622 -0.3232621678727320 1.4884305007671959 255 255 255
0.0487763994664973 -0.3282910414112483 1.4443804051662859 255 255 255
0.5754897926195300 -0.3306561030537129 1.3031735809114411 255 255 255
0.3859155913942292 -0.3045100487753000 1.5986770072158192 255 255 255
0.4735979456934076 -0.3101684144015037 1.5969320752019005 255 255 255
0.5190267448895696 -0.3128297607629593 1.3609500398132450 255 255 255
0.4490468168336584 -0.2876841779875639 1.4372827976050162 255 255 255
0.5836319761125054 -0.2967202322285160 1.2809732533897709 255 255 255
0.5019108243280693 -0.2857108375659571 1.3617798517451039 255 255 255
0.5153308890128925 -0.2789284539930143 1.3471253715566256 255 255 255
-0.0234001580764456 -0.2749773026197064 1.3208431838074253 255 255 255
0.5349635290216569 -0.2680362614319824 1.3166683369260910 255 255 255
0.0045325640084721 -0.2591309504087621 1.3327940076310014 255 255 255
-0.0213229416752789 -0.2613953756001303 1.2768885092497366 255 255 255
-0.2498220295377990 -0.2464996431762253 1.2684200895374953 255 255 255
-0.3284285356233182 -0.2102926191993235 1.2560087678892085 255 255 255
0.1987896472051573 -0.1958125636488921 1.2375628236036482 255 255 255
0.0222783732913168 -0.2032698408987521 1.1624636621293509 255 255 255
-0.1027779013140392 -0.1998347870638474 1.1682365087168323 255 255 255
-0.1553822135926953 -0.1987978090307243 1.1483989622146975 255 255 255
-0.3079444248290273 -0.1794093562974016 1.1976774280175102 255 255 255
-0.0755967114853907 -0.1847405907843515 1.2142368999838389 255 255 255
-0.0432567046099784 -0.1889512331855296 1.1484448039386534 255 255 255
0.0019332577650819 -0.1815227813146328 1.1358210065586583 255 255 255
0.2606534851396295 -0.1623262556252180 1.2596042966448673 255 255 255
-0.0993109583147713 -0.1770240695281169 1.1515763280726368 255 255 255
-0.2156448562340301 -0.1850410029931207 1.1261246757869818 255 255 255
0.5865058416002330 -0.1367005157229383 1.2977717912758375 255 255 255
0.2284658996190383 -0.1475819294944127 1.2089076090267330 255 255 255
0.2578486948868243 -0.1469212762285762 1.2264236486595168 255 255 255
-0.3122298822081703 -0.1576950411750361 1.1661341085006838 255 255 255
0.0811261780487169 -0.1644790604992802 1.1400427096341328 255 255 255
-0.1986839727496205 -0.1639446054526179 1.1103608644272820 255 255 255
0.0971537639225233 -0.1553060459592892 1.1189154116029567 255 255 255
0.1207882268329812 -0.1547007875568443 1.1207983887576629 255 255 255
0.1057797077771259 -0.1505009299688270 1.1144711542306434 255 255 255
