ply
format ascii 1.0
element vertex 687
property double x
property double y
property double z
property uchar red
property uchar green
property uchar blue
end_header
0.4696184938940530 -0.0105292030826614 1.2864963728790733 255 255 255
0.2858998042942780 0.0432042571998120 1.1994918468724440 255 255 255
0.1057824242265879 0.0911185585931483 1.0985580565466624 255 255 255
0.4815983884723683 0.0016135528135593 1.3030788363206489 255 255 255
-0.2585326572290846 0.0689936825276586 1.1945168184292900 255 255 255
0.3677905473439761 0.0380405898050802 1.2553072395852094 255 255 255
0.3004503575111225 0.0568460125520102 1.2200969314890586 255 255 255
-0.1444426916372278 0.1051981886550067 1.1355511768023672 255 255 255
0.4683978728350509 0.0321521453949581 1.2975669443916771 255 255 255
-0.0671728830770191 0.1028288736310057 1.1503399195183641 255 255 255
0.5494865617087339 0.0521962936029627 1.2425751642015070 255 255 255
0.1250109931987708 0.1149048703294806 1.1198694872766710 255 255 255
0.2194602160383564 0.1130651338281321 1.1245082304446836 255 255 255
0.0871954249587826 0.1180796615470170 1.1300837509126678 255 255 255
-0.1076570162709833 0.1160680276768399 1.1547210066172346 255 255 255
0.0728576495983003 0.1263652036216107 1.1311458349614834 255 255 255
0.1879263195687203 0.1236483984507055 1.1351019778344023 255 255 255
0.3857472177222014 0.0678645626783552 1.2859865597241089 255 255 255
0.1465849993290697 0.1248160163487725 1.1396651467641228 255 255 255
-0.2571707628682584 0.1027787703895938 1.2371101168723821 255 255 255
-0.0682676245409865 0.1220658850974585 1.1679111674277518 255 255 255
0.0446587318192283 0.1353335280786359 1.1498902180064881 255 255 255
-0.0502635123495303 0.1350776907190635 1.1761852831852562 255 255 255
0.0307537281630912 0.1452535358419303 1.1566311681453150 255 255 255
0.1297492145397602 0.1452631585172850 1.1637920733644700 255 255 255
0.1198254347365890 0.1543386959313059 1.1728755230513128 255 255 255
0.2474340011277880 0.1431005374254171 1.2674830719868946 255 255 255
0.5509695365588810 0.1279645970879219 1.2891003913699055 255 255 255
0.0728784499840116 0.1873821651646341 1.2345124336404065 255 255 255
0.1384756772283368 0.1878444131393585 1.2388208175592952 255 255 255
0.4570051367053996 0.1495421745403576 1.3570275533280385 255 255 255
0.4455641084925048 0.1560093446578365 1.3640608697066270 255 255 255
-0.1222399924141107 0.1879328947125543 1.2988192505530305 255 255 255
-0.2023727686885417 0.1870767174983126 1.3181740102015556 255 255 255
-0.0718510823351972 0.1915980599370439 1.3087478642327526 255 255 255
-0.0458368090361638 0.2024609539638999 1.2749504360333881 255 255 255
0.0528302113612837 0.2046127359542919 1.3053414885353536 255 255 255
0.0731064958318694 0.2068973727336217 1.3126331813513519 255 255 255
0.0041705177234507 0.2097416552539668 1.3356693154599200 255 255 255
-0.0201401146932729 0.2148703568048297 1.3870153754451096 255 255 255
0.4317020553660153 0.1984267412524044 1.4217384818729606 255 255 255
0.3223148156736046 0.1948146862008472 1.5344748644070170 255 255 255
0.4478546953345220 0.2081740002450257 1.4074645513286199 255 255 255
0.5402280606902207 0.2298793166843721 1.3221947910079201 255 255 255
0.4722653851754731 0.2167258476329255 1.3889310318266659 255 255 255
0.0042688165165448 0.2249187341991176 1.4377106945253812 255 255 255
-0.0216004957972739 0.2383374749519198 1.4590437945592116 255 255 255
0.3710704385688484 0.2303176216866183 1.4702733132656718 255 255 255
0.4498157208935114 0.2454884678290598 1.4110649763881955 255 255 255
0.5297218205095225 0.2964225329591214 1.3885888887459963 255 255 255
0.4453358469274294 0.2857117618023911 1.4687092092708898 255 255 255
0.4634152120922862 0.3035168386670503 1.4296706257004594 255 255 255
0.4723906116107432 0.3070185188410292 1.4189352731209346 255 255 255
0.5490582946568926 0.3111762619123732 1.3810318961241905 255 255 255
0.3723684389336068 0.3121099578231988 1.5548523798780123 255 255 255
0.5400043405545848 0.3460783359066295 1.3682701039281191 255 255 255
0.4951691581825868 0.3833951639392244 1.4168232540425709 255 255 255
0.5625101031101875 -0.3968715307303253 1.2757357141822039 255 255 255
0.5651912067478423 -0.2982445861863759 1.2704233060585743 255 255 255
-0.0923478345984268 -0.1594990971834822 1.1436974405151330 255 255 255
0.5358476445118631 -0.2322769480941383 1.2766461746295570 255 255 255
-0.2922212428204297 -0.1472320310064808 1.2041225603862706 255 255 255
-0.2864509784401432 -0.0580378531072713 1.1524896492013859 255 255 255
-0.1403999156109365 -0.0248283738311786 1.1087023684062598 255 255 255
0.1873231677215069 0.0351096886325220 1.0498630145508363 255 255 255
-0.0691075455107718 0.0306776195329938 1.1443645683853363 255 255 255
-0.4020822171705920 0.0059602478401902 1.2280817594467228 255 255 255
0.1964080183024492 0.0696689802491040 1.0775497034918211 255 255 255
0.0557511537799594 0.0839342638675960 1.1072784662133404 255 255 255
0.3147066993339910 0.0389831126716164 1.2168426030897375 255 255 255
0.2083384880030593 0.1019199248972970 1.1019449956082654 255 255 255
-0.0855827141616214 0.1117155241845618 1.1408632458970975 255 255 255
0.0555656583689768 0.1161029293796197 1.1264600160567466 255 255 255
-0.1351090552490569 0.1296363709978204 1.1496032226588053 255 255 255
0.1607201354215572 0.1275741291816106 1.1343302293397775 255 255 255
0.1307852367665321 0.1291317051340518 1.1441398736757253 255 255 255
0.0304873019552186 0.1318156586421615 1.1488719287878821 255 255 255
0.5380861497926768 0.0847251126216149 1.2764194193128493 255 255 255
0.1630005687598009 0.1451084199124004 1.1575287920988930 255 255 255
0.1199495944990610 0.1548213298388097 1.1708876996253723 255 255 255
0.1398511165635060 0.1736667850565670 1.2168403119473343 255 255 255
0.5142967602738104 0.1436166001901385 1.3015953241003861 255 255 255
0.5034966330493175 0.1591633527392662 1.3271815703690844 255 255 255
-0.2109236602569850 0.2085557599116328 1.3671428065977080 255 255 255
0.5022674058061630 0.2056790639108790 1.4206227692109161 255 255 255
0.4536650287743841 0.2210785380687859 1.4073227308338763 255 255 255
0.0929370036234081 0.2376148038121260 1.4097193394863425 255 255 255
0.5200940251030174 0.2603060217724972 1.3638898033825311 255 255 255
0.5096732660770620 0.2619580126667314 1.3707240887328465 255 255 255
0.4713637281237379 0.2917261290911069 1.4187638687104724 255 255 255
0.5192929712959318 0.3028416438212597 1.4351792284784621 255 255 255
0.5511251409057814 -0.3444363201846034 1.2888815620734679 255 255 255
0.4282877045051357 -0.4085399840449143 1.4582198234110673 255 255 255
-0.2621888013054859 -0.2053227884933764 1.2072629858012884 255 255 255
0.4983115646912258 -0.2620782295112374 1.3289096336226365 255 255 255
0.5366012310308531 -0.2346572192315410 1.2800231526352879 255 255 255
-0.2921347231986927 -0.1694086466783538 1.2060910412864130 255 255 255
-0.0677325198778225 -0.1497645250124404 1.1709540914451084 255 255 255
0.1746388402557969 -0.1085988179884407 1.1464644343947930 255 255 255
0.5391655655232821 -0.1661616513028970 1.2538577143995449 255 255 255
-0.1287769270567954 -0.0770657610681644 1.1256478921109825 255 255 255
0.1327829059689815 -0.0311035240873414 1.0753480444509596 255 255 255
0.1123751832717200 -0.0263742662189469 1.0812708206073389 255 255 255
0.2133695731993419 -0.0223361614741339 1.0793290003074754 255 255 255
0.1875267326405692 -0.0032934967291911 1.0488146563026519 255 255 255
-0.2460992728621071 -0.0404220166723018 1.1677541053696623 255 255 255
0.1792391748372926 -0.0044708496555951 1.0631652018609963 255 255 255
0.0540377362449402 -0.0000299087073625 1.0675349094289837 255 255 255
-0.0897276517070084 -0.0154962175801702 1.1136453744403367 255 255 255
0.0988919293465359 0.0061192194450490 1.0646528663781296 255 255 255
0.4625690420377841 -0.1166629845778456 1.3170630601906947 255 255 255
0.1139616658952617 0.0037460398696332 1.0841969921895429 255 255 255
0.1076886905201486 0.0345679131138867 1.0858578300662098 255 255 255
0.3027471247063087 -0.0152497494651473 1.2134785019620877 255 255 255
0.4988153874961413 -0.0611684204650641 1.3008081019946702 255 255 255
-0.2368928826284620 0.0203055540058006 1.1658426083022391 255 255 255
0.0597603444935411 0.0486180050392328 1.0871615698659720 255 255 255
0.2007724920209820 0.0609003014684019 1.0667706763598679 255 255 255
0.5292008854761207 -0.0341377077310076 1.2846985447116206 255 255 255
-0.0717923897569190 0.0483107222763604 1.1350068838213361 255 255 255
0.3588081912551406 0.0077865542870321 1.2334589846921331 255 255 255
-0.2707249412395299 0.0475355283428053 1.1838761383426044 255 255 255
-0.0698875790099573 0.0565492856982399 1.1529702433550100 255 255 255
-0.0367285873616883 0.0616995206764375 1.1472139242267887 255 255 255
-0.3327751994391083 0.0423537835161492 1.2179400966339795 255 255 255
0.1800028516812841 0.0781515466252656 1.0909593516841418 255 255 255
0.2017390311034304 0.0813705738210710 1.0869456378131861 255 255 255
0.5179069211056967 -0.0010227820305699 1.2998457823307108 255 255 255
0.4835937408020956 -0.0041026729437865 1.3047200297813102 255 255 255
-0.1058915385576992 0.0819518116905736 1.1436090135074535 255 255 255
0.1768472701395502 0.0975524577760009 1.1186652763169780 255 255 255
-0.1314544933443306 0.0955856911447578 1.1486718013999406 255 255 255
-0.1480164247512561 0.1064684507783114 1.1390926716980694 255 255 255
-0.0655676270965085 0.1032277835421816 1.1492485557390071 255 255 255
-0.0272940657580479 0.1053249498347463 1.1495165265144194 255 255 255
0.1571757969348194 0.1134351904277343 1.1224365334746589 255 255 255
0.1230366600653079 0.1158600011950062 1.1230825443898282 255 255 255
-0.1788941529868358 0.1124517074803617 1.1625291049097632 255 255 255
-0.2441854948817880 0.1141058557839386 1.2033399649622363 255 255 255
-0.0676196149369375 0.1217789907049733 1.1667370995818169 255 255 255
0.1616896814028222 0.1295105489730711 1.1443000094257261 255 255 255
-0.0489080330775947 0.1347697446763717 1.1764721325432335 255 255 255
-0.0054526423797943 0.1439800888453841 1.1538256413440380 255 255 255
0.0953812040189770 0.1431640791338319 1.1522595388975996 255 255 255
-0.1209787762924366 0.1451585764098344 1.1739398930758924 255 255 255
0.3646145700722515 0.0991614737418965 1.3069731312581778 255 255 255
0.4777384579401412 0.1032451218004924 1.3230966714876107 255 255 255
-0.1041373221657587 0.1516820364206372 1.2253127389300242 255 255 255
0.1086277457136197 0.1666416348317564 1.1917579109187364 255 255 255
0.4686530239671391 0.1180847979506847 1.3460899949908423 255 255 255
0.5019672823744769 0.1461188341907685 1.3110997795318668 255 255 255
-0.2059196814994791 0.1857423881631735 1.3299822035873181 255 255 255
0.3828687190949806 0.1568098205455996 1.3780198300109392 255 255 255
0.0559535056331950 0.2029083589782032 1.3042388692341611 255 255 255
-0.0292963465948745 0.2096234377544544 1.3355833278139628 255 255 255
0.0047080828085405 0.2089865884318476 1.3405801464471636 255 255 255
0.4524753603524138 0.1871279204252632 1.3911180410658548 255 255 255
0.4142789424272135 0.2036671404397878 1.4383811422931385 255 255 255
0.3062941556471567 0.1940453363953850 1.4970223458336904 255 255 255
0.3293330205356615 0.1997858821876453 1.5558618604293757 255 255 255
0.4763255515827974 0.2340972282259250 1.3927840401911356 255 255 255
0.3998902192175274 0.2270756628523803 1.4458623708759271 255 255 255
-0.0187060996030836 0.2391141201373897 1.4475997970430163 255 255 255
0.0731323152177291 0.2436511610866295 1.4253235589149196 255 255 255
0.4868611831980724 0.2525249298314609 1.3767122138111421 255 255 255
0.3626034870072126 0.2511314269867919 1.4908870837224377 255 255 255
0.3718643449589593 0.2879336624100201 1.5573888180817939 255 255 255
-0.2991888339316753 -0.1842390946805905 1.2270246051475886 255 255 255
-0.2642406427116594 -0.1662889122019432 1.1993474197845146 255 255 255
0.4695452545160988 -0.0950085598753826 1.2987355908536864 255 255 255
0.0605321731890487 0.0511804765120037 1.0952087646127417 255 255 255
-0.1637135470168053 0.0607225495290205 1.1320486653669657 255 255 255
-0.0991497952828356 0.1117219030887752 1.1322471710315387 255 255 255
0.1201216430612344 0.1205979020198874 1.1257785557774305 255 255 255
-0.0684924901855649 0.1226585994823273 1.1651815076941445 255 255 255
0.3464212938060550 0.0755565653342686 1.2711035726285917 255 255 255
-0.1160226891017853 0.1486979651219564 1.1681248860083131 255 255 255
-0.2674541774614265 0.1556548426142798 1.2045281184004448 255 255 255
-0.3635413790478831 0.1564039004493476 1.3941953014764850 255 255 255
-0.3358451382248968 0.1595896840744832 1.4144433030760968 255 255 255
-0.1139836981410665 0.1834900093545155 1.3070966143094451 255 255 255
0.1935146318349880 0.1793032342021658 1.3246867794584074 255 255 255
0.4721321876130422 0.1695306819332131 1.3604926147146310 255 255 255
0.0640197321491264 0.2024438848276571 1.3218741654236110 255 255 255
0.4325428348935463 0.1895645206662346 1.4255737862946622 255 255 255
0.3531107783598987 0.1975639321865652 1.5255707458242220 255 255 255
0.0245739435287990 0.0542575476864829 1.1029490517141898 255 255 255
0.4533490059833448 0.1498475462842602 1.3622523176502883 255 255 255
0.0243924004343732 0.2236012388873550 1.4034878336884136 255 255 255
-0.2964987115704286 -0.1602380856140657 1.1870732916951945 255 255 255
0.1541747978170812 0.0050882674767218 1.0715365037923235 255 255 255
-0.2104563180471189 -0.0138718075583051 1.1278456339848095 255 255 255
-0.0887511350704078 -0.0040521977490982 1.1121350020138536 255 255 255
0.0308303174830391 0.0286358000273921 1.0733316899674186 255 255 255
0.0597366757804103 0.0551649892051697 1.0941350040876614 255 255 255
0.1432959013196015 0.0569623222461621 1.1070279853465272 255 255 255
0.1818855278612184 0.0725667992058436 1.0860021349335358 255 255 255
0.1144343599840812 0.0868262929092485 1.1047376544763687 255 255 255
-0.0733357153156140 0.0844619382221422 1.1351410860894293 255 255 255
-0.1005387079050496 0.1089194145485626 1.1467218085360864 255 255 255
0.1559563821892435 0.1136179672407043 1.1240200978857764 255 255 255
-0.0527357838614355 0.1038392841716002 1.1703519144447705 255 255 255
-0.0689377842458970 0.1237296223746719 1.1679618439252684 255 255 255
0.3397065191017872 0.0817813994242227 1.2718408054404504 255 255 255
0.1376838852134796 0.1460538716734961 1.1636503253195369 255 255 255
0.0269954618812304 0.1512221143491836 1.1751460169232297 255 255 255
0.1105070196265699 0.1585121930923823 1.1825132951591029 255 255 255
-0.1987783327804824 0.1657237548256732 1.2667773826721604 255 255 255
-0.1584139018623023 0.1885772206313544 1.3073344745397273 255 255 255
-0.0163388441180110 0.1982191805041703 1.2538736911865966 255 255 255
0.1957199848031853 0.0102037642364075 1.0592007148301565 255 255 255
-0.0107687182887571 0.0691235326819183 1.1395828844821745 255 255 255
-0.1940628296352069 0.1585545823467023 1.2550280361234634 255 255 255
0.1055982433116786 0.1355300070507155 1.1339364102839875 255 255 255
0.5757707670664954 -0.4742722145421903 1.2454714227793386 255 255 255
0.6602684868129696 -0.4265180225245213 1.2021169519697306 255 255 255
0.5414067403129276 -0.4773516429817101 1.2752943595877810 255 255 255
0.6496198554777904 -0.4080023440733639 1.2104154781582666 255 255 255
0.5490286697860796 -0.4673064381109167 1.2801916661820565 255 255 255
0.5549204354420134 -0.4417755352363883 1.2638802259397457 255 255 255
0.6504179720518014 -0.3950351872002229 1.2164115444452130 255 255 255
0.6098692998627750 -0.4127204963903863 1.2377934472816576 255 255 255
0.5340755203349123 -0.4563165692782034 1.2835762363591130 255 255 255
0.5207947267053560 -0.4602911760217053 1.2969576773711218 255 255 255
0.5399816430331756 -0.4011537957257782 1.2876262417506779 255 255 255
0.6230439620539564 -0.3311883566128767 1.2222220327679465 255 255 255
0.5584454608316796 -0.3519153019496393 1.2801940453468952 255 255 255
0.6311909611492581 -0.2981069233349946 1.2203378697459824 255 255 255
0.6251458556572917 -0.2785697801028875 1.2252397810872917 255 255 255
0.6206135763415875 -0.2713854376316168 1.2296154736387068 255 255 255
0.6075637581243732 -0.2732831065046312 1.2399715945492795 255 255 255
0.5111307074209436 -0.3298083740750891 1.3233407507543586 255 255 255
0.5694034560105594 -0.2790260448348366 1.2645591277922890 255 255 255
0.5688346651125186 -0.2465011727232075 1.2578735305898308 255 255 255
0.5009851388492083 -0.2957237103712011 1.3201301270091159 255 255 255
-0.0662622867297253 -0.1430692267910570 1.1770761311327862 255 255 255
-0.1441863663049060 -0.1101666654885235 1.1614103150281023 255 255 255
-0.3808659743266442 -0.0913165929047910 1.1922791595944131 255 255 255
0.0432503362027667 0.0010626369024224 1.0665671324260284 255 255 255
0.0988060094756133 0.0085221840529167 1.0589080114642659 255 255 255
0.5461322018956661 -0.1535992315137606 1.2513205915164518 255 255 255
0.6103232509156228 -0.1398664976356641 1.2320105931178538 255 255 255
0.5459891080349850 -0.1549356179149610 1.2662781050967593 255 255 255
-0.3987673621454172 -0.0159385460576550 1.2397531983437708 255 255 255
0.2358688931559856 0.0609731676445546 1.1114478172496500 255 255 255
0.1210107410822029 0.0961117795840570 1.1170783178477579 255 255 255
0.3014843920289581 0.0336217325396545 1.2040579034630363 255 255 255
0.5705488020637476 0.0229163798146177 1.2332781421140517 255 255 255
0.1065710164823272 0.1327710328881732 1.1472411650484324 255 255 255
0.2864468201016954 0.0783758793101666 1.2383183109560922 255 255 255
0.3245656864494604 0.0683482606084701 1.2518354566122591 255 255 255
0.3479142621969949 0.0659246169468958 1.2589094100428648 255 255 255
0.1339473796488456 0.1381406575832297 1.1594409742434135 255 255 255
0.0886893185974685 0.1446916207534370 1.1614026147763901 255 255 255
0.3411680448882499 0.0776855352790338 1.2689008025137847 255 255 255
0.3216442974010292 0.0753300244076504 1.2831682110449112 255 255 255
0.3482612359549361 0.0835953094345982 1.2750005107406175 255 255 255
-0.1258987246228819 0.1605276551135159 1.1689297713938251 255 255 255
0.1678658550519091 0.1552422543612590 1.1649225681759789 255 255 255
0.2920762192339691 0.1017291755361368 1.2713616481260503 255 255 255
0.0639024017312125 0.1646586658291524 1.1863914536999054 255 255 255
0.3246387941127195 0.1029759120058566 1.2892923527983164 255 255 255
0.1652608602952635 0.1654484512987542 1.1881799081513837 255 255 255
0.3217559952631940 0.1064441711559211 1.2979942578841441 255 255 255
0.1539852869252865 0.1676580454906552 1.1978968022477490 255 255 255
0.1071011297904229 0.1705268765059350 1.2016968389843994 255 255 255
0.5360261465425409 0.1260192862971037 1.2629405478589002 255 255 255
0.0967759526970857 0.1735352000656878 1.2018465482559466 255 255 255
0.2933352933099773 0.1215755405807344 1.3014894985984828 255 255 255
0.5313965009417366 0.1318170828460092 1.2729106412008322 255 255 255
0.2857681227101999 0.1281759298919848 1.3094906012443557 255 255 255
0.3035246008201501 0.1254144682072450 1.3132739748521343 255 255 255
0.1325457666843743 0.1785206079231306 1.2281028339095219 255 255 255
0.2528383893025189 0.1491165651478341 1.2765210361864339 255 255 255
0.1482252214550453 0.1798296146474260 1.2232608807633998 255 255 255
0.5361364310250784 0.1436318127089955 1.2795460692591398 255 255 255
0.3093205034123847 0.1315624784596032 1.3223753694348237 255 255 255
0.2817248766964112 0.1359163288133313 1.3201143428145956 255 255 255
0.2924367644382919 0.1371151091022918 1.3252749377045507 255 255 255
0.2774886198962077 0.1440832452696301 1.3262442031404009 255 255 255
0.5402936967616490 0.1583603371152237 1.2874334841845974 255 255 255
-0.1524677633341428 0.1868268272458697 1.2890283876099637 255 255 255
0.5278196173542680 0.2069707433186231 1.3321752949884076 255 255 255
0.5516957757327601 0.2211312504115474 1.3124454759195525 255 255 255
0.4934981863595939 0.2042803032252441 1.3648781717603513 255 255 255
0.4420429506771418 0.2086951684159995 1.4051267415217787 255 255 255
0.5470768373679693 0.2403241905903400 1.3280029706746297 255 255 255
0.5489808580828693 0.2472195794676472 1.3277958632071671 255 255 255
0.5519650725869926 0.2578518556784301 1.3264062472674789 255 255 255
0.0619660991348449 0.2366871872696728 1.4164721323105500 255 255 255
0.5258824088517988 0.2605835597331320 1.3532553443940498 255 255 255
0.5295786785893168 0.2682057383769079 1.3497034033085811 255 255 255
0.5539834620085459 0.2872027756005223 1.3319085361711800 255 255 255
0.4099267838749688 0.2495076580317455 1.4548108680283953 255 255 255
0.4595529984389810 0.2654593582610591 1.4178549266853866 255 255 255
0.5175871357020561 0.2843663686545031 1.3682471862734142 255 255 255
0.5248518004266838 0.2915030971702461 1.3711023054114984 255 255 255
0.4829296112591471 0.2986184958184758 1.4070798741330841 255 255 255
0.4589964603608409 0.2995949610956568 1.4348157251168501 255 255 255
0.4368975161689614 0.3118886941182769 1.4619831730788930 255 255 255
0.6484106146181525 -0.3949770527501369 1.2250314292176701 255 255 255
0.5927329453793710 -0.4001596499598689 1.2416795369238938 255 255 255
0.6344768078130000 -0.3291275573296363 1.2131162774184949 255 255 255
0.4414718836321359 -0.4906101244943026 1.4124898572180487 255 255 255
0.5261447015826026 -0.2809370954203620 1.2925694302887836 255 255 255
0.5769576022368816 -0.1764857592218466 1.2125003520880215 255 255 255
0.5377295032402156 -0.1978262506532512 1.2645063196688531 255 255 255
-0.0728515839382297 -0.0790710517962184 1.1412243718554294 255 255 255
-0.3582811351339850 -0.0902287559481178 1.1866244227738170 255 255 255
0.0588658784324461 0.0279949608794530 1.0706070885161711 255 255 255
0.0449255342663435 0.0307636775766484 1.0815181009070043 255 255 255
0.1953273903172258 0.0820589972717399 1.0821251010028685 255 255 255
0.0010064315457530 0.0738283539353059 1.1266200038253518 255 255 255
0.0819406754315241 0.1048243921817228 1.1065431817805682 255 255 255
0.4605743026526057 0.0072300416778160 1.2985010813098501 255 255 255
0.1881017054265180 0.1398740911075742 1.1628459727016098 255 255 255
-0.0563235259191971 0.1489875253392836 1.1809432027911007 255 255 255
0.5488496855058222 0.1134176555653905 1.2457216427379247 255 255 255
0.3618073232238899 0.0982017904466599 1.3028100263547171 255 255 255
0.1147311891942866 0.1631821906462154 1.1983668990178657 255 255 255
0.4416707354873210 0.1143018003971533 1.3367401937930681 255 255 255
0.4245837527617199 0.1461395135142406 1.3611490419729630 255 255 255
-0.0953572928689623 0.1930061623448190 1.3006852464530576 255 255 255
-0.0754564239540468 0.1927237990180432 1.3016129810690362 255 255 255
-0.0443463758395294 0.1979993325016584 1.2887331984334702 255 255 255
0.5383564849622884 0.2986143534366739 1.3533875628363845 255 255 255
-0.0736306504790461 -0.1689673738589157 1.1675159976141607 255 255 255
0.5254824413798751 -0.1963861181323420 1.2704148610478536 255 255 255
0.2079773893691272 0.0398257400337898 1.0448509899256193 255 255 255
-0.0726766959822374 0.0425079426109098 1.1517284841529376 255 255 255
0.0903402016294921 0.0863255012516100 1.1053466349786851 255 255 255
-0.0083175587950587 0.0800604533656368 1.1221358677567350 255 255 255
0.2060301300136383 0.1167095259551966 1.1223149368167897 255 255 255
0.3360301412488244 0.0460279403058607 1.2357998384154021 255 255 255
0.0761277368815068 0.1434876393593391 1.1418689320223014 255 255 255
0.1139963505889131 0.1423347109581829 1.1592951357350221 255 255 255
0.1532536931086575 0.1485703683875845 1.1638564053029783 255 255 255
0.1768475877149108 0.1555745126414685 1.1689671181273100 255 255 255
0.3540379730702233 0.0890729264831773 1.2912068637319605 255 255 255
0.1789921905687222 0.1588044640597230 1.1845677699909387 255 255 255
0.1258330407625159 0.1677682598964867 1.1896320349948983 255 255 255
0.5914043265886373 -0.4047815580646373 1.2461163785548486 255 255 255
0.5742364707083177 -0.3884869778933045 1.2477527446532009 255 255 255
0.4337133625869125 -0.5031166680267321 1.4197902430482099 255 255 255
0.5703977658021304 -0.1935337157044612 1.2502365063517631 255 255 255
-0.1608055575713400 -0.0104272008073664 1.1134818199306509 255 255 255
0.5414660261273964 -0.1173577530057748 1.2570328129085846 255 255 255
0.4956378732535990 -0.1295856307087644 1.3102524740269184 255 255 255
-0.4038858857830794 -0.0098515016509885 1.2135321231040690 255 255 255
-0.1215864852516521 0.0692949497128743 1.1297280290345493 255 255 255
-0.4243564393745449 0.0135664735136467 1.2529335850381764 255 255 255
0.2201260588313745 0.1113202484614862 1.1252668742755860 255 255 255
0.3384560985196221 0.0541832466113733 1.2567083227361537 255 255 255
0.3858854817650502 0.0633151888412976 1.2901936208107556 255 255 255
0.2141624000841430 0.1384029619472606 1.1897848309916705 255 255 255
0.0228148466403778 0.1602056623527988 1.1711664265998389 255 255 255
0.0714506049136575 0.1554649983731664 1.1788847542786955 255 255 255
-0.1004993856168523 0.1614660654762517 1.1946374712789340 255 255 255
0.1092960953244236 0.1679117356014546 1.1907179798352880 255 255 255
0.2631219538395332 0.1282144360936432 1.2710561808379972 255 255 255
0.1090594978226575 0.1743194792349386 1.2127081408087730 255 255 255
0.5246940878914135 0.1688181067839830 1.3042472201689883 255 255 255
0.2545199121391274 0.1549482169660871 1.3568398335375773 255 255 255
0.0146728850342419 0.2005516019412683 1.2847399475497281 255 255 255
-0.0199851678777971 0.2024403754172372 1.2888366357450438 255 255 255
0.0332347877997278 0.2067753836510142 1.3774318722916086 255 255 255
0.0190011519210786 0.2156241189977594 1.4103603650861796 255 255 255
0.3807326481832445 0.2139581331052376 1.4650130645005845 255 255 255
0.3413703185841318 0.1988559208772281 1.5300515728143951 255 255 255
0.0295625010797093 0.2523850844813662 1.4638883237787401 255 255 255
0.1545807353517432 0.0119097077925059 1.0571346635467758 255 255 255
-0.1265845970766204 0.0633595019774669 1.1155123551501920 255 255 255
0.1808917034941774 0.0730417553785492 1.0921218620453537 255 255 255
0.0123262577147799 0.1299067859594148 1.1318505608183420 255 255 255
0.1849348677536525 0.1217052712273266 1.1385896635014148 255 255 255
0.0230778620266603 0.1559459749270374 1.1763299406336016 255 255 255
-0.0170152020484438 0.2025107389851880 1.2816877837725162 255 255 255
0.3436198094933715 0.2014552316354430 1.5148256631328825 255 255 255
0.3502377352676630 0.2430309445278453 1.5368243691081709 255 255 255
0.0728197952358950 -0.0132089691763555 1.0601766814170615 255 255 255
0.0428398961110645 0.0396719790046009 1.1014927458710708 255 255 255
0.1063716859877280 0.1458676191258556 1.1566231583380768 255 255 255
-0.0752248319490259 -0.1283929622801656 1.1573025409605617 255 255 255
0.1236775640655164 -0.0589838782256025 1.0794102467743267 255 255 255
-0.2631792700155695 -0.1698698629594476 1.2248377997458144 255 255 255
0.1192151843251271 0.1217531062119835 1.1331682353474510 255 255 255
0.1865132243739289 0.1210907131499840 1.1362573375510712 255 255 255
0.1109082822281258 0.1641139345270818 1.1738115724489109 255 255 255
-0.2374849766450762 0.1346114683657237 1.2469436562846286 255 255 255
0.1197098829097053 0.1825744952866683 1.2310956337781149 255 255 255
0.0593593170798875 0.1818201222741138 1.2670072933272174 255 255 255
0.0978223168918348 0.2093492925425514 1.3558976104930272 255 255 255
0.4283173883966248 0.2071206426795970 1.3505577451528963 255 255 255
0.1153078120392574 -0.0563820120316162 1.0928118595226450 255 255 255
-0.2546890919987995 -0.0824061786839123 1.2059470617745378 255 255 255
-0.2273474897697478 -0.0130909432656074 1.1504169661685912 255 255 255
-0.2407137930467412 0.0339432446829243 1.1655654298400699 255 255 255
-0.1548409930091132 0.0762236084869143 1.1250748524267971 255 255 255
0.5608004134664368 -0.0236702760822387 1.2602160306410051 255 255 255
0.5671446650412152 0.0285729712891652 1.2132348150657402 255 255 255
-0.1976541908019698 0.0781960245963066 1.1849365903589155 255 255 255
0.6137678699073579 0.0459202622049590 1.2100767754314516 255 255 255
0.5598077226126087 0.0595482397399753 1.2156529042528419 255 255 255
-0.0981083753783091 0.1299350547647936 1.1786254046289228 255 255 255
0.5782284555336067 0.1045435900409182 1.2319621434274821 255 255 255
0.5998320357435997 0.1293103382917291 1.2284798719471821 255 255 255
0.6099275155058453 0.2105551849142646 1.2589204627813664 255 255 255
0.5029411776806562 0.1745892652257878 1.3564470942760372 255 255 255
0.1540049112029712 0.0258809322915702 1.0720012322616692 255 255 255
0.1250910298026474 0.0441338298888142 1.0771518351987208 255 255 255
-0.0318777476075317 0.1006883912232802 1.1652734796243207 255 255 255
0.5950169474930592 0.0577283440468198 1.2080609479580611 255 255 255
0.4451230030132930 0.0028688595207861 1.3218038698439274 255 255 255
0.5167107913841114 -0.0377633940735776 1.2301097433208037 255 255 255
0.5675530157162608 0.0694972871111301 1.2212439844220133 255 255 255
0.5190843285532503 0.1358408133529517 1.3207320876921265 255 255 255
0.6092122556706453 0.2770521164876016 1.3604407482024778 255 255 255
0.0098626968559381 0.0263071453637175 1.0831157263374467 255 255 255
0.1019320859361336 0.0539706524665638 1.0809689540156531 255 255 255
0.5580978808763071 0.0151714007908020 1.2372114158569734 255 255 255
0.5887719452253299 0.1503299661014762 1.2606387801459822 255 255 255
0.4817716072339391 -0.0052562891884843 1.3106982416923194 255 255 255
0.4720327721901875 0.0258249117765850 1.2993218448310613 255 255 255
0.5494355291190928 0.0926221252136323 1.2335053913372074 255 255 255
0.5622002301576012 -0.1469596738065604 1.2326747963531521 255 255 255
-0.0307055452654786 -0.0923179383394478 1.1341107247184743 255 255 255
-0.1682598587256812 -0.0593932133454771 1.1450500243544111 255 255 255
0.5539643276246549 -0.0796971200851381 1.2477042169444938 255 255 255
0.3315214529266411 -0.0949568818637246 1.2920542748708470 255 255 255
-0.2874255657771915 -0.0184828023839423 1.1618446054404066 255 255 255
0.1977694747268932 0.0360969048661644 1.0489357770806873 255 255 255
0.2306817958539485 0.0445303620630554 1.0547043029443035 255 255 255
0.3108499622771272 -0.0225477959718154 1.2235478132025783 255 255 255
0.5746720063313739 -0.0020930565080815 1.1976610948093995 255 255 255
0.5998598611805963 0.0023973127683106 1.2393798964580500 255 255 255
0.3179037605251264 0.0238884560105750 1.2106740042540853 255 255 255
0.3273388456159266 0.0365647613575497 1.2130393048531338 255 255 255
0.5644258187476372 0.0386847344477671 1.2089478601008619 255 255 255
0.3863576042922125 0.0238407177634817 1.2570482249876307 255 255 255
0.5351037017748902 0.0096518482926424 1.2943973300073615 255 255 255
0.6018245433602487 0.0435427819910520 1.2174281515820080 255 255 255
0.6086634332984351 0.0555659860151709 1.2118454864814545 255 255 255
0.6072572906932834 0.0658323692192195 1.2122092493345917 255 255 255
0.5868504513620615 0.0695485994217442 1.2103348898115927 255 255 255
0.6120901874292127 0.1223471232339934 1.2109599371732365 255 255 255
0.5960536080761816 0.1305196889759877 1.2492099485564716 255 255 255
0.6146463863116384 0.1350364173433091 1.2423883974765630 255 255 255
0.6183929627006852 0.1475471898082826 1.2414667835058830 255 255 255
0.5674598804037224 0.2050102557151465 1.2990207852059417 255 255 255
0.6080788221997905 0.2731875729952492 1.2818722168674717 255 255 255
0.6078429318362651 0.3383661325799064 1.3057902301090167 255 255 255
-0.0524028294123353 -0.1011029790306948 1.1611146156182868 255 255 255
0.5829868700228605 -0.1386584857237682 1.2415356956463639 255 255 255
0.0883020955510252 -0.0043600599900498 1.0655574276662385 255 255 255
-0.2509399266013491 -0.0405904484484303 1.1810516827780146 255 255 255
0.0754807315203153 0.0235481459758001 1.0622810609630726 255 255 255
-0.2721681727974548 0.0185251279915144 1.1545403995145682 255 255 255
0.1029340891764166 0.0545182177865928 1.0820868039173863 255 255 255
0.5655712622168210 0.0030169739600091 1.2516405985248824 255 255 255
-0.2399964927792997 0.0529473737382508 1.1502412107947424 255 255 255
-0.1190248535899936 0.0696874663794709 1.1282787868367725 255 255 255
0.3874856744595900 0.0667201337257511 1.2877267599202205 255 255 255
-0.3884017828499023 0.1124246825474323 1.2990352426167047 255 255 255
0.5485445250494758 -0.1449188207398500 1.2599021209482260 255 255 255
-0.1046897043426651 -0.0266045883006597 1.1113280540098023 255 255 255
-0.2397419653510052 -0.0269092067135222 1.1848377145641906 255 255 255
-0.1056326013233093 0.0793294473023117 1.1283339813169730 255 255 255
0.5585127679108670 0.0612633499151774 1.2192413386301921 255 255 255
0.5294105986823344 0.0396405966808565 1.2994027358711058 255 255 255
0.5670255331778230 0.0744861357122801 1.2620802719175011 255 255 255
0.5689538295756306 0.0825580468642154 1.2272022652628247 255 255 255
0.5627663981511212 0.1493977521756295 1.2685596578148248 255 255 255
0.5800754690696196 0.2068776553352034 1.2880563019407807 255 255 255
0.5365340613876326 0.2334256775102415 1.3138711881359149 255 255 255
0.4500983419155618 -0.2963669359613404 1.3782879121368428 255 255 255
0.5731567230436095 -0.1084899406216610 1.2332488660108325 255 255 255
0.4351329211129664 -0.0313801601582683 1.2857489341110937 255 255 255
0.5666640185481637 0.0147949907255967 1.2010919791289121 255 255 255
0.3943790304116140 0.0090722905752540 1.2879369854744018 255 255 255
0.4593003607334215 0.0097761901992403 1.3053785729380023 255 255 255
-0.0689618844422635 0.0830002635926518 1.1443171930958700 255 255 255
0.5430890004934474 0.0926070092323822 1.2398297106264142 255 255 255
0.2137911763748085 -0.0348728666934159 1.2710181803963692 255 255 255
0.3587822936654226 0.0069168117633425 1.2389410140752570 255 255 255
0.5385263733440814 0.1206902225758599 1.2546110787212670 255 255 255
0.4704711239825354 0.0142959746916903 1.2848131476668403 255 255 255
0.4559111438794465 0.2192168124476300 1.4113506705540984 255 255 255
0.4150081769785356 -0.4081273313100049 1.4687641466871566 255 255 255
0.5299830491190920 -0.3745488788888867 1.2918630184856525 255 255 255
0.5142104506802997 -0.3756428304814355 1.3222287045533812 255 255 255
0.4155099686442352 -0.3972385519099378 1.5106477272120464 255 255 255
0.4837664066862482 -0.3741234748125104 1.3514505917450435 255 255 255
0.3877309777220974 -0.3806941627836265 1.4244373641642629 255 255 255
0.5294194382054255 -0.3621137097510386 1.3122504914964892 255 255 255
0.5308816741664892 -0.3450592630999832 1.3109224776260966 255 255 255
0.5256607223399515 -0.3357973053634737 1.3197803236138486 255 255 255
0.5491721714524018 -0.3217163717469200 1.2930313074145130 255 255 255
0.5340189479472712 -0.3068846654095189 1.3000672379109537 255 255 255
0.5779789965964417 -0.2894676746222554 1.2664320843781500 255 255 255
0.4382774423927317 -0.2802512484237500 1.3933383010878928 255 255 255
0.5059011838156996 -0.2702719665425204 1.3180762093713856 255 255 255
0.0542156706921488 -0.2753171909634126 1.4571367368053567 255 255 255
0.5343656705305221 -0.2619825604435423 1.2861065201683299 255 255 255
0.5752132762214124 -0.2594886229579029 1.2663112475243916 255 255 255
0.5439717309219210 -0.2593489771900606 1.2813976841827488 255 255 255
0.5022580352589564 -0.2579352892181790 1.3202035959192078 255 255 255
0.0476086541177427 -0.2628644777951032 1.4359978984163799 255 255 255
0.4526167747154448 -0.2566132662256642 1.3542772596309318 255 255 255
0.4222394934458614 -0.2578100049348220 1.4017189329164184 255 255 255
0.5227877111003226 -0.2472818321372192 1.2880463849809769 255 255 255
0.3614629029794324 -0.2538838934930924 1.5026008904434347 255 255 255
0.5037184121383145 -0.2436105576808865 1.3011137449221628 255 255 255
0.1070500138840722 -0.2492096204630020 1.4076553936492000 255 255 255
0.0875680089570788 -0.2451561447627163 1.3998188636834594 255 255 255
0.0650073011362810 -0.2373321423013268 1.3955036825739509 255 255 255
0.0957201147888500 -0.2165893184736042 1.3045081125039040 255 255 255
0.4729726409624393 -0.2162057917286304 1.3150215641795324 255 255 255
-0.1691756492839751 -0.2023295869961808 1.2841600944943734 255 255 255
0.0495768400089224 -0.1977875222995834 1.2797060537527678 255 255 255
0.3927793410713035 -0.2026375925988376 1.3907170007791592 255 255 255
0.0867079293007417 -0.1926043513870682 1.2820087598670897 255 255 255
0.4939633455561437 -0.1925585128476843 1.3013079339034572 255 255 255
0.4545022986677652 -0.1857657697552875 1.3485639195047576 255 255 255
0.5236880042632615 -0.1650361898828545 1.3109633725975296 255 255 255
-0.0437068015854476 -0.1564788865616670 1.1823123210552289 255 255 255
0.5914404085950260 -0.1626724727561232 1.2411837191131680 255 255 255
0.0764322282684314 -0.1561311129987283 1.1717264173912070 255 255 255
-0.2406520799956273 -0.1506289546258358 1.2184676824677199 255 255 255
0.5663075345437433 -0.1589186145867189 1.2543916786583220 255 255 255
0.1223390024325628 -0.1505371237511966 1.1664713113876974 255 255 255
0.0954403983398097 -0.1493504217747876 1.1724194809587396 255 255 255
-0.0787591052686461 -0.1420439161913665 1.1594035790395671 255 255 255
0.1239692583882047 -0.1439152093924243 1.1743397780525080 255 255 255
0.1690358226561177 -0.1446157615748976 1.1782153628429066 255 255 255
0.2997656256541235 -0.1432137065734129 1.3153756971875723 255 255 255
0.3362531873993098 -0.1438697625614908 1.3156025161910256 255 255 255
0.1081228310569632 -0.1320136612935965 1.1428251179099087 255 255 255
0.2837614891614947 -0.1320370391566099 1.3017464238299448 255 255 255
0.6045793765447451 -0.1365161186538376 1.2387481237386866 255 255 255
-0.1402686088864567 -0.1298342158047322 1.1503700487200983 255 255 255
0.5146175501080483 -0.1287707187348942 1.2953037902761853 255 255 255
-0.0246413005183510 -0.1251056628912869 1.1515969410335889 255 255 255
0.5350463717283318 -0.1277402020076347 1.2610067270594005 255 255 255
-0.3395131870090448 -0.1180257644500782 1.2461183231079809 255 255 255
-0.0079136617594516 -0.1253436053417786 1.1391757920124570 255 255 255
0.1788485968600844 -0.1225564166406956 1.1382494286793967 255 255 255
0.0425810731423636 -0.1200637337293746 1.1264972602294061 255 255 255
-0.0509794925286480 -0.1163162515622738 1.1470624258254472 255 255 255
0.0212579350023513 -0.1134631960113628 1.1269113830277804 255 255 255
0.0350777862187445 -0.1163408698526204 1.1270787594114140 255 255 255
-0.2497474758427884 -0.1112356784970087 1.2070964892954563 255 255 255
0.5507955028772958 -0.1134861187613682 1.2520687498456080 255 255 255
0.6059257965877003 -0.1143575835109502 1.2361758107684393 255 255 255
0.2941902723237049 -0.1102660283469830 1.3006438627594052 255 255 255
-0.2753796557521329 -0.1030844121828294 1.1997719583263438 255 255 255
0.3955634993883730 -0.1018425843404417 1.3008284431305912 255 255 255
0.3185146517543054 -0.1010688932422573 1.2879014544435188 255 255 255
0.5745900662421937 -0.1059733110538798 1.2463413774784862 255 255 255
0.2320279598322151 -0.1036617301588181 1.1147308569614989 255 255 255
0.3153353146684948 -0.0921971167891668 1.2820514389191118 255 255 255
0.6009033879461468 -0.0984017979724581 1.2320625061809216 255 255 255
0.1734278927044233 -0.0975278835284131 1.1206731656139173 255 255 255
0.2766233954886839 -0.0902398435977758 1.2175402703821825 255 255 255
0.5640963768405842 -0.0920085174964605 1.2326269153479541 255 255 255
0.5439567504960131 -0.0859864423268135 1.2525689497077552 255 255 255
0.1990294699024565 -0.0859630808736646 1.1132798121327476 255 255 255
0.5579149468575383 -0.0812602126520185 1.2289261714802409 255 255 255
0.3311304482198477 -0.0746003902564380 1.2684738654335523 255 255 255
0.5709892423125879 -0.0801727627228443 1.2308989999539239 255 255 255
-0.0896753722486436 -0.0751998579759554 1.1570679915907216 255 255 255
0.3829508908252752 -0.0708446448098417 1.2841216645442042 255 255 255
0.4006881075182501 -0.0704896614088426 1.2829958403581030 255 255 255
0.5531755783704494 -0.0731455837133441 1.2262195870143169 255 255 255
-0.0541805505842998 -0.0738407843774462 1.1210358658758712 255 255 255
0.1959985007548817 -0.0699624679716761 1.0910339357972882 255 255 255
0.5985063816656353 -0.0660920748208483 1.2246946362588238 255 255 255
0.5756159110785022 -0.0626118044780653 1.2158461692869815 255 255 255
-0.0772072312449235 -0.0553133494351424 1.1473735091511237 255 255 255
-0.0558068141398333 -0.0571633179359880 1.1400047741799080 255 255 255
0.3460766350839222 -0.0546961173474771 1.2561387095911198 255 255 255
0.0206970619207276 -0.0536150469054529 1.1032644012983002 255 255 255
0.3502128647437059 -0.0480333468540034 1.2532397484966491 255 255 255
0.4623816745910043 -0.0456019966712921 1.2998468572036801 255 255 255
-0.0578076054933809 -0.0469568426930422 1.1330865642254409 255 255 255
0.0089617386574282 -0.0492948260210512 1.1034727773472623 255 255 255
0.0858318379111162 -0.0515942256078529 1.0758063757414933 255 255 255
0.0942704064672399 -0.0542783154352281 1.0913045958488226 255 255 255
0.6069519752853434 -0.0484771416180848 1.2254242389122296 255 255 255
-0.0146181923137709 -0.0434779566662267 1.0999556770033243 255 255 255
-0.2874810558025635 -0.0287677880531636 1.1478859146244176 255 255 255
0.5796553547466811 -0.0390109479557609 1.2075173218373043 255 255 255
0.1308054652987395 -0.0380458586409504 1.0844562957420798 255 255 255
0.1753872770489415 -0.0360656110147270 1.0841675840820506 255 255 255
0.5907177506315938 -0.0344310967892763 1.2012174566142799 255 255 255
0.5837116741388477 -0.0295524170473810 1.2010915769118187 255 255 255
-0.0051371321483219 -0.0310435338128417 1.0553340849413249 255 255 255
0.5256155228532339 -0.0147282785933290 1.2934954388639912 255 255 255
0.3357187601456609 -0.0169983829476314 1.2269579200969223 255 255 255
0.0185878187943116 -0.0234288899088855 1.0492588568088443 255 255 255
0.3430506299514414 -0.0095764966029406 1.2286464281578715 255 255 255
0.0308416493703823 -0.0221031547696272 1.0669500528540241 255 255 255
0.4763563289249673 -0.0050788254022250 1.2801640724957424 255 255 255
0.3053989063450799 -0.0077101543461042 1.2387672554980449 255 255 255
0.0004060192574463 -0.0002261838318988 1.0530823673924798 255 255 255
0.5119328287911522 0.0242347355280257 1.3068518371212636 255 255 255
0.5955858331177241 0.0118275424280531 1.2009172011165783 255 255 255
0.5545561388132408 0.0475611941954368 1.2422314422645557 255 255 255
0.0635590057901854 0.0383358943145026 1.0777932755682684 255 255 255
0.1074607835096258 0.0810203654536857 1.1099433848816629 255 255 255
-0.3107696991909653 0.1427272745542471 1.2368279595181539 255 255 255
-0.2574180120022271 0.1518894110355589 1.2859039430474317 255 255 255
-0.0890628274375241 0.1405927600046214 1.2152520526006794 255 255 255
-0.3027978227555912 0.1610245630618554 1.1891216904798252 255 255 255
0.6288217373316889 0.1876876804367294 1.2568966671850887 255 255 255
0.4930993377498836 0.2440388884269372 1.3907058002109474 255 255 255
0.5627364534711932 0.2244994950632191 1.3080876505816730 255 255 255
0.6284587773441014 0.2193710550084172 1.2612550847900892 255 255 255
0.5363042615753518 0.2651211089134843 1.3450154846749949 255 255 255
0.4672327156272474 0.3098989344991059 1.4448791569867885 255 255 255
0.6384165148624764 0.2512844517043792 1.2648149235316779 255 255 255
0.5826940277801161 0.3010585056583262 1.3737005038006969 255 255 255
0.5323090791009826 0.3051816064686037 1.3585858086566338 255 255 255
0.4964964446533801 0.3283833637721489 1.4145589246901742 255 255 255
0.6440094849297766 0.2943657651434733 1.2688530094280686 255 255 255
0.5339775464589174 0.3476484799586006 1.3853985976313408 255 255 255
0.5625989287572016 0.3378451311742269 1.3531245400666940 255 255 255
0.6409013017634579 0.3073472190171179 1.2728011689550920 255 255 255
0.4902968777510833 0.3761264518477687 1.4267851572443624 255 255 255
0.4813031991969050 0.4027721073019420 1.4331618382771723 255 255 255
0.5848789056599381 0.3871121727248367 1.3426448895677752 255 255 255
0.4697341974079595 0.4401736885873893 1.4550347912720554 255 255 255
0.4847783838529586 0.4265262422183655 1.4226718634229634 255 255 255
0.5903142824222284 0.3988871594217315 1.3482502308752253 255 255 255
0.5823080393670991 0.4035548619416096 1.3398624438046716 255 255 255
0.4577370461507718 0.5090553584832929 1.5273497274584504 255 255 255
0.4675354072003121 0.4944920872364257 1.4728324417162055 255 255 255
0.5697609364492283 0.4316406076508950 1.3451015321183351 255 255 255
0.5901360126766826 0.4250128519060159 1.3284621495575037 255 255 255
0.5100794699486575 -0.3603180223892726 1.3291681606260983 255 255 255
0.4029704552692970 -0.3746088378785709 1.5127656745784153 255 255 255
0.4688154574137866 -0.3010797312107524 1.4335911559561791 255 255 255
0.4415928190084588 -0.2680518719091661 1.3938278012270560 255 255 255
0.0877517380117081 -0.2573693180446494 1.4197178719832468 255 255 255
0.3677173009356595 -0.2538929436541249 1.5016474556750152 255 255 255
0.5070468032592594 -0.2040173367677252 1.2947871993673437 255 255 255
0.4537842268659214 -0.2021336795356484 1.3570921080505716 255 255 255
0.4944839267829020 -0.1802211920857736 1.2999708301743098 255 255 255
0.5167072785586657 -0.1640056104695784 1.2775115017044387 255 255 255
-0.0453365639283309 -0.1489261171205838 1.1764489759777508 255 255 255
-0.0812321857411059 -0.1463846306635295 1.1781284988800762 255 255 255
0.1084241498876715 -0.1380532022028562 1.1615683264771626 255 255 255
-0.2549139717710679 -0.1355744848368541 1.2219674442070538 255 255 255
0.3547836363360077 -0.1339898683356133 1.3084718825969444 255 255 255
0.5977754970147573 -0.1384962711062402 1.2453301456665329 255 255 255
-0.1948072655724691 -0.1386615832547239 1.2321404210568623 255 255 255
0.1685776898355897 -0.1294449184527878 1.1476250353201831 255 255 255
-0.0278405415779292 -0.1179563542498146 1.1500377136282698 255 255 255
-0.0969338055978652 -0.1161841976019167 1.1509884019455721 255 255 255
0.0946027116371823 -0.1178625460169573 1.1277162359113753 255 255 255
0.1431901285126357 -0.1011553353768295 1.1173287692232203 255 255 255
-0.0507266401581885 -0.0930315239975430 1.1430546413762754 255 255 255
-0.1225921205598952 -0.0864864720815064 1.1361268419854600 255 255 255
0.6059564699441780 -0.0888395346002999 1.2334389823509893 255 255 255
-0.4099911305891067 -0.0637436864865494 1.2544289165995433 255 255 255
0.4026772611592281 -0.0723038586144684 1.2887472116904397 255 255 255
0.0742385538334838 -0.0754471270964857 1.0987254438464302 255 255 255
-0.2362160521730617 -0.0628876781290187 1.1803948356197453 255 255 255
-0.0708632441262381 -0.0601707594600230 1.1444391207712743 255 255 255
0.1504880891725255 -0.0633563170228020 1.1061056138081566 255 255 255
-0.0866965486372706 -0.0485424073128654 1.1448130347520979 255 255 255
0.1525108926131208 -0.0353392902759480 1.0817589458202124 255 255 255
0.3632970630902042 -0.0213309259108400 1.2495740458910063 255 255 255
-0.2542376956997527 -0.0059431944790780 1.1668143828784536 255 255 255
0.1146861098636890 0.0078478930414469 1.0870109359085589 255 255 255
0.5339374336257978 0.3483993241840931 1.3871050441219892 255 255 255
0.5618814655830735 0.3831567273082686 1.3568975039531688 255 255 255
0.4338151385556535 0.4600977166306525 1.5334374732623577 255 255 255
0.5006457668381712 0.4403864886457184 1.4083333557891153 255 255 255
0.4414947001302364 0.4935022973728182 1.5240379467986933 255 255 255
0.4510014572746667 -0.2779611077665507 1.3845253471736205 255 255 255
0.5313454368001085 -0.2116126933940196 1.2803734505309590 255 255 255
0.1962306371779104 -0.1865436664721481 1.3457595282484958 255 255 255
0.5122653419000679 -0.1731101408715527 1.3102863082943257 255 255 255
0.5782839860680116 -0.1580193726847746 1.2513368021892259 255 255 255
0.3028337090410543 -0.1468088275265680 1.3285974072568456 255 255 255
-0.0820973199939849 -0.1025393588872069 1.1464429657520392 255 255 255
-0.0528514963772289 -0.0773591116090303 1.1384298675756428 255 255 255
