ply
format ascii 1.0
element vertex 687
property double x
property double y
property double z
property uchar red
property uchar green
property uchar blue
end_header
-0.2133504549579855 -0.0400753099082373 1.0718451011469103 255 255 255
-0.1103619025354279 -0.0301168686075058 1.0731247449963239 255 255 255
-0.2932535279539621 -0.0254822164513211 1.1303719612348753 255 255 255
0.0607876762162803 -0.0248527209527224 1.0368492955057105 255 255 255
-0.0249578990461271 -0.0218740222089362 1.0108729984041775 255 255 255
0.5227064657045914 -0.0269213830173639 1.3809330571951366 255 255 255
0.0299335566495103 -0.0162666054906106 1.0402599757792352 255 255 255
-0.0979554695232405 -0.0101977545701295 1.0586149600567396 255 255 255
0.0765552739887310 -0.0151336539071846 1.0329025175281565 255 255 255
0.1882334165201565 -0.0064555068912475 1.0166463457561363 255 255 255
-0.5261038739522449 -0.0035200149789695 1.2029068798693092 255 255 255
0.4183241598558922 0.0129766409027953 1.3157028405134163 255 255 255
-0.0238484995253377 0.0168903686584466 1.0424765784608399 255 255 255
-0.2785005118539167 0.0205382724650797 1.1505363185409772 255 255 255
0.0742989958923333 0.0267489515890368 1.0483762110102637 255 255 255
0.1593749867843051 0.0213215461042264 1.0326001840199299 255 255 255
0.3492984306556310 0.0311799725061664 1.2471134143470184 255 255 255
-0.3524308654679649 0.0353088349579354 1.1727861343065427 255 255 255
0.1267490192377704 0.0245137067673712 1.0444856385139367 255 255 255
-0.2415996418558620 0.0309539468750380 1.0937136773549445 255 255 255
0.0229091352854663 0.0279969253868278 1.0410145681789202 255 255 255
0.3226914103069815 0.0371431569087705 1.2491799962807257 255 255 255
-0.0119526282199679 0.0312621821925506 1.0430531741269498 255 255 255
-0.2120250534567210 0.0420601521031792 1.0878684549245945 255 255 255
0.0589778748620655 0.0407501751249126 1.0277832049056326 255 255 255
-0.3402206758412302 0.0500376514620851 1.1616562419606722 255 255 255
-0.2444141877598842 0.0491123567944996 1.0954084727633793 255 255 255
0.6005314130667937 0.0592426297392543 1.2617365713862319 255 255 255
0.5453054924389446 0.0680962159173922 1.3823144835990040 255 255 255
-0.1911871814117393 0.0532664092780557 1.0961540224766442 255 255 255
0.0441735453394524 0.0490152745064642 1.0381480233554341 255 255 255
0.0668866664107727 0.0585347603692994 1.0529996655463472 255 255 255
0.1584270685959482 0.0604097930476550 1.0443939403031379 255 255 255
0.5677071552093058 0.0879101640088088 1.3797164208032264 255 255 255
-0.1968706725922973 0.0675193993197541 1.0866617624654737 255 255 255
0.0371940890827122 0.0696265013354977 1.0530279516374288 255 255 255
0.3408513185138481 0.1064712699175852 1.3141737740448962 255 255 255
0.0832216035560516 0.0794797141735503 1.0835132610211033 255 255 255
-0.0799093231586553 0.0847575172122269 1.1181224667822616 255 255 255
-0.1317126848326253 0.0934733563555934 1.1279271348659372 255 255 255
0.0147706122802515 0.0925663547515348 1.0824164569328882 255 255 255
-0.1393425945185399 0.1015826870875842 1.0878494563665349 255 255 255
-0.1058768687051215 0.1123543656400863 1.1396495753452331 255 255 255
0.1554611661061029 0.1228834536201494 1.1590068606640334 255 255 255
0.5892523073215631 0.1461254362215199 1.3947487031447354 255 255 255
0.0274645780125316 0.1226089603987687 1.1087298421021352 255 255 255
-0.1324753821024216 0.1392609107567456 1.1620704102293717 255 255 255
0.5351867955523940 0.2120560132343211 1.4797750456718559 255 255 255
0.5997811761565732 0.1910641149168556 1.3189878255022842 255 255 255
0.5088432146848282 0.2364496472125702 1.4967949214720506 255 255 255
0.4763800080931255 0.2590732959953644 1.5904767260653054 255 255 255
0.5088089325064404 0.2647519691915510 1.5345299427662178 255 255 255
0.4515251072490652 0.2845661956243437 1.5979468497904921 255 255 255
0.5273726623483411 0.2751885175915960 1.4782701645372325 255 255 255
0.4201380615811743 0.3095805126179643 1.6282451067799146 255 255 255
0.5046626485969361 0.3836131658119575 1.5974495065419276 255 255 255
0.4716124967839540 0.4350203956275036 1.7651920767893368 255 255 255
0.5924212734375890 0.3929728487638228 1.5563735216684529 255 255 255
0.5442512691046426 0.4862013907823063 1.9299447106310788 255 255 255
0.5446371224479604 0.4111349537294401 1.5894469818585957 255 255 255
0.5719466831666754 0.4164284470833724 1.5851816892251060 255 255 255
0.4679937518243744 0.5273320196960297 1.8189196256060813 255 255 255
0.6000943918198656 0.4594401904518354 1.5464314982728173 255 255 255
0.4915032201241319 0.5587854760479682 1.8334519325235845 255 255 255
0.5053809844083805 0.5400061626679844 1.6635961227079872 255 255 255
0.5802729150009905 0.5569140202674635 1.6818706444984608 255 255 255
0.4948623013469029 -0.3525079982416069 1.5336947983683893 255 255 255
0.5122718884694843 -0.3085521356085131 1.5380914574579831 255 255 255
-0.4201091785842727 -0.2536982677510292 1.3168073689236710 255 255 255
0.5429183289329048 -0.2651793715222344 1.4612251088772465 255 255 255
0.5459702859097443 -0.2174460371402839 1.3676011045258365 255 255 255
-0.1713090971668705 -0.1447905088976656 1.1269758522091304 255 255 255
0.0813743142325806 -0.1302556721359707 1.1067952583925833 255 255 255
0.5857293537068123 -0.1476024229270913 1.3256722505841423 255 255 255
-0.5141058036215532 -0.1266865181145103 1.2734991750761642 255 255 255
0.3020337779810335 -0.0925962060070056 1.2385619052270438 255 255 255
0.3633984853827609 -0.0756510186934322 1.3021043458980175 255 255 255
0.1674319832644122 -0.0657510509591314 1.0633793282975663 255 255 255
0.5516658522300526 -0.0717449010552370 1.3599058042450838 255 255 255
0.0349837965537686 -0.0226336611259639 1.0422505766288435 255 255 255
-0.1520054298487618 -0.0093422316468120 1.0964914196016418 255 255 255
-0.5351443346746486 -0.0063462133977955 1.2330460695977823 255 255 255
-0.0441402802847050 -0.0049435558314520 1.0460189381305454 255 255 255
0.1315746682858321 -0.0037833235821690 1.0509185456742838 255 255 255
-0.5531391362689757 0.0226509217351175 1.2399032770894589 255 255 255
-0.1729119044227644 0.0228913145297102 1.0945478122771664 255 255 255
0.3471145265047860 0.0340813870844717 1.2452664346411768 255 255 255
-0.2201981112689812 0.0335126109126293 1.0920373946556703 255 255 255
-0.1428650845368212 0.0417889083114004 1.1513186652756822 255 255 255
-0.1923958634577451 0.0677334326000205 1.0856668012051112 255 255 255
0.1090170653809333 0.0660188024422109 1.0924337838063367 255 255 255
-0.2354226859766404 0.0740102326908715 1.0986504326582427 255 255 255
-0.4118074340707434 0.0841616501687478 1.2437700329186938 255 255 255
0.1741344567737468 0.0765400899405661 1.1405748170225811 255 255 255
0.0865567808564117 0.0971104367914808 1.0967234376652515 255 255 255
0.5041573249700981 0.1419550430673863 1.4273054566337255 255 255 255
0.0807013505431383 0.1780949434505317 1.1859528849148298 255 255 255
0.5508915426508318 0.2383426018103395 1.4428410577922115 255 255 255
0.4322342295117285 0.3519023931024500 1.7600983959237644 255 255 255
0.5371510680768015 0.4347400573319640 1.5748472565902294 255 255 255
0.5295093118878683 -0.3286126611059373 1.4077061059009643 255 255 255
0.3412805292609375 -0.3164002777006781 1.4584015791330047 255 255 255
-0.1336367656207231 -0.0974167836010615 1.1415407086034248 255 255 255
0.0607100528122589 -0.0238235130119840 1.0344557079814367 255 255 255
-0.0170610187230191 -0.0041253898253128 1.0052928763162547 255 255 255
0.0869180198727187 0.0038218792337885 1.0716262838309738 255 255 255
0.0729190744959233 0.0250969117175268 1.0317647281584708 255 255 255
0.0946414294663685 0.0320671373051153 1.0531177182700788 255 255 255
0.0654393587704129 0.0427692994154747 1.0417298646209885 255 255 255
0.3888701753678228 -0.3422347455269615 1.6828284886725431 255 255 255
-0.3398723087961220 -0.2687339644130305 1.3741422904584051 255 255 255
0.4252048430817204 -0.2474098589003186 1.4866898612031538 255 255 255
-0.4781990082300546 -0.1728481771681595 1.2854390997561145 255 255 255
-0.0792486254699250 -0.0884657084546326 1.1031639791924248 255 255 255
-0.1471778205869392 -0.0658679119785102 1.1348685809557439 255 255 255
0.0295888698442657 -0.0624731836327572 1.0708101594578485 255 255 255
-0.1763157131380695 -0.0510724801744515 1.0939679043114001 255 255 255
0.0720889417108650 -0.0328505424759919 1.0833164612599189 255 255 255
0.0366077868453908 -0.0260578665167481 1.0481990879611434 255 255 255
-0.2167526611986099 -0.0215240328001430 1.0834877495895197 255 255 255
0.0857387663616358 0.0027065284172149 1.0564911072557379 255 255 255
0.1280464119253924 0.0038518164128830 1.0381455023210255 255 255 255
-0.2226065511067451 0.0274780666322899 1.0876374210236084 255 255 255
0.0334585631659755 0.0256168374113561 1.0409281190648516 255 255 255
-0.3419564423778423 0.0317899392980859 1.1694013900946585 255 255 255
-0.3725057554383921 0.0746870628003452 1.2754269788599142 255 255 255
0.1179874558637951 0.0685042557996725 1.1015692764984606 255 255 255
-0.0776422888149597 0.0805165786820633 1.1667978872535514 255 255 255
0.0852252257282317 0.0949681862531867 1.0929783041170407 255 255 255
-0.0660390099395322 -0.1001913187417962 1.1257889157165362 255 255 255
-0.3560916460280634 -0.0205504991889165 1.1558821353057724 255 255 255
-0.3373054583692777 0.0452362582435078 1.1827845677353128 255 255 255
-0.3572593870697711 0.1335326570785277 1.3182015243018514 255 255 255
0.1782872836420544 0.0123048951781499 1.0311129530419589 255 255 255
0.4692601322202591 -0.5127712871321657 1.4895412983496057 255 255 255
0.6739510395857218 -0.4337433908476174 1.2879709196640521 255 255 255
0.6261670289770520 -0.4682714708362867 1.4383166660251752 255 255 255
0.5836336166337186 -0.4480777437420204 1.4000881034484289 255 255 255
0.6802184471243349 -0.4047574689683109 1.3033392951864931 255 255 255
0.6160551603795579 -0.4478126787103119 1.4397051117989694 255 255 255
0.6304886470591404 -0.3995234474700821 1.3124682441944973 255 255 255
0.6592027951321607 -0.3949695414472818 1.3603017709679148 255 255 255
0.6099469564030556 -0.4009963889875540 1.3993444901603698 255 255 255
0.5840143016269059 -0.3912599606850614 1.3830006306132030 255 255 255
0.5050698187696475 -0.4133496167298224 1.5098101121539877 255 255 255
0.6534869715066078 -0.3306762163331290 1.3246074251151474 255 255 255
-0.4058838843430878 -0.2606428331337868 1.2761084767636728 255 255 255
-0.4198854881075743 -0.2541628877573867 1.2625943884700797 255 255 255
-0.3888630125388926 -0.2507958850054282 1.2805322431925212 255 255 255
0.5921537504867574 -0.2913187574677248 1.3912766494076183 255 255 255
0.6198686007785456 -0.3033450760079934 1.4243127864131013 255 255 255
0.6593979720510521 -0.2124078425229250 1.2849121403135211 255 255 255
0.6134179780888966 -0.2171340515520752 1.3170443613622411 255 255 255
0.6016313337478260 -0.2302473061169109 1.4057876860065019 255 255 255
0.4319305526232879 -0.2777658838490480 1.5976908204513707 255 255 255
0.1008257137636531 -0.1540292004679459 1.1460033632616540 255 255 255
0.6633969053763524 -0.1829848819089629 1.3117228179526654 255 255 255
-0.1934855532678507 -0.1207068856720948 1.1234645881120324 255 255 255
-0.0146829397464935 -0.1063527573037417 1.0826576502624903 255 255 255
0.2689760241367339 -0.1827187395282799 1.4581908293591939 255 255 255
-0.3240529446588012 -0.1262091415031979 1.2109610630186949 255 255 255
0.6668620194560264 -0.1531667966977869 1.3000726686353401 255 255 255
-0.1217917554438222 -0.1030817225292763 1.1363000426480276 255 255 255
0.0839526045837186 -0.0803072403994053 1.0592252465775371 255 255 255
0.6219912531390910 -0.1098335701044706 1.2900926901696075 255 255 255
0.6475973024645743 -0.1073750467371315 1.2947818467730308 255 255 255
-0.3434340854629604 -0.0718453883659841 1.1481673270822765 255 255 255
0.6261514435732970 -0.1196258698144519 1.4432125511662990 255 255 255
-0.1818826274059581 -0.0315633045311038 1.0923700077943646 255 255 255
0.6114525133510500 -0.0556509259925258 1.2189556077455452 255 255 255
0.4090237501442051 -0.0732367539835133 1.3417058256726671 255 255 255
0.1273781476957118 -0.0158612956435432 1.0446864105406968 255 255 255
-0.2270539612606865 -0.0109792636882357 1.0876753674438993 255 255 255
0.2083812863203913 0.0110221029143358 1.0121056374559902 255 255 255
-0.3020038852892443 0.0073804739347721 1.1410698392330492 255 255 255
0.3661039846925921 -0.0120652003203475 1.2719147695225665 255 255 255
0.3753984050046104 0.0024588781172864 1.2764854808744717 255 255 255
0.0238949692218703 0.0329583136694031 1.0441830790058033 255 255 255
0.3234612861016432 0.0089644928330066 1.2597848591903280 255 255 255
-0.4067653663267219 0.0383945546751466 1.1713252317380942 255 255 255
-0.3094755381929476 0.0390843026223630 1.1508727607214255 255 255 255
0.0894567174262887 0.0408442574243438 1.0557966771658482 255 255 255
0.4356296912496164 0.0219041673317423 1.3155816179060100 255 255 255
-0.2433397503744289 0.0481750365980008 1.0926176151794447 255 255 255
-0.1670846328624312 0.0465153540931594 1.1149385260112223 255 255 255
0.5914749127885888 0.0235452235168117 1.3887935896468746 255 255 255
0.0768514894396117 0.0652765969960605 1.0805181101150549 255 255 255
-0.3599768436816771 0.0616371932200710 1.1855856849834754 255 255 255
0.1156233637424728 0.0734169606728474 1.1041769020067764 255 255 255
0.2073380715265941 0.0753026552428378 1.0582385843307978 255 255 255
0.4390980229788505 0.0494783932279326 1.3586143416752026 255 255 255
0.0403376357353931 0.0791949367693506 1.0751565444990465 255 255 255
0.2423221455879436 0.0788002096233394 1.1315958117799756 255 255 255
-0.2048719428328715 0.0819436612724736 1.0988375762984794 255 255 255
0.2052906334357984 0.0854844514485596 1.0652045084884072 255 255 255
0.6106669567969099 0.0760503860297752 1.2505666213222941 255 255 255
0.1899312983686963 0.0932910875009983 1.0574482042919751 255 255 255
0.6206247125603080 0.0810629894910920 1.2466393100809208 255 255 255
0.0714223272816149 0.0986310533796762 1.0759902355439173 255 255 255
0.1360505265851190 0.1025847531116225 1.0836363149301353 255 255 255
0.3333297975694455 0.0964195893623354 1.2980951089060122 255 255 255
-0.0915114026735338 0.1084951989022166 1.1521465022556057 255 255 255
0.6339266810524646 0.0906744533362517 1.2478576434041144 255 255 255
0.5498020218724288 0.0980029582258155 1.3881476066880609 255 255 255
-0.1474239269270309 0.1157867700130559 1.1282350089801154 255 255 255
0.6233425099872429 0.1073164165406428 1.2621359787460109 255 255 255
0.6377750793945189 0.1072533879792762 1.2538975580089318 255 255 255
-0.1583063150520685 0.1207593810322294 1.1246287594714552 255 255 255
0.6268584652953276 0.1023564526344569 1.2928050472111601 255 255 255
-0.1659663295596062 0.1289171837212139 1.1213031416916308 255 255 255
0.1169406324396281 0.1253641190784065 1.1009355468049455 255 255 255
0.0722106306840862 0.1314637644602687 1.1111246899738247 255 255 255
0.3314562945580643 0.1397249981592827 1.3631116952283604 255 255 255
0.4845114182865748 0.1458773091204496 1.4166199549889866 255 255 255
-0.0170649363593904 0.1478411039845102 1.1387790452870645 255 255 255
0.1454221084572053 0.1495597510154427 1.1433878060756104 255 255 255
0.1230943582695199 0.1634380461779004 1.1408803065166442 255 255 255
0.0738296861504303 0.1726576677564158 1.1578117163536834 255 255 255
0.6512455656478684 0.1805883494733019 1.2918620256088169 255 255 255
0.5916583312756092 0.1883715934838000 1.4118193593801056 255 255 255
0.5832559371896358 0.1907270142103803 1.3529344943134747 255 255 255
-0.1842472546622496 0.1954835201617804 1.1917038662621222 255 255 255
0.5750077999039099 0.2171752293118137 1.4041616166622890 255 255 255
0.5929993084365150 0.2202201065287936 1.3774269336380711 255 255 255
0.5846573545073516 0.2394401602113211 1.4229748524206105 255 255 255
0.5646549558099794 0.2552807791668862 1.4423748229607070 255 255 255
0.5655014348809985 0.2718749908497928 1.4248939657306006 255 255 255
0.0237900733365274 0.2952763604407440 1.4917419548922186 255 255 255
0.4794427115337976 0.3465430856832720 1.5852611240162566 255 255 255
0.6570451386187598 0.3164331778094597 1.3217910293532966 255 255 255
0.6429691105891753 0.3300424077627552 1.3381910595134734 255 255 255
0.5741385658659991 0.3887172747253587 1.4705975303005023 255 255 255
0.6151376451375428 0.3948546001154074 1.4287485460803944 255 255 255
0.5447229034211636 0.4463007059570294 1.6526911819545289 255 255 255
0.6669983553187931 0.3880935699183896 1.3644159098332309 255 255 255
0.6652166111653470 0.3808969828903118 1.3259803677952913 255 255 255
0.6507060374182102 0.3959964819204163 1.3795016997672978 255 255 255
0.5854342823147493 0.4354026207713151 1.4738272590401618 255 255 255
0.6685152707890631 0.4112228170064345 1.3515688034974300 255 255 255
0.5879551501643975 0.4428730142223246 1.4640902587776818 255 255 255
0.5491643100743310 0.4687836702514472 1.5312842689684194 255 255 255
0.6261464435759596 -0.3916417665868077 1.4056850020794216 255 255 255
0.6021572799986529 -0.3859828543388809 1.4314319803455078 255 255 255
0.5125860188309509 -0.3889284757922590 1.5297122365423783 255 255 255
0.6720141555986520 -0.2895637173381912 1.3332194382642355 255 255 255
0.5427587605137411 -0.3030689226970129 1.4511433137661960 255 255 255
0.6604907598099626 -0.2262618060780724 1.3142997558535361 255 255 255
-0.1470842951992236 -0.1353628605781630 1.1364417907580253 255 255 255
0.5834860013289824 -0.1746185304595386 1.3246332416976367 255 255 255
0.6602804608585870 -0.1491693958790759 1.3011120084753547 255 255 255
0.6043739361604873 -0.1451120705948451 1.3194734755477113 255 255 255
0.6373462378427792 -0.1321321804032074 1.2769843085950259 255 255 255
-0.3589789413165044 -0.1014988386811644 1.2276548823418916 255 255 255
0.6437536752279539 -0.1017332418340531 1.2791429942911314 255 255 255
0.1045807697397997 -0.0433561635257360 1.0458982217991877 255 255 255
0.0612298075732122 -0.0267098600266502 1.0360799938879615 255 255 255
-0.1800442272735240 -0.0319641734581521 1.0876842244121623 255 255 255
-0.2313388855813783 -0.0142371506679827 1.0892194942490088 255 255 255
0.0160168471710605 -0.0032680226009790 1.0326271726328065 255 255 255
0.1073515829902701 -0.0066916491200411 1.0442435312028735 255 255 255
0.6157921182255448 -0.0383707098015516 1.2428664234760010 255 255 255
-0.4773639172385472 -0.0130317126791202 1.2148410301716352 255 255 255
0.3111064521846635 -0.0255029961416814 1.2771943599495477 255 255 255
0.1581919395094909 0.0214876358941093 1.0292368281148720 255 255 255
-0.0093159576338459 0.0275293827888100 1.0359694926644836 255 255 255
-0.2422685142608509 0.0324419251201764 1.0891797827655321 255 255 255
0.4235557061752028 0.0072686885963240 1.3188326171484333 255 255 255
0.0155436036203726 0.0479838526315828 1.0690901418584207 255 255 255
0.3545164289497256 0.0310472883102640 1.2594581236018552 255 255 255
-0.0594948422480867 0.0876432973413199 1.1130773585531832 255 255 255
-0.3657310333344023 0.1015737252062352 1.2029214859607629 255 255 255
0.2147165181263904 0.1252491724976865 1.2161225343196178 255 255 255
-0.1497041676137477 0.1477300026045115 1.1600179067981209 255 255 255
0.5368801722459172 0.1506665297596733 1.4578902801158347 255 255 255
-0.4130581514528284 0.1730954781289478 1.3375853025022661 255 255 255
0.5814857655421147 0.2763367164244401 1.4460891213876490 255 255 255
0.6545201635363936 0.2665131797296191 1.3306736797538143 255 255 255
0.6471744526825614 -0.4197495553401103 1.3241496976885967 255 255 255
0.6079018144192045 -0.4124264339939014 1.4418180271813639 255 255 255
0.5313349472459007 -0.3615789469626060 1.4676696350490019 255 255 255
0.1232953478931694 -0.0572387560521852 1.0662968191612618 255 255 255
0.1923675329779622 0.0025940547239986 1.0169548596078066 255 255 255
-0.2422295839546166 0.0490918733903044 1.0903146387705760 255 255 255
0.0845364720879050 0.0479568449436613 1.0710606658789572 255 255 255
0.6060077530369993 0.0834739706096602 1.2676569785360294 255 255 255
0.1570588614753055 0.1005823607693223 1.0745996402470552 255 255 255
0.5735817490814885 0.1865302602717615 1.3647133923230661 255 255 255
0.5638612191155036 0.2240089396226607 1.4208670459800534 255 255 255
0.5366091535308549 0.2329317774707874 1.4390996960833859 255 255 255
0.5270525800110447 0.2487974332139568 1.4774011759664998 255 255 255
0.5995869669138797 0.3346841938913716 1.4876872064805435 255 255 255
0.5956884461259838 0.3584145089605242 1.5389266293091373 255 255 255
0.6180613412669590 0.3379432250905273 1.3990347171480864 255 255 255
0.5039374055999140 0.4170831457402204 1.5805498898169410 255 255 255
0.4424688609584070 -0.3988480756440189 1.6727637297843025 255 255 255
0.4690735331908129 -0.3308146879824806 1.5862461766995497 255 255 255
0.4024952709431205 -0.3585480932546470 1.7188954935012160 255 255 255
0.5585983267610279 -0.1607090311896665 1.4012353560816642 255 255 255
-0.0575390313532278 -0.0934423942097464 1.1093669047277808 255 255 255
-0.3732242821175999 -0.0874817051563100 1.2034995081401967 255 255 255
0.1043050272553228 -0.0395431821580376 1.0601190546222483 255 255 255
-0.0153592365642922 -0.0039945618786839 0.9686237043806115 255 255 255
-0.2379504012350490 -0.0164844068873690 1.1016296699015213 255 255 255
0.1579008346342451 -0.0061421584209593 1.0408389882010449 255 255 255
0.0965000767971452 0.0007652094875499 1.0428043619874512 255 255 255
0.3274485247175820 -0.0440595871669661 1.4036785084146177 255 255 255
0.0911402610335899 0.0234212332882182 1.0616353933059566 255 255 255
0.5571167943315514 0.0083859308077372 1.2943571980092357 255 255 255
0.0978387715961919 0.0491296051868916 1.0389187728476392 255 255 255
0.3340488820017757 0.0448365635767313 1.3623233687894785 255 255 255
-0.1477339729036743 0.0798538687184782 1.1386622478127351 255 255 255
-0.2117343299246755 0.0985311409927841 1.1000828888439451 255 255 255
-0.5555882400299509 0.0936811092168028 1.3054183488137345 255 255 255
-0.4249608848649537 0.1005477757086280 1.3623653776145663 255 255 255
-0.1513773351608906 0.1074736463838687 1.1487492552015739 255 255 255
0.1647542025849397 0.1367026708614383 1.1987307193029400 255 255 255
-0.5208012736602937 0.1539542681056767 1.3566955401321179 255 255 255
0.5154162661699109 0.1901020458031017 1.4745201738622096 255 255 255
0.3818881230182539 0.2095634033533476 1.4487032036787526 255 255 255
0.4434179167110513 0.2872048737623707 1.5887894638199203 255 255 255
0.4499542603903093 0.3109473405945911 1.5599923532809237 255 255 255
0.4254504071118199 0.3319328124609143 1.6068111173216160 255 255 255
0.5108253914514473 0.3186824617528452 1.5308447844613338 255 255 255
0.6398296525101254 0.3361612246731313 1.3944668244481040 255 255 255
0.6323043053063704 0.3741428373920366 1.4662201237525001 255 255 255
0.5679896035759194 -0.4313793328344330 1.5039182174317054 255 255 255
0.4336746355052700 -0.3344637763286085 1.6623434368773109 255 255 255
0.5955856679618526 -0.2232405530658743 1.3734219579518849 255 255 255
-0.1435901793639207 -0.1298446834008672 1.1582598313326282 255 255 255
0.5699622146672900 -0.1879882334563544 1.3725711901855830 255 255 255
0.5173900554345591 -0.1489422749400919 1.4078768849678149 255 255 255
0.0272721838559010 -0.0587060914490337 1.0680670042118261 255 255 255
0.5857366331750183 -0.0048850006860224 1.3702096812100359 255 255 255
-0.5277831141238435 0.1286448150116677 1.3306134546906982 255 255 255
-0.4025994245498989 0.1425754509840991 1.2685983589462073 255 255 255
0.5225327571809543 0.1432655525360591 1.4534094771974129 255 255 255
0.5137022456076714 0.2784336034097569 1.5344142826472187 255 255 255
0.0772510037028002 -0.0261620045449902 1.0697102752634093 255 255 255
0.0646673177291186 0.0021093650366349 1.0341050345706380 255 255 255
-0.2650368247533917 -0.1793599798210912 1.1978669800605268 255 255 255
0.5406417839592927 0.2602810028134627 1.6870593204353326 255 255 255
0.1476170967637248 0.0594103258453536 1.2355421340429291 255 255 255
0.6091876395145931 -0.5959916549799217 1.4544195317218895 255 255 255
0.6220004688978016 -0.5492202673246069 1.4133037628248071 255 255 255
0.6874607911120232 -0.5239823224410716 1.3777293803183535 255 255 255
0.4458412503778917 -0.4689046467769374 1.3671469912220675 255 255 255
0.5721821458359634 -0.5435589266987588 1.4896920030861440 255 255 255
0.7495359455528757 -0.5022957888319185 1.4301285977568436 255 255 255
0.5717611929143382 -0.4873023020094585 1.4324803433300288 255 255 255
0.6892991543232775 -0.4109064746512985 1.3053438413880389 255 255 255
0.7176511713913384 -0.4733858161483684 1.4083434842363554 255 255 255
0.6423188410903344 -0.4700204375883107 1.4141113345817937 255 255 255
0.6945853558958289 -0.4173664677850006 1.3736246527516363 255 255 255
0.6157293814085824 -0.4852718780872698 1.4934757594999701 255 255 255
0.6987041430250328 -0.3808352415097694 1.3754314023504692 255 255 255
0.5508161664730170 -0.4469488662548310 1.5237945068821674 255 255 255
-0.4108978326150489 -0.2760194057238819 1.2646394953093782 255 255 255
0.6850360748782102 -0.3300670980994809 1.3394429369496066 255 255 255
0.6792183066130341 -0.3409396541222581 1.3795025889788648 255 255 255
0.6818035969674008 -0.3289296132891244 1.3549543419878678 255 255 255
-0.3873923944195803 -0.2600382717297001 1.2670602130966815 255 255 255
0.6777224912815959 -0.3035775010622557 1.3137454586335613 255 255 255
-0.2073612764692710 -0.1877067854624029 1.1476141859497710 255 255 255
0.6391120120461246 -0.3295302069817400 1.3813886319831685 255 255 255
-0.0813988932612940 -0.2455216189125329 1.2590709713565909 255 255 255
0.4746576292225450 -0.4172968060500482 1.5602934794661933 255 255 255
-0.1129379759989479 -0.2400499030914481 1.2612885262614311 255 255 255
0.5709034939294670 -0.3765584521168516 1.5009150968684151 255 255 255
0.5978255197934805 -0.3029164444447329 1.3639360901770003 255 255 255
0.5428261224156946 -0.3688055430629611 1.4970698607301209 255 255 255
0.6532595863464101 -0.3057962657980385 1.3754697437667542 255 255 255
0.5806363393517553 -0.3188203822959323 1.4249858401540414 255 255 255
0.5979304781562088 -0.2965225937739746 1.3827827050454660 255 255 255
0.5310955575551682 -0.3721228830517838 1.5351327163481308 255 255 255
0.5733520532691063 -0.3029219363437021 1.4259067588520660 255 255 255
0.6321493909682501 -0.2813725564698322 1.3756172813672729 255 255 255
-0.1947316136949883 -0.1708247450550965 1.1843007079482066 255 255 255
0.6375451612137152 -0.2609082567348799 1.3452385327481879 255 255 255
-0.1282675847203505 -0.1446054749109451 1.1461814864699436 255 255 255
0.6825227203703812 -0.2448750909424112 1.3358216124059272 255 255 255
0.5985147707532685 -0.2804689533855722 1.4149929874844391 255 255 255
0.5300786906646926 -0.3246666732231077 1.5095621404263886 255 255 255
0.6135781216200241 -0.2684713277741181 1.3968266899111013 255 255 255
-0.1263232548782361 -0.1245669683016143 1.1389251502275339 255 255 255
0.5925525111673020 -0.1983135194814607 1.3222439925612943 255 255 255
-0.1535654789572065 -0.0919059160960077 1.1607814400367762 255 255 255
-0.3617639536881888 -0.1234958874217243 1.2504994794439563 255 255 255
-0.1952873140888732 -0.0523602432070370 1.0927089034397734 255 255 255
0.6476936411803539 -0.1686723977588177 1.3288320740389115 255 255 255
-0.1851652709552966 -0.0390212784774676 1.0841270777879255 255 255 255
0.5961312638846162 -0.1594303552412432 1.3549908166154578 255 255 255
-0.3450833667339507 -0.0812558874171703 1.1874686050276018 255 255 255
0.0346194802665425 -0.0115500392819176 1.0358927791231791 255 255 255
0.1584913725040897 -0.0072755556030078 1.0274150478003012 255 255 255
-0.0382122248347809 0.0069661348271955 1.0144726067332124 255 255 255
0.6374816827064442 -0.1155915704076319 1.2929756999528597 255 255 255
0.1558165558535191 0.0035383167044356 1.0329729945495456 255 255 255
-0.0264032447348717 0.0171928673616900 1.0067052064542295 255 255 255
0.5426209830853935 -0.1812944247068144 1.5198260413261728 255 255 255
0.1912024266784190 0.0196796983082888 1.0063454381672905 255 255 255
0.2030155982055440 0.0196847679968328 1.0125410921787006 255 255 255
-0.2245018893318346 0.0087986049870812 1.0813791020601013 255 255 255
-0.2391443588670029 0.0067417192491652 1.0923331568055274 255 255 255
-0.3937481696420261 -0.0014027340672901 1.1223239501581324 255 255 255
0.0726187433813509 0.0233597898179194 1.0454173463453322 255 255 255
0.6463579068330498 -0.1174059653581713 1.4660406984877277 255 255 255
-0.3289105749457849 0.0031775753746219 1.1566989589065904 255 255 255
0.1487308379738393 0.0359797354663121 1.0420097477608035 255 255 255
0.1951461422497066 0.0483928216701699 1.0186057354892413 255 255 255
-0.1233508859763253 0.0193943488727457 1.1187423704599007 255 255 255
0.1617964964990964 0.0507909850852980 1.0166895163448137 255 255 255
0.1676313666815759 0.0534153808719314 1.0380534327312405 255 255 255
0.3487845169361364 -0.0333463358302610 1.2869715489213993 255 255 255
0.0829415544864347 0.0490934536124766 1.0650173696881393 255 255 255
0.1894506860374742 -0.0090562231472341 1.0997241277331924 255 255 255
0.2146137699553833 0.0430592951642315 1.0866439718696439 255 255 255
-0.3474097378066394 0.0345110811819265 1.1485870317215066 255 255 255
-0.0643165137253617 0.0551844600815858 1.0931177640641043 255 255 255
0.1191351285041640 0.0605811752593953 1.0674381376340296 255 255 255
0.5927438989553366 -0.0484062267437365 1.3580456642667580 255 255 255
0.0977399804318080 0.0618197834234206 1.0760457629401006 255 255 255
0.3189646064523469 0.0012559470156358 1.2362069108848550 255 255 255
0.3497763829418222 -0.0205822586989521 1.2954786771560605 255 255 255
-0.0955594223992759 0.0483977529687720 1.1248641988998838 255 255 255
0.1912408656406404 0.0635263637066053 1.0554773317369612 255 255 255
0.0740356140132739 0.0743051975274319 1.0573162663272520 255 255 255
0.5490070006214042 -0.0577411423996234 1.3851004935261764 255 255 255
-0.1019722403408229 0.0639398580436184 1.1202111029288007 255 255 255
-0.1158563452851821 0.0597753457297107 1.1327710770780164 255 255 255
0.3578703343460928 0.0088890281494795 1.2781966581868385 255 255 255
0.3040566660336967 0.0218404810426473 1.2341651526285347 255 255 255
0.3837509413693468 0.0075448181875977 1.2959087305080106 255 255 255
0.5878391704795497 -0.0054802597352157 1.3876657701465025 255 255 255
0.3188280602313114 0.0451686384752344 1.2419546759437294 255 255 255
0.5483194869439084 -0.0119613539226685 1.4081372786678974 255 255 255
0.1277302415092949 0.0923850064996763 1.0843476138383983 255 255 255
0.4588281579939573 0.0160296770648964 1.3619291364426240 255 255 255
0.1570904007556324 0.0989530653141236 1.0808184500552829 255 255 255
-0.1968888562674223 0.1060213818560980 1.0886494586417357 255 255 255
0.0019750448590655 0.1019602659993196 1.0862773358908020 255 255 255
0.1484904105018781 0.1033606753909525 1.0786576483418950 255 255 255
0.3358896404750047 0.0496158087975145 1.2599748016697576 255 255 255
0.3042032147227152 0.0546107872823068 1.2631622437553218 255 255 255
0.3238498135905089 0.0568031195383929 1.2458559350704033 255 255 255
0.3699416500480579 0.0498540834825199 1.2786081958881188 255 255 255
0.0733037990419955 0.1067591909466094 1.0960049542741577 255 255 255
0.3474323050519934 0.0529537800225761 1.2730410132632766 255 255 255
0.1882988685780643 0.1086915083817142 1.0839403723243706 255 255 255
0.1992417668720661 0.1132776455066961 1.0855407259507541 255 255 255
0.3339330797048815 0.0665452386888563 1.2666021287196689 255 255 255
0.3670252213586454 0.0600722094281538 1.2918508644642483 255 255 255
0.5791847455464645 0.0291352026256236 1.4185103539714605 255 255 255
0.3551507189063933 0.0649424648323247 1.2992625589081421 255 255 255
-0.1123490384274191 0.1180701417014894 1.1367157041649059 255 255 255
0.1160711842334467 0.1235300241940885 1.1073534767192637 255 255 255
0.1596749991939403 0.1242512770170062 1.0980644944312130 255 255 255
0.1890396376174636 0.1242461510651235 1.0883980183375479 255 255 255
-0.0066505625904755 0.1277565498329354 1.1073180475646904 255 255 255
0.1370964109770320 0.1269009584034834 1.1073581541722077 255 255 255
0.5999189030758504 0.0823341379293114 1.2580236451028952 255 255 255
0.1749115371269900 0.1287367401842850 1.1060022388557584 255 255 255
-0.5624833869916259 0.0903791034673681 1.3239788908019479 255 255 255
-0.2057557485836528 0.1399602561284706 1.1136119770022292 255 255 255
-0.0831498837813854 0.1257254246504267 1.1603771186016982 255 255 255
0.3994168175599004 0.0771615075772691 1.3233324056342701 255 255 255
-0.1497995325172366 0.1259794614552405 1.1552585832778326 255 255 255
0.1950500513941058 0.1298149545998948 1.1364247373070184 255 255 255
-0.1983567905187205 0.1443892788057728 1.1230408616505174 255 255 255
-0.1644247447224406 0.1382773607343879 1.1426791132446859 255 255 255
0.3784267147855984 0.0873504362951341 1.3278010493746759 255 255 255
0.0727265282305258 0.1442182082735070 1.1111889164927689 255 255 255
-0.1938588653392719 0.1439581294080122 1.1384598924019476 255 255 255
-0.1065966832955904 0.1393738102627327 1.1529171997748957 255 255 255
0.0467590522620602 0.1433137122805523 1.1245214400784915 255 255 255
0.0882395847139298 0.1424652511576599 1.1252445450257864 255 255 255
-0.2034796057514876 0.1510795247897457 1.1233910444774271 255 255 255
-0.0644148326506651 0.1471832200495904 1.1363104762509570 255 255 255
0.1009193954699200 0.1466561391109325 1.1259923259139233 255 255 255
0.3476899643845068 0.0978537105072809 1.3243314530895214 255 255 255
0.1200933139810965 0.1497276645061014 1.1264483879111955 255 255 255
-0.0058051968533283 0.1456253045196040 1.1404380897366200 255 255 255
0.1112096530915206 0.1512108918855421 1.1290192522666516 255 255 255
0.1628624407483083 0.1454860789480545 1.1404583887912434 255 255 255
0.3129845753763158 0.1080210418730172 1.3039733130786086 255 255 255
0.1762044335477038 0.1516401246233984 1.1327598911941530 255 255 255
-0.1427483458957533 0.1524510363477312 1.1507997920725810 255 255 255
0.0490916846175027 0.1559252821917669 1.1431289125580786 255 255 255
0.0912389790904924 0.1584858436177643 1.1238089863333085 255 255 255
0.3721370075159909 0.1072778125832148 1.3460597471839271 255 255 255
-0.0161860949005265 0.1650595026052910 1.1429335037705195 255 255 255
0.5942617829483917 0.1268456799244739 1.2795202236990504 255 255 255
0.1369188716273118 0.1648884069696847 1.1408868473327829 255 255 255
-0.3837082433871556 0.1116396327140261 1.4167214056091317 255 255 255
0.3108080250244968 0.1254919775639139 1.3212609398309394 255 255 255
0.6044391290973160 0.1143414844973407 1.3515688646657784 255 255 255
0.1494830317229239 0.1608781800785331 1.1591466516110351 255 255 255
0.1265731883914081 0.1691493448710414 1.1509933120045184 255 255 255
-0.1047967157419669 0.1695816903329336 1.1936607339936507 255 255 255
0.0739819387706023 0.1713735525111967 1.1693208185505715 255 255 255
-0.0059447039620527 0.1774519169934824 1.1643276053161375 255 255 255
0.1522501121044362 0.1758222987404925 1.1620367981510873 255 255 255
0.6066999959544292 0.1389892496972473 1.3148881612858896 255 255 255
0.6170760768490137 0.1412451723515006 1.3052417994014267 255 255 255
-0.5651968385113846 0.1432361411767355 1.3937688544548019 255 255 255
-0.0825944883804726 0.1668389402297672 1.2075296928702501 255 255 255
-0.0249066634246246 0.1825150283206322 1.1544690192666178 255 255 255
0.0375038698977948 0.1822909546833000 1.1674269824556849 255 255 255
0.1027477821118721 0.1782738909424223 1.1705656700583076 255 255 255
0.6392929062762619 0.1187122970188852 1.4499055017947129 255 255 255
0.1537079347018265 0.1821572111445837 1.1787595632246133 255 255 255
0.1206389861381281 0.1860701268203630 1.1651700260269644 255 255 255
0.6164293835238429 0.1557119552261709 1.2930421898295994 255 255 255
0.1005622711845551 0.1884475602938471 1.1716568497960305 255 255 255
-0.3255726399156593 0.1862462576892285 1.2386280872798341 255 255 255
-0.1786727960952728 0.1955564826763244 1.1761191566763061 255 255 255
0.0423520774187817 0.1904725817260952 1.1812705337603280 255 255 255
0.6108331809946447 0.1600077971466753 1.3069933626048194 255 255 255
0.5828544953182191 0.1488652697975766 1.3699933567718852 255 255 255
0.1493378007964573 0.1906920826311493 1.1899116944802770 255 255 255
0.0543347531074667 0.1966470147711171 1.1886134939629807 255 255 255
0.0813443242344392 0.2008509361012862 1.1876048590956165 255 255 255
0.5735508824356991 0.1692811394124453 1.3269713960183915 255 255 255
-0.2661538331002756 0.1965961777659633 1.2593818889011221 255 255 255
0.1064272006841789 0.2038031604142524 1.1938618267019823 255 255 255
0.1391534021570544 0.2027680100912961 1.1989539195524028 255 255 255
-0.0971517940384383 0.2068745370046743 1.2158574280616066 255 255 255
0.0693119016503909 0.2073883754804912 1.2020503643166076 255 255 255
0.1245332865386588 0.2039054377086810 1.2177769271910823 255 255 255
-0.2750717136380978 0.2086082554039045 1.2666541889678709 255 255 255
-0.2429805898186115 0.2113518068439433 1.2679960263057182 255 255 255
0.2104532127028977 0.2004392513203847 1.2992455668229610 255 255 255
0.0743397414576094 0.2154356662464721 1.2152471245529459 255 255 255
0.5871277842926654 0.1930257791566179 1.3318575232748699 255 255 255
0.0477743440900092 0.2212265933748139 1.2384030230015020 255 255 255
-0.2502035861098437 0.2207852748962323 1.2813295564232265 255 255 255
-0.2602215994252124 0.2249258327437951 1.2980141149946989 255 255 255
0.5555353978603983 0.2001488040348721 1.3831135707012348 255 255 255
0.0869921336104505 0.2283495300340644 1.2417843003845555 255 255 255
0.0445181026523811 0.2281285890205459 1.2686062813160357 255 255 255
0.2826822715223770 0.1947005325207171 1.5036983378287012 255 255 255
-0.1907242907079026 0.2287699669498789 1.3016316156483945 255 255 255
-0.2307010120172179 0.2351730563852074 1.3098894790553259 255 255 255
-0.2227418225168187 0.2365207614123639 1.3468366146884352 255 255 255
0.2909110031477150 0.2166618589161237 1.4488788090192888 255 255 255
0.3884229220232541 0.2196289474750406 1.4578383151574690 255 255 255
-0.3346625595437701 0.2430089887835532 1.3778232787916280 255 255 255
-0.3106168294435913 0.2445799297877290 1.3729973865491016 255 255 255
0.0035534948141089 0.2493428265468080 1.3374265048888694 255 255 255
-0.1268411475535927 0.2557169826625566 1.3201755497388306 255 255 255
-0.0990282367683560 0.2579511586296268 1.3339609408628261 255 255 255
-0.3447522537333154 0.2512908799433965 1.4299767327299695 255 255 255
0.5939697347546009 0.2454139103264921 1.3627498784740890 255 255 255
0.6023265084340893 0.2490360510443192 1.3604463810194705 255 255 255
0.6098774222135974 0.2538808696312730 1.3412446058498031 255 255 255
0.5445182746994012 0.2491825018775405 1.4383273809955055 255 255 255
0.5866026842736053 0.2521931982485383 1.3639644294643170 255 255 255
0.6176387292340221 0.2563153794709432 1.3344901037653825 255 255 255
-0.1068262979457694 0.2530436816496432 1.4251140118611891 255 255 255
-0.0154660067922348 0.2634659577519173 1.3677152467594709 255 255 255
0.5252274546779471 0.2452868832873205 1.4703200490458144 255 255 255
-0.0336796581522212 0.2609528992686311 1.4060368309516516 255 255 255
0.0381812755633107 0.2764225967745522 1.4551500771476458 255 255 255
0.5970299722738676 0.2795576444639506 1.3639781902957335 255 255 255
0.5861921225670874 0.2841168110294705 1.3892924871513090 255 255 255
0.4702562919733129 0.2801787263970572 1.5066376323285198 255 255 255
-0.1266885354912931 0.2883407391746302 1.4806270434085658 255 255 255
0.5466905384299312 0.2859628560652536 1.4438885770099108 255 255 255
0.5569377475670714 0.2864438959447088 1.4335119085240287 255 255 255
0.6227921463250062 0.2908098249873401 1.3460363761630354 255 255 255
0.4723134550811866 0.2830490840084279 1.5817828746029157 255 255 255
0.4954747062926062 0.2859537178414719 1.5149443407109240 255 255 255
0.6127146233958142 0.2963525681166091 1.3598542104674387 255 255 255
0.5208756638899805 0.2949578832043748 1.4564618424246190 255 255 255
0.5061332732564415 0.2938717365769144 1.5371266286625085 255 255 255
0.0207729949746513 0.3092592572590595 1.4916450882938244 255 255 255
0.4488433827531993 0.2985690849591998 1.5225423307942836 255 255 255
-0.0467776371503525 0.3056230087493612 1.5697916383697865 255 255 255
0.4881948612854405 0.3089756362371698 1.4936970588253671 255 255 255
0.5615406792357865 0.3095887272617986 1.4434075313041255 255 255 255
0.5960407480275496 0.3130779207996234 1.3977162753036312 255 255 255
-0.0663469059278985 0.3181272368153568 1.5634754271361693 255 255 255
-0.0060172795022144 0.3202218978119339 1.4962158598627178 255 255 255
0.4796410525269760 0.3080264667904793 1.5533706793824069 255 255 255
0.4784338807591931 0.3172856458807696 1.5087369267345543 255 255 255
0.5476574753657695 0.3186897070061181 1.4407362603001772 255 255 255
0.4471356069798239 0.3173884367068678 1.5499659187163382 255 255 255
0.4274854731931991 0.3176722967983573 1.5736099466450904 255 255 255
0.4541197882372447 0.3208434992922249 1.5262188156333021 255 255 255
-0.0563908742121167 0.3309904101194467 1.5627641739692675 255 255 255
0.6032958327959517 0.3263563439103982 1.3700333430863807 255 255 255
0.6160726643275848 0.3287662381861757 1.3617576172089432 255 255 255
0.4812666064852788 0.3282448608081375 1.5171574155518768 255 255 255
0.5766758733298493 0.3291504477867403 1.4214303578536323 255 255 255
0.4289834404398299 0.3300188757602509 1.5672918357581580 255 255 255
0.5658537466889736 0.3315878164297589 1.4304153806357263 255 255 255
0.5338058407303178 0.3334644417803493 1.5172795199968541 255 255 255
0.4559964561711642 0.3347983030020013 1.6172693797448674 255 255 255
0.6380969604293263 0.3427812903079862 1.3805344683509071 255 255 255
0.5727636762207167 0.3439173726084331 1.4084731476950931 255 255 255
0.6301313918678020 0.3434233176500027 1.3994047614870320 255 255 255
0.3898228034366369 0.3459334763956110 1.5801559139064443 255 255 255
0.5490051706860928 0.3477956338580749 1.4472787989343510 255 255 255
0.6073861137999174 0.3522637811698058 1.3841025669447353 255 255 255
0.5454151994461356 0.3588248023594349 1.4505336254406345 255 255 255
0.5269463339411239 0.3625448336851669 1.5707160570778791 255 255 255
0.5416836541829801 0.3629111738993183 1.4696444198823098 255 255 255
0.5164013842608904 0.3713566794933333 1.5629965111639210 255 255 255
0.5672951730393558 0.3747656795874756 1.4238781557899676 255 255 255
0.6038465054957749 0.3792053736127791 1.3798653154630924 255 255 255
0.6251791418051538 0.3742160941500330 1.3990810326935210 255 255 255
0.6007972891029263 0.3789302683107905 1.4358181783375807 255 255 255
0.5638821307519268 0.3858264990058395 1.4377273949456253 255 255 255
0.6016860485159472 0.4056259672985009 1.4067420303941705 255 255 255
0.5190865069214952 0.4112269760664924 1.4991665782887076 255 255 255
0.5660882912830204 0.4099315585647172 1.4591022912840699 255 255 255
0.6214835232052333 0.4069783546687015 1.3901520082872589 255 255 255
0.4378784105377468 0.4299279161850668 1.6781966316073884 255 255 255
0.6255893016829701 0.4237685106626073 1.3745710594302241 255 255 255
0.5376093895524132 0.4306687742480970 1.5175905556292728 255 255 255
0.5490312663752690 0.4300691343340923 1.5002334680460336 255 255 255
0.5342349627048602 0.4504446099574026 1.4790612820042714 255 255 255
0.4456201767021336 0.4696875183998903 1.6265462387926826 255 255 255
0.5060329210089420 0.4702565761603015 1.5239449135134397 255 255 255
0.5795175693939532 0.4639090989564277 1.4100996322960289 255 255 255
0.5569860902053615 0.4866490859219084 1.4273400643992247 255 255 255
0.6164436390804258 0.5175520690720880 1.4454050953526427 255 255 255
0.6527345912863918 -0.5599811019841282 1.4430207176966681 255 255 255
0.6272627790112963 -0.4691964119821053 1.4468921352669062 255 255 255
0.6936276600306435 -0.4279565154853668 1.4037741190261883 255 255 255
0.5764887881677833 -0.4184051026497894 1.4830176547067000 255 255 255
0.5647470734499358 -0.3983343986882241 1.4837662621062828 255 255 255
0.6245957620119266 -0.3511955908005071 1.4029336627636519 255 255 255
-0.2393912952090204 -0.1923576990250309 1.1820090268164960 255 255 255
0.6113348775260877 -0.3547524118997032 1.4576487338509789 255 255 255
-0.2152401367802291 -0.1773974161862790 1.1609766036845846 255 255 255
-0.1402940537061611 -0.1985171145010615 1.2219869867425381 255 255 255
0.5436374304252752 -0.3329643066330241 1.4620477830712624 255 255 255
-0.1876155679508875 -0.1604009782234241 1.1914320862537067 255 255 255
0.5407383262949474 -0.3032343030720797 1.5005738026570852 255 255 255
-0.1961406321810653 -0.0810818943939485 1.0980235358131212 255 255 255
-0.1351852909347105 -0.0961255304036946 1.1382253224670653 255 255 255
0.0463734914824487 -0.0480824338154264 1.0370698486201766 255 255 255
0.0240595348329836 -0.0572677702184246 1.0664409157213159 255 255 255
0.0129810823571538 -0.0047349421798440 1.0399987260232872 255 255 255
-0.5488721366862621 -0.0755558140753669 1.2738847054496070 255 255 255
0.0034226809191287 0.0111918968621743 1.0436492578428118 255 255 255
0.1609223157938753 0.0180503322387919 1.0342011264333366 255 255 255
-0.0307020024923247 0.0368738277929662 1.0278286534678167 255 255 255
-0.2592233650059495 0.0219007455508062 1.0924334007454517 255 255 255
0.0774140533197497 0.0395433634781086 1.0509824117037048 255 255 255
-0.0800541572292814 0.0362810644266668 1.0904836559899505 255 255 255
0.0012031030551361 0.0427974410199604 1.0712250771377274 255 255 255
-0.3292191961929657 0.0203688922056812 1.1640128391035023 255 255 255
-0.1662196612862268 0.0480377470479757 1.1153340914266889 255 255 255
-0.3926732351372911 0.0371623571953845 1.1760316539302123 255 255 255
-0.0960174028032025 0.0668546805216797 1.1389614977886782 255 255 255
-0.0299000219480084 0.0781133234310797 1.0912006054931616 255 255 255
0.0999061350600353 0.0764619088379906 1.0872765600310166 255 255 255
0.5204136576874057 -0.0150493832058198 1.3589196291243106 255 255 255
0.2834248530759092 0.0484083876017217 1.2167071924666388 255 255 255
0.0719657942691765 0.0979504222243618 1.0752748899670752 255 255 255
0.5375513735037655 0.0001328558031628 1.3829511752602848 255 255 255
-0.3570054789919078 0.0768735056028611 1.1935453721244385 255 255 255
0.3896224006817276 0.0422524340284746 1.3061245250819435 255 255 255
0.3025604954289364 0.0650745537020774 1.2468469466958692 255 255 255
-0.2142912985750014 0.1163286094056886 1.1126250821808419 255 255 255
0.5189459249127516 0.0381110092067033 1.3703850102752466 255 255 255
-0.1282842710709830 0.1142810599670888 1.1356211180047135 255 255 255
0.6082864955409650 0.0607219123389859 1.2876944088564533 255 255 255
0.0933626778260181 0.1271427252417164 1.0980748624719079 255 255 255
0.2014734475910396 0.1245861823458429 1.1087930848169689 255 255 255
0.0496091382925755 0.1331122311656416 1.1052046483378035 255 255 255
-0.1744109120232885 0.1300390180324649 1.1369336742437166 255 255 255
0.0337146754167459 0.1404031916412411 1.1101656366974086 255 255 255
0.1654415229565767 0.1377120131284063 1.1193533301780272 255 255 255
0.4127124510246534 0.0816317611994975 1.3440521791086566 255 255 255
0.1178049347767006 0.1399681855383528 1.1223227599869030 255 255 255
-0.3614696609597218 0.1193534275340440 1.2458292502715318 255 255 255
-0.1305324227909760 0.1381591355173704 1.1539616762013571 255 255 255
0.0005701057683936 0.1525739316923414 1.1305229730530775 255 255 255
-0.1103145748283061 0.1537948561018254 1.1635468574032555 255 255 255
-0.0162224937631317 0.1636316265259916 1.1432864846978201 255 255 255
0.0980178301594404 0.1653596253354420 1.1495203705919632 255 255 255
0.0865255727373681 0.1763346452010300 1.1607418693892957 255 255 255
0.2390476327733686 0.1720811646729271 1.2958526430288131 255 255 255
0.6160255165094989 0.1551441179127064 1.3470452599554990 255 255 255
0.0302014998789421 0.2216702972928510 1.2321793019095693 255 255 255
