ply
format ascii 1.0
element vertex 688
property double x
property double y
property double z
property uchar red
property uchar green
property uchar blue
end_header
0.6159050391514841 -0.3630383575531903 1.2653041284262183 255 255 255
0.4992474885589041 -0.3865781160082126 1.3209714880717458 255 255 255
0.6105206163842665 -0.3379519856561887 1.2448027411296259 255 255 255
0.5993116366010439 -0.3492980831091486 1.2610809611449505 255 255 255
0.5505513291668334 -0.3605186079129848 1.2886485367323675 255 255 255
0.5920477046584434 -0.3179730326840799 1.2561645377476718 255 255 255
0.5156504264439683 -0.3548356579484813 1.3185952755658952 255 255 255
0.5959389254302297 -0.2903917174617270 1.2564022374137889 255 255 255
0.4730813774548928 -0.3364460022356551 1.3617839797210078 255 255 255
-0.2903414311487897 -0.2207352982822085 1.2136898482900620 255 255 255
0.5953909086352679 -0.2603223963119073 1.2503712148430022 255 255 255
0.5790430180912391 -0.2556148248529562 1.2580754071829212 255 255 255
0.5904006557876347 -0.2551972728822919 1.2558381322771044 255 255 255
-0.2734205360999779 -0.2110360442771480 1.2248200078685774 255 255 255
0.6002575781718479 -0.2476825615019484 1.2505134202944541 255 255 255
-0.1321669870338576 -0.1508384340956317 1.1294250000996140 255 255 255
0.5520703857255892 -0.2531258867597656 1.2720056161114091 255 255 255
-0.0195487893468879 -0.2006134075984700 1.2169956253044247 255 255 255
0.4166172377930426 -0.3181039539576289 1.4021145282198317 255 255 255
-0.0456376624887799 -0.1960357068973361 1.2192896082013105 255 255 255
0.4857692811444522 -0.2785674041884560 1.3375048012673507 255 255 255
0.5226489022270195 -0.2341545742339322 1.2637469884757675 255 255 255
0.4707766103027821 -0.2825565001761512 1.3574714958909868 255 255 255
0.5611224579848487 -0.2302365005613148 1.2601392675853469 255 255 255
0.5028779734414737 -0.2425756893901859 1.2990309838621090 255 255 255
0.5239325495490351 -0.2312932930785006 1.2826776300346099 255 255 255
0.4567600000726434 -0.2786197909687225 1.3711098921302090 255 255 255
0.5006523606698935 -0.2361485798202779 1.3083123451793950 255 255 255
0.5435482830354414 -0.2091789786378432 1.2591878299688477 255 255 255
-0.1203595591146450 -0.1411628058915200 1.1687822067745044 255 255 255
0.5564597718565755 -0.2017940697977875 1.2532685637778351 255 255 255
-0.0679743523341066 -0.1231960305660221 1.1504908500676148 255 255 255
0.5882943260079041 -0.1831533731315284 1.2358202518036527 255 255 255
0.5140590301467538 -0.2071482967145676 1.2857809091018368 255 255 255
0.4589167658467525 -0.2467964739929736 1.3611474088746236 255 255 255
0.5277385104124476 -0.1989220874736607 1.2750265892166208 255 255 255
-0.0667127688634637 -0.1051912713852487 1.1433976939532342 255 255 255
0.5326706909906789 -0.1619516540896637 1.2642271805630898 255 255 255
-0.0876986915009801 -0.0750016662919983 1.1564571727454791 255 255 255
-0.2558079635182373 -0.1002499124134520 1.2265187165074583 255 255 255
-0.1293705712792497 -0.0400237329155606 1.1047820387127938 255 255 255
0.5689573944008517 -0.1303888281388392 1.2475571471463285 255 255 255
-0.1218195457490575 -0.0300635728270546 1.1005518099950120 255 255 255
0.5280276925451510 -0.1268162542505426 1.2746182504898560 255 255 255
-0.2503401575614665 -0.0660092242589196 1.1848776382748194 255 255 255
0.0700369989804713 -0.0060838657770873 1.0627177623631103 255 255 255
0.1817822937983666 -0.0035099678574789 1.0538670204309046 255 255 255
0.0048722526805690 0.0136558473408195 1.0422761898748105 255 255 255
0.5715597565808853 -0.0943669964783682 1.2426752603813422 255 255 255
0.1789462782399607 0.0073067416913093 1.0601496950341103 255 255 255
0.0155780128435086 0.0230928458940451 1.0360698390030192 255 255 255
0.2110707020195338 0.0226638001262218 1.0365762594401955 255 255 255
0.2209622438626321 0.0224506124464965 1.0406158962297387 255 255 255
-0.1578890548785971 0.0101711797969213 1.1046165050893271 255 255 255
-0.1688030359563671 0.0108209259420085 1.1092398259924912 255 255 255
-0.3003086244301414 0.0033151368143942 1.1364963721831056 255 255 255
0.1048925924321484 0.0265758173323788 1.0679181649238261 255 255 255
-0.2395354311316645 0.0074357847903284 1.1618772180914816 255 255 255
0.1728382359806589 0.0369679472798279 1.0665975377117460 255 255 255
0.2149967779593548 0.0491823380153222 1.0463651827515079 255 255 255
-0.0644932682473652 0.0220443728627919 1.1274160032789897 255 255 255
0.1857115818177552 0.0508370002964456 1.0461044555156986 255 255 255
0.1898142438668547 0.0548571843921905 1.0612894013636418 255 255 255
0.1146253365613235 0.0486652753020414 1.0858640425413308 255 255 255
0.2300695281218196 0.0454107580897709 1.0954238225231763 255 255 255
-0.0146526594439816 0.0526803454440507 1.1127764187496392 255 255 255
0.1465827362024437 0.0596889497221880 1.0865470722386870 255 255 255
0.5278596539218625 -0.0373371148901993 1.2852165375097440 255 255 255
0.1279308522975227 0.0595755221681176 1.0946914469422901 255 255 255
0.3136770186118240 0.0054915318589274 1.2054108975043183 255 255 255
0.3361738460555817 -0.0113776741082003 1.2445402917573531 255 255 255
-0.0398315554525307 0.0474880991484387 1.1347095865123282 255 255 255
0.2106551049947068 0.0620519263964701 1.0772121045185756 255 255 255
0.1074417100255610 0.0699590335182513 1.0840016124162359 255 255 255
0.4905678365021438 -0.0427926111808618 1.3025885250764231 255 255 255
-0.0459668277782583 0.0612099499347896 1.1323669266888927 255 255 255
-0.0570185264218320 0.0567536118354525 1.1419968318300140 255 255 255
0.3424259370561056 0.0102171071137677 1.2283651923733212 255 255 255
0.3012263616114167 0.0234245722290327 1.2039804436076540 255 255 255
0.3629099235504387 0.0090416782655524 1.2486257572238173 255 255 255
0.5200949985682146 -0.0017702066591651 1.3020256655246503 255 255 255
0.3144627460861933 0.0408618375272246 1.2146973916123291 255 255 255
0.1547298901401118 0.0875101542717470 1.1021875032374626 255 255 255
0.4204367373407018 0.0150704392506314 1.2867169152489104 255 255 255
0.1805246744319905 0.0920532343978398 1.1003756846942458 255 255 255
-0.1326193477664429 0.0963735665027190 1.1186261399075368 255 255 255
0.0433064473351849 0.0954010432924762 1.1070047473406894 255 255 255
0.1731854861986365 0.0959120081117915 1.1005054175142026 255 255 255
0.3279115974661640 0.0439971463395804 1.2278454897723532 255 255 255
0.3016394901170177 0.0472217587779072 1.2336496816321840 255 255 255
0.3188969833907350 0.0501515661995952 1.2195460889708030 255 255 255
0.3553512302169551 0.0432262716186795 1.2423599271030266 255 255 255
0.1062172893766480 0.0991307527272138 1.1137906022031494 255 255 255
0.3365695676466395 0.0469101586867294 1.2362659852701972 255 255 255
0.2080442366577551 0.1013704504661958 1.1027915044633847 255 255 255
0.2177448261376910 0.1060417373583898 1.1031233338170465 255 255 255
0.3262672368711050 0.0577115529586934 1.2344367746948344 255 255 255
0.3512394624320309 0.0531810040705675 1.2482020360177870 255 255 255
0.3412808851847949 0.0567632739579585 1.2544807324691987 255 255 255
-0.0544587809012720 0.1055670915895880 1.1541774516804402 255 255 255
0.1446063253928069 0.1139018341215894 1.1216388674512583 255 255 255
0.1828342126830340 0.1142425219166807 1.1162134004236954 255 255 255
0.2088931213573651 0.1153058325404488 1.1070366505010136 255 255 255
0.0366133605435971 0.1168016175363222 1.1274531981454574 255 255 255
0.1629879926553069 0.1160088101964711 1.1244348564733233 255 255 255
0.5462770773855715 0.0711152479490764 1.2241855614746064 255 255 255
0.1963790646027956 0.1178230307281410 1.1226632317672047 255 255 255
-0.4161638638431838 0.0779244519625388 1.2889122573687526 255 255 255
-0.1388384309456466 0.1272771523094803 1.1374968019652951 255 255 255
-0.0268365154956410 0.1139906132009573 1.1640899536388278 255 255 255
0.3771080711338405 0.0645094660921298 1.2740867686198658 255 255 255
-0.0858223632405603 0.1128462568039634 1.1678367949030934 255 255 255
0.2138451050315018 0.1160994570269006 1.1477255741462531 255 255 255
-0.1315174311378815 0.1306984711059181 1.1449913486375265 255 255 255
-0.0987284163203176 0.1258584993328259 1.1533064825224373 255 255 255
0.3601094802705371 0.0724955805268432 1.2789725005308206 255 255 255
0.1069115998920449 0.1303004317919717 1.1300946381797385 255 255 255
-0.1263079797606135 0.1293495099305977 1.1572673815871759 255 255 255
-0.0486663027690985 0.1231605617246689 1.1689122038035826 255 255 255
0.0840157070314635 0.1297217240404107 1.1389324508908827 255 255 255
0.1205914277663773 0.1284329896576853 1.1415758706765284 255 255 255
-0.1360867222587853 0.1365993134595538 1.1459100362831209 255 255 255
-0.0127041673231609 0.1302082910665969 1.1571775609201946 255 255 255
0.1317091906625400 0.1320317563953714 1.1423253748765974 255 255 255
0.3345940411204572 0.0825527491606126 1.2758851081228302 255 255 255
0.1483940887150656 0.1344296127837594 1.1426957653863183 255 255 255
0.0387282298673035 0.1306193944669904 1.1550666124223332 255 255 255
0.1404683395386445 0.1359657897492144 1.1444836577075446 255 255 255
0.1856514695390988 0.1303843955429725 1.1516529012570200 255 255 255
0.3080045532320895 0.0901716831628576 1.2661766451011380 255 255 255
0.1978240526903181 0.1349330673275107 1.1481560215226574 255 255 255
-0.0804761585292964 0.1359074667235680 1.1669153263987173 255 255 255
0.0867390767528029 0.1398736207567648 1.1542034000498689 255 255 255
0.1232467784736496 0.1427956761934157 1.1413522933130866 255 255 255
0.3541624807637953 0.0886646164785381 1.2924135735334814 255 255 255
0.0296717900551403 0.1475163672643245 1.1562473366549819 255 255 255
0.5409516489157518 0.1067774122671978 1.2442447330061179 255 255 255
0.1631631957779732 0.1469108119667533 1.1547427213337884 255 255 255
0.3057556740415744 0.1038578108212779 1.2799445970199603 255 255 255
0.5395528584650869 0.0953529115773667 1.2871864459929387 255 255 255
0.1740261246806805 0.1426294342295938 1.1677967628409915 255 255 255
0.1542985272243229 0.1499211614691087 1.1637334235673111 255 255 255
-0.0451360610005234 0.1474497115409589 1.2019273658813694 255 255 255
0.1087535707557168 0.1513357848548788 1.1760590150104002 255 255 255
0.0392549461559176 0.1557651001047214 1.1789693840230071 255 255 255
0.1763011147815758 0.1552467372163789 1.1716892498599765 255 255 255
0.5461906087120448 0.1164227348436373 1.2641851729892732 255 255 255
0.5571350925423201 0.1173996508220491 1.2637664832984485 255 255 255
-0.4101408531266180 0.1170290206273793 1.3455708489139950 255 255 255
-0.0240829718727213 0.1541714830269427 1.1862378513110592 255 255 255
0.0221337106135564 0.1618211245376837 1.1699634996164869 255 255 255
0.0766304867326088 0.1608780262753494 1.1766785553293995 255 255 255
0.1334461488044947 0.1569031447320046 1.1793688695129596 255 255 255
0.1776027730856156 0.1597628440469053 1.1833608807610363 255 255 255
0.1492708391050513 0.1636009597173198 1.1766178809269534 255 255 255
0.5570783571735959 0.1313110302349785 1.2524657805524237 255 255 255
0.1319131803869762 0.1651606405886975 1.1824268934292050 255 255 255
-0.2309050947470986 0.1611326368261529 1.2378536540437315 255 255 255
-0.1106672029662712 0.1713896317232373 1.1923246596234889 255 255 255
0.0816415820932622 0.1661492412768201 1.1915620452274014 255 255 255
0.5511454296268102 0.1341816899826501 1.2623977455854927 255 255 255
0.5232084686580915 0.1202153487227895 1.3094864939262001 255 255 255
0.1740558263304992 0.1658039287611726 1.1955141775883087 255 255 255
0.0921554550838854 0.1709482491351449 1.1975507501496614 255 255 255
0.1154895372517547 0.1746432762100597 1.1965986590548592 255 255 255
0.5202079930304442 0.1391954146837613 1.2814509815544199 255 255 255
-0.1784986759146018 0.1680350922868755 1.2538871178735953 255 255 255
0.1371969546649382 0.1767282976835521 1.2010798047444990 255 255 255
0.1653553228432415 0.1755171650412769 1.2039429106837616 255 255 255
-0.0374778467409745 0.1777904147457413 1.2230658052711885 255 255 255
0.1053199895783823 0.1790514078334894 1.2089500881034974 255 255 255
0.1529121347699517 0.1750091338342438 1.2190028716159866 255 255 255
-0.1861190066695157 0.1767889415546787 1.2621360379331554 255 255 255
-0.1576907339406010 0.1799528158668121 1.2574744400264604 255 255 255
0.2246856167785363 0.1661316791051445 1.2767786603950437 255 255 255
0.1098384665304983 0.1850640378315780 1.2194351176446849 255 255 255
0.5322684866855444 0.1575701447337497 1.2899388375063598 255 255 255
0.0875436165814384 0.1885036203112310 1.2377209433727794 255 255 255
-0.1638687338820412 0.1859196644294176 1.2737769745876644 255 255 255
-0.1703478609487241 0.1895908900585741 1.2839543559622801 255 255 255
0.5018381581126686 0.1606193743797821 1.3259223527682846 255 255 255
0.1210067874932849 0.1940141891675468 1.2404950581119918 255 255 255
0.0853318321992474 0.1921196045151208 1.2608275299512213 255 255 255
0.2768345962757717 0.1512415375452648 1.4076706387475455 255 255 255
-0.1120732994585688 0.1908482033878361 1.2885181395878993 255 255 255
-0.1446373141996511 0.1973082371116717 1.2928229521736432 255 255 255
-0.1348502890178714 0.1964231071579248 1.3170039327450249 255 255 255
0.2857858669668158 0.1714271654483398 1.3756620750961814 255 255 255
0.3650615958537108 0.1697049025765551 1.3893076066823666 255 255 255
-0.2246864822749869 0.2002143726335683 1.3403164190147787 255 255 255
-0.2054272069082342 0.2016115982923819 1.3371925353332688 255 255 255
0.0524504782177375 0.2056759369440980 1.3112505688145168 255 255 255
-0.0571261787021472 0.2130548376556005 1.3013545936572317 255 255 255
-0.0333637358937699 0.2124415458451488 1.3133076083722235 255 255 255
-0.2283247774729917 0.2023049935362400 1.3790807141394086 255 255 255
0.5368451221749186 0.1976903115420289 1.3184455841806275 255 255 255
0.5416408755545403 0.2021991701691352 1.3104355812088253 255 255 255
0.5520594661688676 0.2063223981606165 1.3037682755336333 255 255 255
0.4855772629532409 0.1990961577563483 1.3544597440408843 255 255 255
0.5317048155284769 0.2027273739125985 1.3228707465104594 255 255 255
0.5596905277162326 0.2084908518454540 1.3011892751515912 255 255 255
-0.0349033435579629 0.2038939996880055 1.3701932845449862 255 255 255
0.0375322675185203 0.2157348956115683 1.3326701072415181 255 255 255
0.4689411406325598 0.1944438844510805 1.3799346258440346 255 255 255
0.0238283527624679 0.2091806198938990 1.3618908598404005 255 255 255
0.0833816618276013 0.2196033549328919 1.3915406088875095 255 255 255
0.5404319866872003 0.2253634863475222 1.3235278889494779 255 255 255
0.5275846884112149 0.2291756365680021 1.3359557843867371 255 255 255
0.4279344417732602 0.2142920231088811 1.4239104076760263 255 255 255
-0.0486496469701869 0.2257930147695650 1.4164113581697748 255 255 255
0.4905584876504117 0.2258748914117524 1.3721063482807989 255 255 255
0.4995105467837818 0.2270615516593348 1.3647939897122501 255 255 255
0.5639597904665421 0.2358134583167648 1.3134633321844364 255 255 255
0.4174834446805939 0.2190180408080722 1.4368084757628448 255 255 255
0.4435205739384936 0.2222543769360937 1.4140721295471366 255 255 255
0.5528267025515637 0.2404951314906224 1.3193879802142556 255 255 255
0.4693285508028912 0.2321964721403897 1.3819212115787651 255 255 255
0.4473647160614947 0.2315200074391346 1.4132807263521741 255 255 255
0.0703441667481670 0.2406175807715546 1.4254159281464176 255 255 255
0.4082553123148008 0.2300739448351153 1.4271402719422408 255 255 255
0.0196797320558347 0.2433554257126579 1.4449841138098698 255 255 255
0.4447253179973082 0.2375121281202183 1.4235432159282722 255 255 255
0.5015085560916775 0.2461802495604346 1.3673704455029201 255 255 255
0.5333720239391250 0.2523873224028772 1.3371850327560471 255 255 255
0.0030407172041508 0.2420390554662368 1.4735882670142226 255 255 255
0.0489035632027100 0.2490932839424453 1.4303672475013258 255 255 255
0.4271987685341747 0.2403007636344912 1.4311479771908726 255 255 255
0.4352448245218912 0.2433971522220531 1.4300130770774504 255 255 255
0.4936317984595325 0.2520265780829228 1.3782823683213785 255 255 255
0.4067901007650045 0.2421634200828668 1.4527464783481998 255 255 255
0.3898842767083426 0.2407658181884511 1.4673676184138891 255 255 255
0.4150090710411085 0.2448295914119804 1.4422710418821965 255 255 255
0.0108287569924963 0.2521899925760518 1.4747562150690263 255 255 255
0.5466328971887368 0.2636318822561441 1.3330058223635899 255 255 255
0.5584564622640834 0.2654689070051481 1.3299212774552789 255 255 255
0.4354664785337626 0.2533862628573165 1.4307686644924877 255 255 255
0.5182834351877109 0.2634238287647886 1.3625572185689421 255 255 255
0.3917698360845175 0.2508463762610755 1.4651737678361654 255 255 255
0.5088580391006079 0.2647286397657351 1.3688763726381368 255 255 255
0.4729357926201989 0.2626232611155033 1.4110523210931478 255 255 255
0.4018060607894605 0.2563768347254100 1.4490514104572898 255 255 255
0.5687430548211602 0.2802475333188038 1.3233838715454764 255 255 255
0.5197773706649897 0.2733919766117158 1.3665231744289614 255 255 255
0.5575556919877557 0.2800490573042378 1.3272618562398693 255 255 255
0.4968776618140425 0.2730736645543990 1.3916601706772895 255 255 255
0.5471332154142646 0.2853775684765209 1.3390123417582351 255 255 255
0.4940533622510662 0.2817122164563592 1.3952707056943108 255 255 255
0.4585918991621293 0.2802992192093864 1.4242785231189978 255 255 255
0.4891338880144436 0.2842447553078887 1.4067648140625832 255 255 255
0.4548390789326694 0.2904311429539952 1.4302444641862755 255 255 255
0.5144390021066237 0.2972230782485021 1.3787532336510222 255 255 255
0.5485786467491152 0.3052374900838739 1.3493920526277865 255 255 255
0.5584370663647656 0.3040370467653229 1.3432341500052662 255 255 255
0.5342059714104823 0.3052978384802070 1.3640603512697984 255 255 255
0.5105304464385260 0.3057409630464265 1.3881728581477959 255 255 255
0.5416477720040268 0.3270956791070346 1.3596745294552877 255 255 255
0.4708744039564337 0.3189536058798726 1.4357396702315612 255 255 255
0.5066435022376595 0.3242266923961953 1.3920693918466471 255 255 255
0.5626575361253292 0.3271294812740640 1.3589439200497617 255 255 255
0.3960860176265684 0.3161451007490551 1.5532228404057475 255 255 255
0.5624968985196368 0.3443839991277184 1.3340303202870138 255 255 255
0.4812370052757189 0.3366118279844614 1.4361421018996634 255 255 255
0.4884120177088794 0.3375280427865541 1.4127089828108765 255 255 255
0.4857853635272678 0.3527983524314507 1.4274369456380234 255 255 255
0.4598950023765865 0.3649466361171021 1.4578891015583164 255 255 255
0.5287820358909687 0.3728265743514771 1.3797053189898172 255 255 255
0.5096632885494567 0.3896656923887965 1.3951225778721239 255 255 255
0.5367900745699890 0.4138497979232952 1.3499351033799958 255 255 255
0.5447423431136278 -0.4104216118044428 1.2774377237697829 255 255 255
0.5359960653519112 -0.3563315158442594 1.3076611327264416 255 255 255
0.4932565994301643 -0.3160261150177952 1.3336615961462117 255 255 255
0.4875962633883187 -0.3028539265744374 1.3397869417527304 255 255 255
0.5383746668083661 -0.2690503066332625 1.2853725764964621 255 255 255
-0.1558722505105237 -0.1511588520673989 1.1519114770535264 255 255 255
0.5168937243278532 -0.2587985016853647 1.3039090108952431 255 255 255
-0.1379698389292577 -0.1421302780461298 1.1408089324828741 255 255 255
-0.0706317365203577 -0.1613872707566648 1.1888594902280045 255 255 255
0.4751173368414898 -0.2580437755632384 1.3382596961772599 255 255 255
0.4682742939785433 -0.2314627272419397 1.3576081006047505 255 255 255
-0.1305481552761578 -0.0679412722206065 1.1133080284168366 255 255 255
-0.0742837039232267 -0.0803198979293425 1.1435794760311653 255 255 255
0.0800957432695911 -0.0381415574293454 1.0611085084740060 255 255 255
0.0608649030569630 -0.0462549528023768 1.0874103894791647 255 255 255
0.0525207800624541 0.0011556085966702 1.0629336705293770 255 255 255
-0.4072346200799282 -0.0564495047088071 1.2374099628450983 255 255 255
0.0434368138321760 0.0154132629152578 1.0674877661550493 255 255 255
0.1842167681275337 0.0221850394049063 1.0561871199921238 255 255 255
0.0123873712786180 0.0386455272963355 1.0574062337799750 255 255 255
-0.1866921281122779 0.0249694002049086 1.1104435341514343 255 255 255
0.1089919181960468 0.0402481098304254 1.0744754044895539 255 255 255
-0.0280258891271803 0.0380732164667717 1.1062809174358683 255 255 255
0.0429480234976314 0.0422122393191711 1.0929374502670843 255 255 255
-0.2385979552868779 0.0223802725980399 1.1682532360814903 255 255 255
-0.1023436960005482 0.0461993639932743 1.1306169793646705 255 255 255
-0.2924080925742160 0.0375155894478219 1.1767468839544608 255 255 255
-0.0386497435842092 0.0662824686238130 1.1420612721816228 255 255 255
0.0153962496977723 0.0741486291606562 1.1099660093562620 255 255 255
0.1300761114170683 0.0713149911539318 1.1073151535408314 255 255 255
0.4702116776884282 -0.0105679730279579 1.2872612597511846 255 255 255
0.2860936523147521 0.0439030432109901 1.1987392146506402 255 255 255
0.1052721433383177 0.0922123046908990 1.0975046727118458 255 255 255
0.4816661175135773 0.0022598364213648 1.3023064208509592 255 255 255
-0.2605926743653071 0.0704138485427166 1.1936925035462242 255 255 255
0.3684392417527428 0.0384537735484248 1.2556251376688083 255 255 255
0.3006789342916376 0.0577683336421920 1.2193841347966470 255 255 255
-0.1461328464160568 0.1065626866073985 1.1346366366277272 255 255 255
0.4688826348792273 0.0325417741643722 1.2978784165322126 255 255 255
-0.0685313033605424 0.1043507397566766 1.1489552659716575 255 255 255
0.5490650948694445 0.0526067127793964 1.2419005782220920 255 255 255
0.1246509566966611 0.1161686020563296 1.1187588673245146 255 255 255
0.2194995344315436 0.1142139040616442 1.1235667963407459 255 255 255
0.0866781725930046 0.1195020225177681 1.1288980544905891 255 255 255
-0.1092104822521119 0.1174156404694555 1.1539603490230212 255 255 255
0.0722060525316265 0.1276587907274858 1.1302303081566891 255 255 255
0.1878083915282907 0.1248119772304102 1.1342745795488007 255 255 255
0.3863591002843095 0.0685045816346140 1.2862186249800351 255 255 255
0.1463266576000794 0.1261116664596746 1.1386429433659402 255 255 255
-0.2592093469953223 0.1043782647418217 1.2363913936873081 255 255 255
-0.0696128540522252 0.1235110473081508 1.1670343740759215 255 255 255
0.0439439534257764 0.1368605570796244 1.1487880036879734 255 255 255
-0.0515110051061737 0.1365770740910450 1.1753384492019487 255 255 255
0.0299648754037314 0.1468209318092106 1.1556055412327235 255 255 255
0.1294334700677613 0.1467453768801540 1.1628068304708443 255 255 255
0.1194482222582663 0.1558076266190792 1.1719836616831261 255 255 255
0.2476997036645171 0.1443629855148774 1.2673478065741886 255 255 255
0.5506234603291910 0.1284421955692354 1.2891021951908683 255 255 255
0.0723129271260253 0.1891612431561115 1.2337526598668811 255 255 255
0.1382308647798918 0.1895811905663959 1.2381178465563616 255 255 255
0.4572250010232572 0.1502202705367505 1.3569845608449940 255 255 255
0.4460262700021543 0.1566675431930836 1.3648580481425561 255 255 255
-0.1237248535693665 0.1898966146474120 1.2982434774981815 255 255 255
-0.2041349427222917 0.1890862938228633 1.3176319283690927 255 255 255
-0.0731596869389249 0.1934989397390717 1.3084089989741390 255 255 255
-0.0469280265069081 0.2044774201420881 1.2742279869106801 255 255 255
0.0521618405456169 0.2065399917747573 1.3048472881490583 255 255 255
0.0743667289409739 0.2090429950174560 1.3075090962354943 255 255 255
0.0032636760815468 0.2117545393151622 1.3352758280363239 255 255 255
-0.0211788566998657 0.2169586962799308 1.3867149360347928 255 255 255
0.4320347295712523 0.1993483844286313 1.4223216031106001 255 255 255
0.3243465139452024 0.1923677146520952 1.5499600316039788 255 255 255
0.4480301935549403 0.2090542253248879 1.4075690298571097 255 255 255
0.5354053134160310 0.2285416422269581 1.3031601545845852 255 255 255
0.4724972414695530 0.2172642247536186 1.3900262322697985 255 255 255
0.0033521887992791 0.2271146062574343 1.4373909647748389 255 255 255
-0.0226456886735583 0.2405782926394041 1.4590431240235828 255 255 255
0.3712214645383354 0.2317020690007125 1.4699203953478295 255 255 255
0.4499926962616233 0.2462726975682466 1.4119648299410592 255 255 255
0.5239131915972615 0.3039172172080165 1.3738555280636247 255 255 255
0.4407967352028114 0.2923751677999324 1.4487455259933837 255 255 255
0.4630381068306293 0.3041006571833447 1.4295816894904656 255 255 255
0.4721142947968894 0.3075934086497407 1.4193137353345719 255 255 255
0.5478399476661400 0.3115704735644386 1.3794406179369700 255 255 255
0.3722007209862416 0.3134973382850337 1.5544038173261299 255 255 255
0.5391008702786143 0.3461858478360398 1.3682153433865991 255 255 255
0.4932967756172235 0.3833499941820865 1.4115144751030002 255 255 255
0.5621090106738590 -0.3977408791611092 1.2765290179259363 255 255 255
0.5651190928698477 -0.2992073390591450 1.2715089124272310 255 255 255
-0.0940128349383153 -0.1597084844241808 1.1431678090176705 255 255 255
0.5360370836941041 -0.2331767883998217 1.2776916029170557 255 255 255
-0.2949906737303437 -0.1469843605813396 1.2038854954050049 255 255 255
-0.1422931618969031 -0.0241683897058531 1.1079906259945271 255 255 255
0.1871561191780553 0.0359550188227584 1.0485955508218832 255 255 255
-0.0704508620607999 0.0317097909128738 1.1434038531306270 255 255 255
-0.4053145695166232 0.0064235587419789 1.2294745976341896 255 255 255
0.1962965635117354 0.0707653148419501 1.0760554007453573 255 255 255
0.0549883659222121 0.0850416229118558 1.1062397706726148 255 255 255
0.3150186194644448 0.0396856676579054 1.2159291806012680 255 255 255
0.2083263082510623 0.1030149383492909 1.1009244867375918 255 255 255
-0.0870746005605287 0.1132907781840380 1.1392761168436625 255 255 255
0.0547761640149429 0.1173223017583941 1.1256431101992934 255 255 255
-0.1368575564526441 0.1310731470475519 1.1490287896197622 255 255 255
0.1605319351525706 0.1289060435430402 1.1332920423524993 255 255 255
0.1304131550792144 0.1303968840756962 1.1432882660945805 255 255 255
0.0297038589302550 0.1333481159613496 1.1477413244078813 255 255 255
0.5378370721042670 0.0851374832437723 1.2759480367704372 255 255 255
0.1628158631404883 0.1465431304255319 1.1564902202020197 255 255 255
0.1196041030404198 0.1563922197586674 1.1698946082600514 255 255 255
0.1396134875063337 0.1753033508852813 1.2161056815985123 255 255 255
0.5145904557924902 0.1437247994640432 1.3028693915060294 255 255 255
0.5036419553720105 0.1596276116313983 1.3278082822910151 255 255 255
-0.2128407027098399 0.2105222086165401 1.3671867615406128 255 255 255
0.5024999208644245 0.2061534662448337 1.4218591248029917 255 255 255
0.4539435757323943 0.2218406564148104 1.4082600864267274 255 255 255
0.0923125861548189 0.2395082021237786 1.4095027349601643 255 255 255
0.5198504147196652 0.2606920437109538 1.3647895301974775 255 255 255
0.5094609854823894 0.2623291340868010 1.3713799583547672 255 255 255
0.4712660434822914 0.2922251603839393 1.4198325084642136 255 255 255
0.5187034530216020 0.3034327120616985 1.4354395352523976 255 255 255
0.5510406823601135 -0.3454744962236611 1.2898788261534384 255 255 255
0.4286912325988865 -0.4105840069168772 1.4594664335524141 255 255 255
-0.2646925577479119 -0.2055095031772784 1.2071066649977169 255 255 255
0.4983929498594118 -0.2628984202843401 1.3290515563344212 255 255 255
0.5365088598092975 -0.2353775002012779 1.2804175091792755 255 255 255
-0.2946111518983560 -0.1688973761869428 1.2052774378415279 255 255 255
-0.0694615502005946 -0.1497803931131409 1.1702520780467114 255 255 255
0.1742770410969051 -0.1085526833978850 1.1455982609434412 255 255 255
0.5394762520165113 -0.1670004744830345 1.2550949731692544 255 255 255
-0.1306993352343674 -0.0767458308768950 1.1250478236028985 255 255 255
0.1323934426785984 -0.0306392617002958 1.0742914023278736 255 255 255
0.1118069417762876 -0.0256167679534838 1.0787597272366529 255 255 255
0.2132560564875868 -0.0219771438884140 1.0784590253804860 255 255 255
0.1873135914870650 -0.0027941812495126 1.0477857553988001 255 255 255
-0.2484915964889379 -0.0396676986051456 1.1672456905110626 255 255 255
0.1790388145865436 -0.0038341740897721 1.0619940292596264 255 255 255
0.0532641880143653 0.0008055715215855 1.0661628553527969 255 255 255
-0.0911014865952020 -0.0142957765756237 1.1120062987962687 255 255 255
0.0983120130227421 0.0070909521103644 1.0623249784529891 255 255 255
0.4631649692641461 -0.1171956214336284 1.3178133221924393 255 255 255
0.1138795970377805 0.0064015868155355 1.0812674153076320 255 255 255
0.1067931628704705 0.0367081408582119 1.0835099994512121 255 255 255
0.3031639218215635 -0.0148312155251806 1.2131727720866243 255 255 255
0.4985808281366854 -0.0605006886137531 1.2994771444323570 255 255 255
-0.2390252461936798 0.0216279152452718 1.1644097011124819 255 255 255
0.0589738179418714 0.0498312101342487 1.0855041950778139 255 255 255
0.2006636748472705 0.0617225438029001 1.0657316657350755 255 255 255
0.5289405035873564 -0.0337222720443170 1.2835806308482163 255 255 255
-0.0736150979565859 0.0495728133756420 1.1333868251847206 255 255 255
0.3590786746970279 0.0084047901820241 1.2323004834946953 255 255 255
-0.2728384005449985 0.0488540675800461 1.1830548965813397 255 255 255
-0.0712108798391467 0.0577275684113060 1.1520201271290629 255 255 255
-0.0378996612715323 0.0629765707518430 1.1460556240532858 255 255 255
-0.3350037572777868 0.0401813165073688 1.2191607074495210 255 255 255
0.1798729922455156 0.0791714775893406 1.0897883051212136 255 255 255
0.2016943126800685 0.0823391731100119 1.0859316816048741 255 255 255
0.5179170312752498 -0.0003618885854290 1.2995096963464750 255 255 255
0.4841797320753005 -0.0041408521836418 1.3056630948712604 255 255 255
-0.1074098731390784 0.0834283899280484 1.1417809677042599 255 255 255
0.1767152654248503 0.0986950075208083 1.1176366682540109 255 255 255
-0.1328866071915531 0.0976932901779190 1.1453520055404598 255 255 255
-0.1497247779606528 0.1078387412327038 1.1381996571843109 255 255 255
-0.0669145432867920 0.1045942199466439 1.1482026801298031 255 255 255
-0.0284734354488762 0.1065956525727318 1.1486840755322505 255 255 255
0.1568759921715457 0.1145763048701282 1.1214874947018569 255 255 255
0.1226222787439921 0.1170589339298020 1.1221477860365290 255 255 255
-0.1807441800974821 0.1138772523683497 1.1619501361714026 255 255 255
-0.2542676804337204 0.1092754216541714 1.2221603452559076 255 255 255
-0.0689868274868982 0.1231561185074011 1.1659820942291059 255 255 255
0.1614855216188218 0.1308173846247969 1.1432141420711159 255 255 255
-0.0500654227945042 0.1364099754990418 1.1754019670527169 255 255 255
-0.0063922218040088 0.1456004483947630 1.1526974011701345 255 255 255
0.0948732210739391 0.1445969568321054 1.1512336732363375 255 255 255
-0.1205039859366032 0.1482009754242682 1.1723118606195388 255 255 255
0.3650033542339846 0.1001189217567577 1.3068180463474084 255 255 255
0.4780053063655884 0.1037056460339598 1.3232108270896354 255 255 255
-0.1058218431670771 0.1531765739007290 1.2250762238249071 255 255 255
0.1081127290155471 0.1680993429150693 1.1910730782587911 255 255 255
0.4688943827510364 0.1188041243720649 1.3456299037420347 255 255 255
0.5023075514889032 0.1463142203495160 1.3123034172873411 255 255 255
-0.2076997591125507 0.1877821923046790 1.3293426846089296 255 255 255
0.3833932564865111 0.1577709099777788 1.3786283068909839 255 255 255
0.0552999995478223 0.2048259439515436 1.3037421921991725 255 255 255
-0.0303576694765852 0.2116667060078095 1.3350768743207637 255 255 255
0.0038014426167629 0.2110036507012701 1.3401990135338087 255 255 255
0.4526505259184205 0.1881161988091615 1.3910344478675822 255 255 255
0.4146767924715821 0.2046150338053365 1.4392519596648199 255 255 255
0.3065294637781860 0.1956899813225081 1.4968248846487162 255 255 255
0.3296961254362031 0.2012544828950916 1.5567773284394439 255 255 255
0.4764804916003032 0.2346019923104474 1.3939221856957535 255 255 255
0.3999765105874324 0.2281765816861158 1.4454274532424145 255 255 255
-0.0197221971257921 0.2413449053918210 1.4474001389191373 255 255 255
0.0726025945600449 0.2457521998718834 1.4255259579242716 255 255 255
0.4866064133102381 0.2530496446023400 1.3767866613161752 255 255 255
0.3628366282122734 0.2524307931318114 1.4915900909225288 255 255 255
0.3718203508659496 0.2893726930705346 1.5570663111895311 255 255 255
-0.3022739694947083 -0.1844985805657414 1.2273134372946823 255 255 255
-0.2667117961591905 -0.1662651414692319 1.1991142271217810 255 255 255
0.4739549347432128 -0.0913017961929461 1.3065836287081372 255 255 255
0.0598170745496830 0.0521790556575907 1.0939961731539127 255 255 255
-0.1654193007193061 0.0620759028720896 1.1308710732385518 255 255 255
-0.1006183361391356 0.1131165838491488 1.1312450887488368 255 255 255
0.1197502912615322 0.1219494516514015 1.1246614286192465 255 255 255
-0.0697345512406915 0.1242396397923652 1.1641071176484890 255 255 255
0.3469494329355650 0.0762806004925659 1.2711946384592354 255 255 255
-0.1175055851821633 0.1503407988149707 1.1673140948399439 255 255 255
-0.2695930226550910 0.1571516527963822 1.2044953743531817 255 255 255
-0.3661075803481584 0.1579957240305046 1.3948196877430190 255 255 255
-0.3383593454003468 0.1612946921978386 1.4149569711875025 255 255 255
-0.1154688021087051 0.1854382816297564 1.3065805386578049 255 255 255
0.1933628021735009 0.1808304439643048 1.3241247681450850 255 255 255
0.4724467134138951 0.1700600303481636 1.3614180536838387 255 255 255
0.0633985114674434 0.2043470101866876 1.3215109871088180 255 255 255
0.4328269298706240 0.1905436232708379 1.4257355438721955 255 255 255
0.3533990685603033 0.1990555891955017 1.5255383612525015 255 255 255
0.0237219760714682 0.0553510884470815 1.1017671967157261 255 255 255
0.4536114984363020 0.1507867735353660 1.3622106967016052 255 255 255
0.0235714492311952 0.2256981886036410 1.4032242754602984 255 255 255
-0.2994614156278348 -0.1603762350297169 1.1872925133230765 255 255 255
0.1538874498889650 0.0058061717513145 1.0703371893485776 255 255 255
-0.2126659800904901 -0.0131251905323390 1.1273497697063948 255 255 255
-0.0902076446548580 -0.0031912191861350 1.1110635582586423 255 255 255
0.0299887341909666 0.0296019477877503 1.0720226720597770 255 255 255
0.0590442194405415 0.0562262266600824 1.0928218022707008 255 255 255
0.1428883721644008 0.0578484612437343 1.1059684482405394 255 255 255
0.1817492370576389 0.0735761823370192 1.0848559960217303 255 255 255
0.1140148689007948 0.0880262006459659 1.1035248099681558 255 255 255
-0.0746344583470137 0.0858903645999557 1.1338893720953662 255 255 255
-0.1020080836829451 0.1103691122382530 1.1458270784668616 255 255 255
0.1557217167364947 0.1148906765605147 1.1229012892674106 255 255 255
-0.0518145651850388 0.1046723155063302 1.1728700784404364 255 255 255
-0.0701892471275266 0.1253450289182883 1.1668291745996568 255 255 255
0.3400482722289043 0.0827364569388829 1.2714417795613155 255 255 255
0.1373050182681398 0.1473812063234585 1.1628470810047020 255 255 255
0.0262041518023502 0.1528574927039280 1.1741180285303954 255 255 255
0.1099987793731003 0.1599329034065029 1.1817770477237222 255 255 255
-0.2005328965612256 0.1676266666296548 1.2660352950612233 255 255 255
-0.1602270781625514 0.1902959713286639 1.3073136915755321 255 255 255
-0.0173230093028498 0.2001074290717413 1.2532118729570410 255 255 255
0.1955906245996505 0.0108267720730338 1.0581153760898463 255 255 255
-0.0118608673016209 0.0703120886552525 1.1386172901987315 255 255 255
-0.1962723322757988 0.1599934406508528 1.2554375797970947 255 255 255
0.1051738650820990 0.1370051084164041 1.1327924139622045 255 255 255
0.5747272267360364 -0.4742826632285411 1.2456153204004456 255 255 255
0.6589601791974204 -0.4260644561487751 1.2019017392082645 255 255 255
0.5405995064704027 -0.4775113665220641 1.2753269537315646 255 255 255
0.6483630984184252 -0.4076771204887444 1.2103774708487880 255 255 255
0.5482692777021798 -0.4675387068071610 1.2803168444949620 255 255 255
0.5541691686557544 -0.4420155121149030 1.2640763336090106 255 255 255
0.6491937317700356 -0.3947588869453152 1.2164319086181037 255 255 255
0.6088837399275531 -0.4128092795973997 1.2381237761507173 255 255 255
0.5334322495627090 -0.4566122278157360 1.2836618946924265 255 255 255
0.5202351024816274 -0.4606164357819878 1.2969548681592848 255 255 255
0.5394363667772438 -0.4016456204724536 1.2878837036566371 255 255 255
0.6221898331406434 -0.3313637724948881 1.2227066693249504 255 255 255
0.5579745177759183 -0.3521840360623612 1.2804154830906329 255 255 255
0.6303840051317499 -0.2983132629260887 1.2208930344788544 255 255 255
0.6244549581704385 -0.2788704364151088 1.2258974150406001 255 255 255
0.6200076507320940 -0.2717690934518245 1.2303622288695286 255 255 255
0.6070914047086580 -0.2737742902722131 1.2407925567770559 255 255 255
0.5113864711151460 -0.3309974424938413 1.3243212085428036 255 255 255
0.5692326102292526 -0.2796458138258714 1.2653367867737175 255 255 255
0.5687758358819511 -0.2472151042757158 1.2588376401273291 255 255 255
0.5012087224467954 -0.2963390743886292 1.3205048242842530 255 255 255
-0.0677102008406196 -0.1423083871053552 1.1754670032678900 255 255 255
-0.1458604419735482 -0.1090637163169427 1.1596131655454824 255 255 255
-0.3827601599329946 -0.0897878556641088 1.1907634401590261 255 255 255
0.0424719956817070 0.0021054861847696 1.0649266934063075 255 255 255
0.0982720405245677 0.0094564539047475 1.0573990011203387 255 255 255
0.5461754989099551 -0.1538659804210251 1.2517916788251793 255 255 255
0.6085348787467336 -0.1397909040825880 1.2333529696161023 255 255 255
0.5458433859501655 -0.1549416096176132 1.2663188008102169 255 255 255
-0.4007557372550950 -0.0143756775823928 1.2385719504778645 255 255 255
0.2359591032830123 0.0617690889328978 1.1106675473816234 255 255 255
0.1205562209633442 0.0976298575416976 1.1154275638784401 255 255 255
0.3018561178768930 0.0342289511920898 1.2037410940211344 255 255 255
0.5710588567549194 0.0235856589372167 1.2378607117200304 255 255 255
0.1061401481611575 0.1342183738437202 1.1461683195717383 255 255 255
0.2867459433641729 0.0793487841925388 1.2379722797313946 255 255 255
0.3249905924202262 0.0691593148680796 1.2517255618157201 255 255 255
0.3484027714311560 0.0666388545311770 1.2589596096900537 255 255 255
0.1336381907625177 0.1395636446974665 1.1584909799950796 255 255 255
0.0881808239707705 0.1462126906334054 1.1603825017943210 255 255 255
0.3416472727580986 0.0783843157985036 1.2690323196719844 255 255 255
0.3197123712125078 0.0856183075785069 1.2699341437546956 255 255 255
0.3487519857804490 0.0843812035359761 1.2751391980259521 255 255 255
-0.1272881029520143 0.1622854885059059 1.1678005021213078 255 255 255
0.1677094993126480 0.1566683091530274 1.1640804626660082 255 255 255
0.2923990511210061 0.1027985433691098 1.2711982390346910 255 255 255
0.0632839424544081 0.1662907015088712 1.1854839455830295 255 255 255
0.3250665007107815 0.1039355982238410 1.2893826573538480 255 255 255
0.1651101799779400 0.1669575686350517 1.1873817424742130 255 255 255
0.3221781254757315 0.1074291167719114 1.2981211358811373 255 255 255
0.1537682397174404 0.1691722622232330 1.1971933893075624 255 255 255
0.1066753955079986 0.1721391930320766 1.2009103048283618 255 255 255
0.5360670600330767 0.1261171090908804 1.2639296780665843 255 255 255
0.0963050220132041 0.1751689535616069 1.2010548234403604 255 255 255
0.2936624338058106 0.1227223335734696 1.3015071226692136 255 255 255
0.5316877015315410 0.1316380081487285 1.2745356690115313 255 255 255
0.2860708923536718 0.1293649566256923 1.3095453273446089 255 255 255
0.3038857212380229 0.1265375147022874 1.3134131342023974 255 255 255
0.1322298858236814 0.1801201623216583 1.2275335315064908 255 255 255
0.2530140732991283 0.1504412725970356 1.2763377390041617 255 255 255
0.1479798204479607 0.1814217023610766 1.2226553476296669 255 255 255
0.5363720099661207 0.1434661648063791 1.2811781521371839 255 255 255
0.3096979693902195 0.1326813529968531 1.3226073591118170 255 255 255
0.2820121159947915 0.1371449797228337 1.3202260864320750 255 255 255
0.2927590390909294 0.1383137810715975 1.3254564014149346 255 255 255
0.2777584342287528 0.1453471376271361 1.3263967613905077 255 255 255
0.5404922252906784 0.1581771980902633 1.2891492666555298 255 255 255
-0.1540605577578345 0.1887895313011385 1.2883872580178619 255 255 255
0.5275349745903296 0.2074806329462456 1.3324509434787470 255 255 255
0.5516489817448489 0.2209519499783561 1.3142122567340184 255 255 255
0.4934372724620881 0.2051383385347347 1.3647847231230390 255 255 255
0.4424288325462639 0.2092424008369690 1.4066733450430822 255 255 255
0.5469969917525029 0.2401658652623308 1.3298022590749761 255 255 255
0.5487200753227577 0.2472956219845787 1.3289756515232987 255 255 255
0.5508150118676889 0.2585490057080685 1.3245401373126040 255 255 255
0.0612535498543300 0.2386710218559060 1.4168279516142757 255 255 255
0.5258514410963221 0.2604970223411128 1.3551616963963036 255 255 255
0.5292475036728229 0.2684047952441214 1.3507340590579131 255 255 255
0.5531721813231333 0.2875548058244454 1.3318799932514671 255 255 255
0.4102113523225098 0.2502401993317572 1.4564932554071095 255 255 255
0.4597317597455932 0.2657925607284606 1.4197590974729515 255 255 255
0.5175180178138233 0.2842821314165069 1.3702354248424331 255 255 255
0.5247062800570009 0.2914002671288266 1.3730249511408048 255 255 255
0.4829340455095782 0.2987024742603738 1.4091602458465584 255 255 255
0.4589029826011514 0.3001654672407533 1.4358551177639562 255 255 255
0.4369383212737377 0.3122555701683357 1.4640737739030039 255 255 255
0.6472362422263681 -0.3947954983637644 1.2251535633604291 255 255 255
0.5918769232810985 -0.4003421101392833 1.2420350664585993 255 255 255
0.6335216636181095 -0.3291859540944747 1.2135035717412395 255 255 255
0.4413923010572690 -0.4911607412467912 1.4120092854173272 255 255 255
0.5262690520134703 -0.2816161616220790 1.2931885448254337 255 255 255
0.5379737779172419 -0.1985537598973565 1.2654945347750977 255 255 255
-0.0743565083318257 -0.0784704659432520 1.1400619551173801 255 255 255
-0.3602278039955329 -0.0887546388177497 1.1850935454805349 255 255 255
0.0581865837649557 0.0292121803462063 1.0683707849171966 255 255 255
0.0441171569780419 0.0318181025450161 1.0799340233999486 255 255 255
0.1952502859165965 0.0831015424032930 1.0809712862724843 255 255 255
0.0000413996923639 0.0751524964197724 1.1253259709265662 255 255 255
0.0813937892657479 0.1061469707873689 1.1053000431208926 255 255 255
0.4612113466445155 0.0073096736785324 1.2993083879682727 255 255 255
0.1880262080952514 0.1412043177070118 1.1620307447397935 255 255 255
-0.0574794993043344 0.1506795703659350 1.1798876745378977 255 255 255
0.5490523431399162 0.1131237363658881 1.2473225503632592 255 255 255
0.3623306802716861 0.0989960281596812 1.3031659504700959 255 255 255
0.1143542351556281 0.1647729949650909 1.1975278611470477 255 255 255
0.4422466929424755 0.1147537601196719 1.3377713057795795 255 255 255
0.4251084893877359 0.1467804208780373 1.3621724583898063 255 255 255
-0.0967290183416095 0.1949522601376177 1.3001654661372894 255 255 255
-0.0767541024243798 0.1946451518260825 1.3011547922028170 255 255 255
-0.0454940621712509 0.1999025841352497 1.2882566856135143 255 255 255
0.5375655918142318 0.2991101617677078 1.3532034392215564 255 255 255
-0.0751374743982438 -0.1683616199532431 1.1659506821719574 255 255 255
0.5257790316839345 -0.1970626868354281 1.2712944314866226 255 255 255
0.2079170981685928 0.0405760447506655 1.0437211350159332 255 255 255
-0.0741418271185776 0.0436879403858313 1.1504644603098013 255 255 255
0.0898191530563020 0.0876027104534664 1.1040317506977755 255 255 255
-0.0093858591885556 0.0812293653851770 1.1210606179605209 255 255 255
0.2060157155977907 0.1178975620966737 1.1213439685506428 255 255 255
0.3364830173122031 0.0466855277025018 1.2356931665636921 255 255 255
0.0755688214095253 0.1449840935568835 1.1407921380740680 255 255 255
0.1136006320083606 0.1438216593068372 1.1582783156706464 255 255 255
0.1530328250174364 0.1500021048496022 1.1629682546387810 255 255 255
0.1767270510149763 0.1570040650199983 1.1681283229789998 255 255 255
0.3545476040428983 0.0898631715036822 1.2914580078860265 255 255 255
0.1788818965169010 0.1602321964611106 1.1838477332670396 255 255 255
0.1254939326472547 0.1693289198221099 1.1888287287686243 255 255 255
0.5905684733220397 -0.4050001070912520 1.2464976859102999 255 255 255
0.5735590485357237 -0.3888279080543753 1.2481800758022099 255 255 255
0.4336159436167525 -0.5036752562436735 1.4192549723493078 255 255 255
0.5704327839010321 -0.1942279836816697 1.2513157930405205 255 255 255
-0.1624111510321146 -0.0091164818126712 1.1118270603192233 255 255 255
0.5409235818267367 -0.1168016413917811 1.2559358600368788 255 255 255
0.4961887537828509 -0.1299478582555736 1.3109832808020265 255 255 255
-0.4057229386487294 -0.0082632937848259 1.2122880987243154 255 255 255
-0.1231995541198850 0.0707067296165303 1.1282406603661104 255 255 255
-0.4261616068815962 0.0152627988067252 1.2517008035634043 255 255 255
0.2201633320451362 0.1124659349874549 1.1243314606753809 255 255 255
0.3388326907913707 0.0550036524660775 1.2563003307498479 255 255 255
0.3865136327133831 0.0638301229442348 1.2906100838162908 255 255 255
0.2141902917496270 0.1397112937162666 1.1891128474966826 255 255 255
0.0220177923023929 0.1618578634682336 1.1701404320364903 255 255 255
0.0708653239990231 0.1570710160952712 1.1779030698523423 255 255 255
-0.0984808705520456 0.1648393926372803 1.1933498397710425 255 255 255
0.1088826454043561 0.1695013747069142 1.1898874463663462 255 255 255
0.2633379418618583 0.1294563634358198 1.2708226821898705 255 255 255
0.1086399918510611 0.1759191473235082 1.2120469909861324 255 255 255
0.5249398445027855 0.1687468568887004 1.3059222433270363 255 255 255
0.2546981388248427 0.1563454074180210 1.3570631843522527 255 255 255
0.0137975837099792 0.2024172761280397 1.2842948947711506 255 255 255
-0.0210196750087909 0.2043403987428998 1.2883847532295998 255 255 255
0.0324479183901608 0.2087637453235253 1.3773134486555316 255 255 255
0.0181373881658992 0.2176719156986449 1.4103991513004965 255 255 255
0.3810312743345262 0.2153691299814857 1.4649797863165621 255 255 255
0.3417652104303522 0.2002369111867466 1.5309536302107070 255 255 255
0.0287589404385896 0.2545841851597626 1.4640431511810146 255 255 255
0.1542859406314862 0.0127412816043270 1.0557618285584309 255 255 255
-0.1282400741825537 0.0645108679104093 1.1145209542340444 255 255 255
0.1807149178660521 0.0739665474818076 1.0911132392734402 255 255 255
0.0114869459948772 0.1314642682121591 1.1305731753090751 255 255 255
0.1848391587455299 0.1229705088995767 1.1376270389843326 255 255 255
0.0222756949039748 0.1575923070601682 1.1753132831779303 255 255 255
-0.0180057213590511 0.2044613650438651 1.2810801733320418 255 255 255
0.3439899525408840 0.2026122655601519 1.5164144830653961 255 255 255
0.3504893854145008 0.2441757392250544 1.5385301590527800 255 255 255
0.0721543540735560 -0.0123160892745617 1.0586175075996760 255 255 255
0.0420763860715564 0.0408708266849755 1.1000080123254365 255 255 255
0.1059448332505011 0.1473791346756112 1.1555799280305219 255 255 255
-0.0768006543584781 -0.1280119239698118 1.1561594374664921 255 255 255
0.1231796675218637 -0.0585907780612663 1.0782636125332170 255 255 255
-0.2653844741583535 -0.1689039164631458 1.2233894210023364 255 255 255
0.1187856598095467 0.1229900478118468 1.1322680712450222 255 255 255
0.1864237417108687 0.1223484888974305 1.1352892093187519 255 255 255
0.1105053619555937 0.1656568246943334 1.1729436967369162 255 255 255
-0.2393280586962892 0.1363820408830755 1.2460591892479818 255 255 255
0.1193359571520534 0.1842182747149715 1.2305031912942150 255 255 255
0.0586337365981882 0.1834476938171287 1.2666995961502041 255 255 255
0.0973042525150453 0.2111910911166109 1.3559412638419461 255 255 255
