ply
format ascii 1.0
element vertex 684
property double x
property double y
property double z
property uchar red
property uchar green
property uchar blue
end_header
0.0594816175774597 -0.0567799505198486 1.0714344160529696 255 255 255
-0.1190888241294879 -0.0525201186914478 1.1288274055740952 255 255 255
0.0074156470490947 -0.0527723343209265 1.0839756283703850 255 255 255
-0.0282529740677470 -0.0507476024080738 1.0994072944016937 255 255 255
-0.2529234407465454 -0.0585280812261098 1.4211042311256676 255 255 255
-0.0209703626605701 -0.0482978428328454 1.1014382507703249 255 255 255
-0.0873524948768442 -0.0470016530726363 1.1106757437792052 255 255 255
0.0443869804926025 -0.0435948490990529 1.0585373218510219 255 255 255
-0.1222342651507114 -0.0325698786012784 1.1422392623348741 255 255 255
-0.1211572975740806 -0.0148335326779917 1.1889691398509041 255 255 255
0.1192564646090018 -0.0117011010936239 1.1048932132266969 255 255 255
-0.1099304082247015 -0.0096227055490005 1.1370609443767943 255 255 255
-0.2603801196218005 -0.0010748778411018 1.4331132510343760 255 255 255
-0.1630931511361642 -0.0024271416299087 1.2787069457092599 255 255 255
-0.2355625523388583 0.0058213968228724 1.4081120810004644 255 255 255
0.1156068497079224 0.0022720955497934 1.1062248898566132 255 255 255
-0.2068780283158111 0.0124164854962609 1.3429518361727302 255 255 255
-0.0037276743195645 0.0232094286323733 1.0592655684513272 255 255 255
-0.2060041967632368 0.0379833967468580 1.4337850678634603 255 255 255
-0.1755444334718053 0.0346967292641669 1.2427854037621502 255 255 255
-0.2191669094807533 0.0737394528984555 1.3789944452989444 255 255 255
-0.1069393787922387 0.0644294771787130 1.1256212205021823 255 255 255
0.0041313389803352 0.0583804861200610 1.0091578745387917 255 255 255
0.0139785152241463 0.0650757562392791 0.9884586467901019 255 255 255
-0.1196150109833641 0.0805228083425496 1.1280085692432971 255 255 255
-0.1112106441677523 0.0864268721556075 1.1221405780843936 255 255 255
-0.0345382125268660 0.1000923604523661 1.0772160379995088 255 255 255
-0.0139232999027375 0.1059730502803154 1.0518679913264335 255 255 255
-0.0118227987799922 0.1164934186278922 1.0412137013376974 255 255 255
-0.0242257409001717 0.1221353492366635 1.0569578049092405 255 255 255
-0.0342561651356936 0.1272473146870365 1.0602257496595409 255 255 255
-0.1042749204186993 0.1404244184719253 1.1228434670992866 255 255 255
-0.0761746339905185 0.1375869389220990 1.0881489732687515 255 255 255
-0.0889904625253160 0.1546702003617258 1.0958856648890809 255 255 255
-0.1032643977239239 0.1651498200531251 1.1160161733975666 255 255 255
-0.0802210928962628 0.1678283417303545 1.1014799366838461 255 255 255
0.0029357525013481 0.1733429478346789 1.0455753098087772 255 255 255
-0.1152658642397787 0.2366085073425685 1.2750192288911610 255 255 255
0.0363296185374321 0.2051531194955330 1.0680520811189225 255 255 255
-0.0677341274761493 0.2206342438126896 1.1017258572893041 255 255 255
-0.0760268000675373 0.2254244983217430 1.1131497702696020 255 255 255
-0.0320536956116918 0.2255994125136763 1.0793015775461896 255 255 255
-0.0066404654928035 0.2168818663701271 1.0659639737471434 255 255 255
0.0224220321829551 0.2321576843232224 1.0531214661916699 255 255 255
-0.0394195303401915 0.2418869775983567 1.0940487705748714 255 255 255
-0.0259742963299238 0.2373866391790261 1.0693690592325744 255 255 255
-0.1024080941579830 0.2859947265552810 1.2780666615769114 255 255 255
-0.0436386724434527 0.2617371945106958 1.0863119810967341 255 255 255
-0.0370581735235189 0.2606642360975757 1.0791925492863979 255 255 255
-0.0987382341612440 0.3065163973381387 1.2790462822498818 255 255 255
0.3975809633475905 0.4013040326465895 1.4845582084037521 255 255 255
-0.3333002007634668 0.3978711877591004 1.4988408726346574 255 255 255
-0.0140167830264656 0.3476727438852966 1.2151190945911936 255 255 255
-0.3566237099451991 0.4071598825132796 1.4849467150420705 255 255 255
-0.0313668788707080 0.3532505813692278 1.2113139280763354 255 255 255
-0.0529236453544922 0.3661984416533530 1.2414276804765578 255 255 255
0.2402742707572730 0.3903171198281756 1.2418023579238717 255 255 255
0.5266521861297019 0.4601589982431724 1.4079442065695646 255 255 255
0.2568253068746364 0.4298715236572725 1.2577709336332874 255 255 255
-0.3141623913367599 0.4409953122793550 1.3935606641889235 255 255 255
-0.1946203396508996 0.4419209276998434 1.3467792748649574 255 255 255
0.4553508592112767 0.4919213621158944 1.3831464121467967 255 255 255
0.2106286938833519 0.4350304876216569 1.2307119420039789 255 255 255
-0.1491805257714274 0.4474340655239153 1.3395457650077707 255 255 255
0.3915199240364592 0.4848224254659316 1.3467059775886381 255 255 255
-0.3955499011848554 0.4555303848464466 1.4230386354377462 255 255 255
-0.3720008883916263 0.4621835647344816 1.4142021810933227 255 255 255
0.4191157141243623 0.5058722879561767 1.3763182748996374 255 255 255
-0.3815878084943727 0.4719587588508172 1.4189628441485487 255 255 255
-0.3312289734716431 0.4614651560983543 1.3740771540194010 255 255 255
-0.3594062298023374 0.4707652709071110 1.4013537017531983 255 255 255
-0.3725137886119102 0.4732594077411191 1.4019954082940265 255 255 255
-0.3242646956706240 0.4654501875792380 1.3650580499425653 255 255 255
0.2673270688168838 0.4892922216248212 1.2956327474940481 255 255 255
-0.3956251539155574 0.4720920757865362 1.3744344757467435 255 255 255
0.1822087672708513 0.4716442585053830 1.2712146659509733 255 255 255
0.4702562013009376 0.5227540437323982 1.3401171045514986 255 255 255
0.3679583896620172 0.5141590637433422 1.3291818803020599 255 255 255
-0.3393545327507172 0.4793413609673176 1.3651780742697246 255 255 255
0.1725948206041415 0.4792597641342173 1.2657217290482157 255 255 255
0.2639323224012028 0.4988665577987221 1.2931926176026278 255 255 255
0.3491587716460116 0.5192500208595452 1.3300592216658613 255 255 255
0.1772266960024575 0.4966956371150932 1.2788247969907580 255 255 255
-0.3442596311448048 0.4843553734595030 1.3578383740868529 255 255 255
-0.3300791157332916 0.4849668664805908 1.3512843722351040 255 255 255
0.1276802548733831 0.4932571835820126 1.2760525945894872 255 255 255
0.4613302021127473 0.5355268483189694 1.3281171563955638 255 255 255
0.0097732042520990 0.4778079506271502 1.2455894508996070 255 255 255
-0.3145281910394706 0.4880753567522353 1.3413587865528205 255 255 255
0.0410123232479987 0.4782297665452265 1.2377584691660195 255 255 255
0.3266384601731849 0.5322613098982205 1.3214437330834983 255 255 255
0.4726136868347193 0.5361746159936421 1.3126056689780219 255 255 255
0.1397473019917991 0.5056411892089259 1.2749317329767857 255 255 255
0.3494219984238326 0.5379870138227860 1.3185851400742772 255 255 255
-0.3406580727808633 0.4991414694667156 1.3428752451852928 255 255 255
0.4638242737599148 0.5523423825855693 1.3197042216068473 255 255 255
0.4045845302097835 0.5508513925627018 1.3104508804384782 255 255 255
0.0361733741260196 0.4935291326778195 1.2323985394426860 255 255 255
-0.3465261653591263 0.5062150955560472 1.3366177474226357 255 255 255
-0.3766481572420043 0.5177264556778296 1.3695886355842390 255 255 255
0.1799480369207306 0.5133152845124881 1.2175914351447890 255 255 255
0.2634031371370129 0.5291402613839118 1.2534738269163870 255 255 255
-0.4083658484989471 0.5141504618727211 1.3393981116847917 255 255 255
-0.3725597349686188 0.5234324984523796 1.3522144799951932 255 255 255
0.0045365963655294 0.5092796657958876 1.2373628188414834 255 255 255
-0.3782899380395633 0.5403352468041407 1.3851931680066112 255 255 255
0.3428726449834657 0.5520438476469017 1.2649682059037302 255 255 255
-0.3930798300608874 0.5276631994343698 1.3473427684698898 255 255 255
0.4570618052652134 0.5841481549822291 1.3038848609170535 255 255 255
-0.3225446136510506 0.5337920755777291 1.3192841765850551 255 255 255
-0.3019949777369775 0.5347586039711044 1.3201042019770159 255 255 255
-0.2947115975057334 0.5347287294369311 1.3080687539176052 255 255 255
0.4122272845349765 0.5907075412831989 1.3067709309647686 255 255 255
-0.0439831617146120 0.5106470673295357 1.1777935394085153 255 255 255
-0.4070067227379946 0.5363799235517032 1.3112389548935528 255 255 255
0.4615134757402293 0.5996392348681087 1.2948816140273609 255 255 255
0.4191780858809674 0.6034598475354016 1.3102634708481715 255 255 255
-0.3468786782397573 0.5433952386219516 1.3104039332718065 255 255 255
0.3647487436772708 0.5906921707286096 1.2790590284450132 255 255 255
-0.3063403006684788 0.5498681114249735 1.3018931638159934 255 255 255
0.3947741494205881 0.6020602985930945 1.2820304308079984 255 255 255
-0.1833758305501213 0.5159251692272975 1.1758237871378772 255 255 255
0.0597604271451946 0.5586047368223037 1.2375960802866177 255 255 255
0.0987847693834047 0.5622319107619222 1.2411479887568824 255 255 255
-0.2781478672261792 0.5466179203893144 1.2723639865777177 255 255 255
0.4546762879939777 0.6200584038206389 1.2951163740241656 255 255 255
-0.1988675265539384 0.5248894051612550 1.1863855287191074 255 255 255
-0.4150941712419092 0.5546622609816259 1.3040275116706794 255 255 255
0.3761498034726882 0.6139109257576040 1.2836990959839982 255 255 255
-0.3868673008688086 0.5657600679530368 1.3168346422543320 255 255 255
-0.3032667378308703 0.5636545123103226 1.2911363143060617 255 255 255
-0.3185129476631929 0.5645239201013696 1.2928928267892186 255 255 255
-0.1699756723758243 0.5518295421742164 1.2240296710510681 255 255 255
0.2481543189006080 0.5924426659586206 1.2283638508362449 255 255 255
0.3611942236299205 0.6198745330481921 1.2682999108905557 255 255 255
-0.2409850687785439 0.5512290821991707 1.2227462519073216 255 255 255
-0.3571029513446056 0.5818467401270935 1.3128205561184265 255 255 255
-0.3426863201633327 0.5750958857664487 1.2917972747050119 255 255 255
-0.3022424881344240 0.5739185155603950 1.2839069681852924 255 255 255
-0.1402906707261314 0.5507189505578669 1.1899478503467875 255 255 255
0.3370749630121014 0.6249781527111861 1.2665434484986551 255 255 255
-0.3672695574089995 0.5885387861007824 1.3106673129873287 255 255 255
-0.3600302151867392 0.5841658525303040 1.2962043410001503 255 255 255
-0.2928402050550745 0.5795073489407114 1.2753450856690078 255 255 255
-0.1923677406059012 0.5653090186886006 1.2181944522858945 255 255 255
0.0943202401733737 0.5716033046808081 1.1821240300435907 255 255 255
-0.3780336592997931 0.5858508414923799 1.2975193072826925 255 255 255
0.2754293698927313 0.6235756895636148 1.2532912443940056 255 255 255
-0.1606810886560071 0.5716607683604493 1.2221363218669223 255 255 255
0.3339214178883698 0.6366955373246768 1.2567523068867514 255 255 255
0.3534469705453059 0.6393303030851639 1.2554674383266675 255 255 255
0.3711798608220075 0.6392090874523484 1.2527976260886826 255 255 255
-0.2613344048972287 0.5724546728672422 1.2172193059321645 255 255 255
-0.0334887181985959 0.5847858017707211 1.1972624608955240 255 255 255
-0.2051109726119686 0.5735188267176636 1.1999073652682595 255 255 255
-0.2354337566421606 0.5698997447166003 1.1942783922190456 255 255 255
-0.1675548352550714 0.5828934322642759 1.2084260065935684 255 255 255
0.1641618886836664 0.6169353770530597 1.2100326902321588 255 255 255
-0.0087913350718153 0.5883180227644916 1.1746897601397033 255 255 255
0.2805117729430451 0.6427206771222664 1.2358497365399741 255 255 255
-0.1735063296015902 0.5920462871655310 1.2043496714915871 255 255 255
0.1461102208932916 -0.3575247978304532 1.0948056277928753 255 255 255
-0.0083765431797032 -0.3228938919085050 1.0894364513012007 255 255 255
0.1868876512995922 -0.3291310029431792 1.0965675278850986 255 255 255
-0.1629204243071934 -0.3705811627837706 1.3543085351901822 255 255 255
-0.1682338803118520 -0.3509231686250988 1.3514921693272259 255 255 255
0.1956064910497275 -0.2989049130405660 1.1081127903055368 255 255 255
-0.1958063539779576 -0.3262438781538603 1.3524085815341480 255 255 255
-0.0144645654146858 -0.2705637209290919 1.1169332792906683 255 255 255
0.0515463136593258 -0.2648781054607450 1.0999131135679527 255 255 255
0.0009758935031774 -0.2614710018315238 1.1260609394680712 255 255 255
0.2278834712321940 -0.2718854049824150 1.1463717118356742 255 255 255
-0.0888499117775544 -0.2641457783406627 1.1656067104266941 255 255 255
-0.0607774451637009 -0.2590675057470979 1.1427104032909952 255 255 255
-0.2051390726306577 -0.3051496075561632 1.3935926541025518 255 255 255
0.0882574302216021 -0.2563479857569908 1.1099420075124149 255 255 255
-0.0920008332832659 -0.2455792754813207 1.1629595575786229 255 255 255
-0.2113220747378839 -0.2765242834575030 1.4150384261814830 255 255 255
-0.0616489588230522 -0.2292141101487103 1.1247210385253772 255 255 255
0.0432128582742936 -0.2258562528143498 1.0912488775095335 255 255 255
0.2348810753371033 -0.2454389567127624 1.1734333051064445 255 255 255
-0.1278542951319856 -0.2246055894124911 1.1898857194852375 255 255 255
0.0095091305881559 -0.2013786449343722 1.0847405111638788 255 255 255
0.2467230805870759 -0.1921632086310938 1.2144061062576881 255 255 255
0.2099230846940331 -0.1760677257624425 1.1915191362652808 255 255 255
-0.0892301806734614 -0.1063295107499937 1.0950152168008795 255 255 255
-0.1282742675182645 -0.1005522938919079 1.1528978748918519 255 255 255
-0.0755945596454225 -0.0877015442763379 1.0734579202199701 255 255 255
-0.0480184752139304 -0.0860301796259890 1.0685818749103269 255 255 255
-0.1271180992368484 -0.0742262827452298 1.1149266088156109 255 255 255
-0.2330908406419073 -0.0647825391265950 1.4268706372461097 255 255 255
-0.0047319079818261 -0.0491912395801753 1.0906572573167714 255 255 255
-0.1778892657818683 -0.0485118035461269 1.2650200635239799 255 255 255
-0.1283179786927997 -0.0479688144289396 1.1627507559549879 255 255 255
0.0701845559655387 -0.0398698982677998 1.0749853579595949 255 255 255
-0.0788785412525094 -0.0339682339910329 1.1082276288141015 255 255 255
-0.0611836065310267 -0.0305846578391298 1.1059164569857491 255 255 255
0.1087675587326670 -0.0305323626964915 1.1053108025404395 255 255 255
-0.2594175969959357 -0.0285528487088289 1.4399045322624890 255 255 255
-0.2777226562465641 -0.0097303560883931 1.4332672848804355 255 255 255
0.0125126570306298 0.0013307262268389 1.0321697161966381 255 255 255
-0.0333649188060319 0.0488362401122967 1.0820082431620481 255 255 255
-0.0175367061696338 0.0529099973670211 1.0538169981443644 255 255 255
-0.0125669321580159 0.0723656795403288 1.0511784402810247 255 255 255
-0.0640541505610030 0.0869065043152150 1.0913273694814833 255 255 255
-0.1076050212193156 0.1240142639447387 1.1368787180320694 255 255 255
0.0351143518536627 0.1273786059486433 1.0296593128398313 255 255 255
-0.1603138903705416 0.2593586077544997 1.4533178224737500 255 255 255
-0.1214134773298209 0.2260809306180749 1.2540646460941915 255 255 255
-0.0012182125367667 0.2021953750054838 1.0679911191307263 255 255 255
-0.0947404601767480 0.2230647365485281 1.1537479569303564 255 255 255
-0.0503728646272403 0.2308832872200524 1.0878661157929472 255 255 255
-0.0214841017034112 0.2303984017427665 1.0633220797794616 255 255 255
-0.1199288498575517 0.3041683575779138 1.3272677819508889 255 255 255
-0.1446534370180213 0.3249244726135636 1.3291949987841585 255 255 255
-0.1952975970944715 0.3656490950760465 1.4133221865745424 255 255 255
-0.0367840818418203 0.3617641703363093 1.2379620232851813 255 255 255
-0.2284401216740070 0.4018743716121048 1.3837321247520400 255 255 255
0.2062576947382132 0.4232741093715872 1.3527954579451715 255 255 255
0.5145787073317919 0.4644064423834035 1.4148228248656978 255 255 255
-0.1182195172929245 0.4240320318748193 1.3097469774379202 255 255 255
0.1866229737077013 0.4618088589252308 1.3069439469754176 255 255 255
0.1309567322973207 0.4584855278429004 1.2829089579179145 255 255 255
0.4307497106997786 0.5143040258550655 1.3637416530623272 255 255 255
0.1090598070162995 0.4712225768619387 1.2765368316957018 255 255 255
0.4403105574578573 0.5337215580443979 1.3459996753052748 255 255 255
-0.1692366042251792 0.4699312640996758 1.2632291252948493 255 255 255
0.0091068018059550 0.4825632650407480 1.2665058310072399 255 255 255
-0.0532202261020360 0.5031282899773696 1.2590305005180458 255 255 255
-0.4222979759885013 0.5143969585898275 1.3371920404202291 255 255 255
-0.0965545725382035 0.4899131808456114 1.2091185254418051 255 255 255
-0.1934956529118266 0.5131805834473119 1.2715734775614933 255 255 255
-0.0718855232643110 0.4957833495603974 1.2051682657971181 255 255 255
0.3845725428347121 0.5665892577258790 1.2965130513657621 255 255 255
-0.1069731179599517 0.5102668302779582 1.2440092541257410 255 255 255
0.2352778717339584 0.5396729821361500 1.2423029445287355 255 255 255
0.1124763305663314 0.5322307134074415 1.2465364655092142 255 255 255
-0.0930604818595959 0.5062868938481786 1.2113587577079685 255 255 255
-0.0367456089517051 0.5306433686921347 1.2576950940876426 255 255 255
0.0669562024248504 0.5443473545755024 1.2486998505117781 255 255 255
-0.3709386432459072 0.5476952954742103 1.3252839287730351 255 255 255
0.0038912870224306 0.5379271882774557 1.2229147028350829 255 255 255
-0.1250881173915145 0.5335674752595031 1.2243610442744588 255 255 255
-0.0389875048928145 0.5317315981291079 1.1993888694102031 255 255 255
-0.2131799221701011 0.5274684682023487 1.2129496919293863 255 255 255
-0.1034147023111373 0.5380463908148119 1.2055386402797947 255 255 255
-0.0841174873637288 0.5398927573022261 1.1977356749092751 255 255 255
-0.3878694789348661 0.5608571215260838 1.3055346733942494 255 255 255
0.0990351524125156 0.5674691681054165 1.2062347442997121 255 255 255
-0.2228231143288674 0.5509550525350755 1.2281637804033148 255 255 255
-0.0341403733139258 0.5720769996716386 1.1913043900174574 255 255 255
-0.0459094632262678 0.5760926682829495 1.1973479826769011 255 255 255
-0.1960649755380536 0.5710703954432099 1.2070405049411717 255 255 255
0.3074894904069883 0.6327755018890576 1.2467507687445385 255 255 255
0.4227247770994387 0.6492961306609315 1.2490242583203479 255 255 255
0.2718029328410980 0.6387191174410445 1.2531627864496511 255 255 255
0.2098838039808630 -0.2973335729917325 1.1043833715224172 255 255 255
-0.0806835748333583 -0.1194421921316225 1.0402462836948358 255 255 255
-0.1169515520551243 -0.0628282724632555 1.1065360200342049 255 255 255
-0.0309643034365230 0.0848460821325604 1.0698328513749091 255 255 255
-0.0346995309499635 0.1272036781514337 1.0587328354360226 255 255 255
-0.0426454462276439 0.2494507488720497 1.0841788689448597 255 255 255
0.1980773694696434 0.4363062106809266 1.3133342871267542 255 255 255
-0.3414943785124549 0.4551075251162611 1.3820608857546559 255 255 255
-0.1826985397413804 0.4743695605390083 1.2908430011869241 255 255 255
-0.1511015826982009 0.4719853880833885 1.2793364213924898 255 255 255
0.1142169560275494 0.4908824123094364 1.2784014823310472 255 255 255
0.4537396621857521 0.5486982332042706 1.3289598901683577 255 255 255
-0.3341332127800177 0.5083909670024905 1.3354130765093191 255 255 255
0.1860847920064650 0.5123689321923902 1.2273455461361771 255 255 255
0.3122567870266438 0.5735417048731521 1.3220311222584598 255 255 255
0.3323474088533200 0.5838284824855910 1.2879363909837749 255 255 255
-0.1675344852980877 0.5220950494558109 1.1976700587330160 255 255 255
-0.0253650010560578 0.5625993362899877 1.1990944465376827 255 255 255
0.0476427629425846 0.5880440708358617 1.2260339439811669 255 255 255
0.0943370368541100 0.5716307715439840 1.1822928766335346 255 255 255
0.0645875634215479 -0.4183838317283493 1.1420535544841144 255 255 255
0.1524397605634052 -0.3401789857756141 1.0938201950812039 255 255 255
0.1762039477973200 -0.3448686370932623 1.1046750999857360 255 255 255
-0.0432524703464079 -0.3058338474373385 1.0872980880223553 255 255 255
0.1177087791936630 -0.3201086985522474 1.1391159649409679 255 255 255
0.1953101349627121 -0.3070303524103133 1.0939516487576559 255 255 255
0.0309196609936168 -0.2788826294178490 1.0758282965205634 255 255 255
0.2141797736389562 -0.2858767648633290 1.1253874603234510 255 255 255
-0.0547971614491067 -0.2764305849008997 1.1434731625426053 255 255 255
-0.0146348721400614 -0.2748434007653088 1.1189142122017453 255 255 255
0.0681094759993181 -0.2732390242997345 1.1105106372705535 255 255 255
0.2292996365156576 -0.2734151393011496 1.1521550184823715 255 255 255
-0.0591590122082830 -0.2569288523530598 1.1415768085611087 255 255 255
0.0514180162631201 -0.2422058893319471 1.0977654679379827 255 255 255
-0.1480203074165840 -0.2546769865034787 1.2001193760708619 255 255 255
0.1071897569674774 -0.2400040144252266 1.1099305376295634 255 255 255
0.0450040610851924 -0.2280264341921516 1.0926678446151183 255 255 255
0.2263885912703903 -0.2437279189123503 1.1623568561452238 255 255 255
0.0228000021397773 -0.2202956643091347 1.0896800621519038 255 255 255
-0.1269739387990679 -0.2245817434506149 1.1865025872041988 255 255 255
0.2551416079253581 -0.2131967658133805 1.2169624152674441 255 255 255
-0.1513399116205271 -0.1991964150055044 1.1999482488449347 255 255 255
-0.0840121699618496 -0.1737287397500684 1.1315643804882987 255 255 255
-0.1111956452288034 -0.1649574932205608 1.1589890886028820 255 255 255
-0.0635239513804549 -0.1259151212008923 1.0710694647717010 255 255 255
-0.1698096686018687 -0.1280149240766399 1.2129665728368892 255 255 255
0.1181053848230996 -0.1018594709149421 1.0659134041418710 255 255 255
0.0350871991271557 -0.0872755039956287 1.0579302578653462 255 255 255
-0.0762160919845583 -0.0869532636717474 1.0739693515708437 255 255 255
-0.0460512188107554 -0.0835192330721172 1.0619942761346299 255 255 255
-0.0067935778733457 -0.0760881821852060 1.0619280402136133 255 255 255
-0.1655002853502868 -0.0812835442429516 1.2388802439833200 255 255 255
-0.0929253946591473 -0.0674700180578792 1.0905795673111172 255 255 255
-0.0053581777901946 -0.0474287960402421 1.0893734343789649 255 255 255
0.0783381124613150 -0.0379583257092376 1.0837074044718851 255 255 255
0.2011553327946726 -0.0402246858561797 1.1377883479309516 255 255 255
-0.2069650959204179 -0.0379776910518128 1.3851231990862094 255 255 255
0.1744157600515188 -0.0295635936554083 1.1268938889803100 255 255 255
-0.0000002955874936 -0.0192910953470545 1.0862274760285622 255 255 255
-0.2291684841141606 -0.0185339606210464 1.4049397576854110 255 255 255
-0.2547747092632614 0.0142514963865767 1.4195828072200161 255 255 255
-0.1798719314833272 0.0517758730393065 1.4193161936357883 255 255 255
-0.2354890860317114 0.0470568074341035 1.3912185306180826 255 255 255
-0.0718329682997964 0.0379002166234969 1.1065862794448289 255 255 255
-0.0164539079369858 0.0523189113085135 1.0564343065382600 255 255 255
-0.0256382144348591 0.0727366505254830 1.0610347066621850 255 255 255
-0.0538441615085831 0.0774960465839005 1.0787567932782371 255 255 255
-0.0009138722047189 0.0883047053792261 1.0231022025686480 255 255 255
-0.0552230593685603 0.1668311957969912 1.0924033792395242 255 255 255
-0.1654971265313485 0.2392285505027561 1.4335071953466614 255 255 255
-0.1662264026488722 0.2588212301779587 1.4340649412330488 255 255 255
-0.2368607265532001 0.2880464926838537 1.4607892677794760 255 255 255
-0.0242636394544385 0.2324887314561710 1.0714439191266514 255 255 255
-0.1613787794906474 0.3868392700740783 1.3562332478294268 255 255 255
0.2080718571736494 0.4243406669163047 1.3565271176280285 255 255 255
-0.2977004576178335 0.3828965974607142 1.2749475514785857 255 255 255
-0.0480146372395015 0.3978201160387361 1.2502062245795358 255 255 255
0.1919148063715693 0.4457671358215124 1.3357280179969455 255 255 255
-0.1156791170362531 0.4192251031832117 1.3017436618081533 255 255 255
0.0443519693726359 0.4231736594966585 1.2613424683357986 255 255 255
0.1691898491629702 0.4541145157386406 1.3046697208670002 255 255 255
0.1918819641867906 0.4711816645353185 1.3208053986704822 255 255 255
-0.1019566634628184 0.4442271678996446 1.3103214062991173 255 255 255
0.4311026653842677 0.5118044017746207 1.3643813042379491 255 255 255
-0.3221908862716943 0.4847013902830542 1.3497172009108587 255 255 255
0.0074036254525232 0.4766518340387210 1.2546650006924611 255 255 255
-0.1634733895903333 0.4824390032957566 1.2960724764190357 255 255 255
0.1594940799862133 0.5020924843645515 1.2817678349047970 255 255 255
0.2272003170646564 0.5341945336201961 1.2591850225083776 255 255 255
-0.2645474073375495 0.5077911964365244 1.2606903593206606 255 255 255
-0.0947799505411565 0.5074359254869141 1.2121825828784778 255 255 255
0.1545093126693100 0.5255149742768480 1.2036375200820824 255 255 255
0.2122866449527507 0.5569488847739390 1.2418964688209924 255 255 255
-0.3523353897434368 0.5544691438731779 1.3075159534975891 255 255 255
0.2228841534056361 0.5714632443921048 1.2328131802582545 255 255 255
0.3325566483785271 0.6059959695926462 1.2862110755341922 255 255 255
0.2004150613786666 0.5862466600636862 1.2737364757776355 255 255 255
-0.0016924119409585 0.5465211812446753 1.1965772509500190 255 255 255
0.3220673375497844 0.6043629935268277 1.2455448160036331 255 255 255
0.0981944427947891 -0.3947415449160156 1.1104059284391208 255 255 255
0.2254855410696369 -0.2810395929127453 1.1503756549202639 255 255 255
-0.0873177803824130 -0.2648197962779182 1.1552102838954246 255 255 255
-0.0935446119191822 -0.2363027546100943 1.1613524136478688 255 255 255
0.2157393173832462 -0.2153331368143909 1.1848343579865412 255 255 255
-0.0485346895781495 -0.1084706172408136 1.0626232610091317 255 255 255
-0.0658100973508576 -0.0678207222926641 1.1202658756747654 255 255 255
-0.0166358067078384 -0.0383320316110537 1.1220254336980748 255 255 255
0.0856956512480528 -0.0398908431328008 1.0954589817837299 255 255 255
-0.1055118981820134 -0.0390628942658282 1.1161842915101050 255 255 255
0.1771795679403096 -0.0317107062413003 1.1344268620889475 255 255 255
0.0943971358389751 -0.0008137436433785 1.0821962002947123 255 255 255
-0.0362066326926617 0.0471411920147631 1.0792410870420563 255 255 255
-0.0398000120780246 0.1026811430332669 1.0735094376630654 255 255 255
-0.0673515059318237 0.1397170853846572 1.0841641385480012 255 255 255
-0.0170674280489906 0.3813323593564487 1.2468895886574263 255 255 255
0.1776017293290452 0.4686068629718330 1.3133534308431447 255 255 255
0.1975805082867785 0.4588526493093620 1.2689307663714966 255 255 255
-0.1633147794462108 0.4591493534220645 1.3246406201942640 255 255 255
0.0177149668466669 0.4718740369598180 1.2740023235175917 255 255 255
0.1535360413352908 0.5231044814105287 1.2503149086432415 255 255 255
-0.0253157794327643 0.4981613856575267 1.2170787167875765 255 255 255
-0.1860882199637179 0.5119320465500358 1.2656041385487760 255 255 255
-0.1262641954469401 0.5181559531819219 1.2348728215248757 255 255 255
0.2410873993213947 -0.2423481529936070 1.1500697099637052 255 255 255
-0.0786544378290534 -0.0284406622232059 1.1148436018694385 255 255 255
-0.2531473966062284 0.3067175917607917 1.4404039069664438 255 255 255
0.0268132806653644 -0.2558746952275974 1.0936959086177644 255 255 255
-0.0360102410118097 -0.2579539865811039 1.1296934098364722 255 255 255
0.0563153833647098 -0.2328761114227294 1.1002245509236190 255 255 255
0.2183508720995328 -0.2237529358484112 1.1869805800358735 255 255 255
-0.1447660752539159 -0.1915549486070829 1.1858371056131534 255 255 255
-0.1747882327457979 -0.1355782310065507 1.2171872565596922 255 255 255
-0.0524487176189838 -0.1131094749183195 1.0621552411580160 255 255 255
-0.1612033180897815 -0.0820870224235016 1.2274218241576997 255 255 255
0.1772937685695340 -0.0812270910994188 1.1283215232753403 255 255 255
0.1421561368672626 -0.0348388841692594 1.1199175059615261 255 255 255
0.1698090578246623 -0.0348024282102791 1.1392487534936757 255 255 255
0.1042140131841218 -0.0235500890548346 1.0952934641168621 255 255 255
-0.0613679507674232 0.1399424348356691 1.0967439721691361 255 255 255
0.0849423609116431 0.2429982943225423 1.0991363218333043 255 255 255
-0.1601811186508486 0.4539875735115510 1.3146877273571667 255 255 255
0.1442604737772671 0.4826270429430817 1.2751592624277919 255 255 255
-0.0317941262832493 -0.0687456254076628 1.0710199305117720 255 255 255
-0.0379966496109335 0.3833841212990070 1.2774334051351606 255 255 255
0.2150748518741879 -0.3436044126938879 1.1026354901682844 255 255 255
0.1067865866962105 -0.2894269304689093 1.0761054849569145 255 255 255
0.2118806857237672 -0.2986790641558612 1.1114500548197330 255 255 255
0.0079413641029406 -0.2715831464710223 1.0818997570929285 255 255 255
0.0200195657349073 -0.2888610809886262 1.1518133708525480 255 255 255
-0.0610118278262022 -0.2669396619757945 1.1241232770056806 255 255 255
0.2160855892599662 -0.2685982364753923 1.0823982723075010 255 255 255
0.1485072262339157 -0.2565533921687665 1.1470254416021985 255 255 255
0.1003635299405247 -0.2203284208895419 1.1306804048455508 255 255 255
0.1889031547353958 -0.2201171546503337 1.1719675189440599 255 255 255
-0.0053060158094936 -0.1346086002107948 1.0845752105759401 255 255 255
-0.1513701456623126 -0.1295294318472977 1.1840762117188057 255 255 255
-0.0588430257923508 -0.1137052932081130 1.0707967657262683 255 255 255
-0.0924572573453196 -0.1135986899614738 1.0972087789827196 255 255 255
-0.1596386354453868 -0.1125196005926432 1.2047679305536059 255 255 255
-0.1734214556148505 -0.0856273866987550 1.2435861503933128 255 255 255
-0.1236294855504932 -0.0749577287745293 1.1083742211314545 255 255 255
-0.1531199556606018 -0.0673644205862884 1.1851705313787981 255 255 255
-0.1662910478498868 -0.0654062759809398 1.2454009638971064 255 255 255
-0.1110451520641046 -0.0441842177933671 1.1292489091210285 255 255 255
-0.0854959904164149 -0.0355850350053821 1.1116291493266650 255 255 255
-0.0674146939186389 -0.0324427747955614 1.1027225574405342 255 255 255
-0.2440797421845733 -0.0313324660269210 1.4361043689399937 255 255 255
-0.0045456936266068 0.0009649054190389 1.0828463672027120 255 255 255
-0.1211912726392235 0.0064305217210056 1.1451552858480172 255 255 255
-0.2093431775716437 0.0355512252570305 1.3865944534221415 255 255 255
-0.0822918153875843 0.0453693370863999 1.1049211698846948 255 255 255
-0.0133535209505965 0.0706549115909683 1.0175223295210258 255 255 255
0.0087136688535610 0.0803000584717303 0.9877133106144430 255 255 255
-0.0048359240907827 0.0972300508070789 1.0660363769109740 255 255 255
-0.0410120198995130 0.0929605898655547 1.0332817260103206 255 255 255
0.0080975713559667 0.0972181644315360 1.0210366540618989 255 255 255
-0.0468757963793884 0.1217778772598299 1.0681322169090246 255 255 255
0.0086410324229399 0.1273423772971647 1.0373594747200892 255 255 255
-0.0831822651987816 0.1390081645628702 1.1011931042286611 255 255 255
0.0481704519661832 0.1406321770123108 1.0343825311657981 255 255 255
-0.1133527162393595 0.1479080853674306 1.1366491420661322 255 255 255
-0.0714439169119910 0.1456228067991008 1.0908159839361073 255 255 255
-0.0982700324764883 0.1524346669104082 1.1107622778124553 255 255 255
-0.1073976484189014 0.1562852869303080 1.1102303518051149 255 255 255
0.0217026270500968 0.1697091964969166 1.0436202187277832 255 255 255
0.0410315876553551 0.1905640584592147 1.0844506529834903 255 255 255
-0.0678929587715635 0.2009306087998967 1.1082481173818213 255 255 255
-0.1114464781092300 0.2260845666495448 1.2087629938219482 255 255 255
-0.0638331001279994 0.2116626763101690 1.1028911337490193 255 255 255
0.0049776594025984 0.2108118056223984 1.0665194878417150 255 255 255
-0.0878539673265507 0.2264747829164473 1.1363736651693779 255 255 255
-0.0811435799356908 0.2258596095713594 1.1270384759420784 255 255 255
-0.0989216090514972 0.2413981918275577 1.1989843186964253 255 255 255
-0.0974901390812477 0.2273319795434788 1.1409482770181378 255 255 255
-0.0813164530462402 0.2352288451856638 1.1292098583979326 255 255 255
-0.1969666033997672 0.3046454443433741 1.4923150982081532 255 255 255
-0.0755747445475729 0.2809805236950563 1.2563612663533228 255 255 255
-0.0579626601024361 0.2466627714798124 1.0959070435987719 255 255 255
-0.0685674011760064 0.2573141472251648 1.1324203054029589 255 255 255
-0.0446635251360390 0.2486340859033541 1.0821312125351348 255 255 255
-0.0910230644704280 0.2977888093234265 1.2693392295959509 255 255 255
-0.0831312762060630 0.3059602999106838 1.2710726192827020 255 255 255
-0.0657352425681361 0.3018482213002039 1.2369200967703085 255 255 255
-0.0676396209689643 0.3057584084010259 1.2569327281212588 255 255 255
-0.0715475788787681 0.3142587540492426 1.2495912491961352 255 255 255
-0.0665343755921199 0.3211699702417566 1.2461618011118309 255 255 255
-0.0683083050356831 0.3242131105715780 1.2588031270218816 255 255 255
-0.0597367308901362 0.3274428585653875 1.2385467192975912 255 255 255
-0.0594466669207324 0.3190417261923110 1.2050274566036396 255 255 255
-0.0412975992199948 0.3238190071781812 1.1799619598911462 255 255 255
-0.0481045230876320 0.3497171142071128 1.2459744256920022 255 255 255
0.4643953192923085 0.4599149348048762 1.4192982257469497 255 255 255
-0.0615511351264996 0.3599432493914747 1.2571784212022499 255 255 255
0.2157494718450819 0.4092924041640096 1.3046439222444248 255 255 255
0.2233362301958028 0.3907743752013088 1.2337903597505848 255 255 255
0.4535078274617272 0.4658189742744879 1.3810935305463317 255 255 255
0.2161140800947250 0.3991938969853341 1.2306787538963635 255 255 255
0.2194312012805987 0.4044643987871480 1.2199847625650331 255 255 255
0.4228981771068116 0.4774778877470313 1.3832824302986244 255 255 255
0.1982373161831356 0.4429883839326400 1.3281482857219100 255 255 255
0.2295320091689919 0.4184383593493665 1.2258587553594054 255 255 255
0.3891532477148702 0.4805547235945309 1.3650029679179556 255 255 255
0.2081382026840616 0.4166763837127309 1.2180008518400789 255 255 255
0.1339699131564324 0.4353505246883776 1.2915123536423343 255 255 255
0.1685933131633992 0.4506841061596271 1.3110884515090200 255 255 255
0.2108515154401853 0.4207065591825232 1.2024357164785424 255 255 255
0.1936787275624212 0.4344526753687482 1.2453912195938428 255 255 255
0.2090816506808966 0.4278654321109612 1.2188684124203746 255 255 255
0.3774866781216952 0.4954479587834779 1.3635509051297396 255 255 255
-0.3025943306227824 0.4370181687607146 1.4060811130123714 255 255 255
-0.3221076529670892 0.4384074301577833 1.4014465358397659 255 255 255
-0.0968057033468375 0.4457820735434387 1.2812506789277791 255 255 255
0.4482614549100554 0.5357821461458492 1.3370959025891411 255 255 255
-0.3540912498542509 0.4536512007613444 1.4163654727108967 255 255 255
-0.3047992707449211 0.4547118213027251 1.3834656272186083 255 255 255
-0.2654339464190322 0.4045080313371242 1.2081768849267691 255 255 255
0.4558348610725266 0.5488722112235221 1.3291092207352042 255 255 255
0.1456848237209767 0.4763819930135334 1.2502118342951765 255 255 255
0.4064261321774197 0.5471221072112482 1.3274843456424057 255 255 255
-0.3475039625499721 0.4634317217442165 1.3763397833484579 255 255 255
-0.1649383191464642 0.4619704968765393 1.2959518700021098 255 255 255
-0.3486841956248883 0.4793877932593918 1.3944575879848635 255 255 255
0.1666558512318932 0.5091548992125136 1.2605337036347695 255 255 255
0.3671004545422574 0.5602649597774402 1.2919228542874091 255 255 255
-0.3760138560151986 0.4880680998614818 1.3894534647719441 255 255 255
0.3560933876765791 0.5653340624410328 1.3016449850336298 255 255 255
-0.2921232007121131 0.4930609013296033 1.3392325468468920 255 255 255
-0.3309260694076506 0.4941537834682451 1.3491919412954947 255 255 255
-0.3194437686624522 0.4953625257071132 1.3478873955870647 255 255 255
-0.3045645918662337 0.4957729378703203 1.3404505917110097 255 255 255
0.1195448991159536 0.5240773935964620 1.2471928817733611 255 255 255
-0.3514209088130282 0.5026427173905486 1.3636526294959461 255 255 255
-0.3107292096674168 0.5029194469865755 1.3443009051131929 255 255 255
-0.3193310030738032 0.5049692973748620 1.3384182605506707 255 255 255
-0.3635911860412006 0.5113258378940559 1.3674073745909829 255 255 255
0.3570127191143946 0.5893255483538156 1.2811608437467503 255 255 255
-0.0607985431029967 0.4896683593817387 1.1827135109715692 255 255 255
-0.3388788615445280 0.5053994056695288 1.3155224718132250 255 255 255
0.0924381452164419 0.5539496785890926 1.2445121391234155 255 255 255
-0.2589919411722180 0.5206739036297232 1.2578309863929893 255 255 255
0.1814730809274726 0.5814592544683466 1.2283804281916872 255 255 255
-0.2514247319102804 0.5200258855230963 1.2499221971149486 255 255 255
0.1308497001592474 0.5672304954871396 1.2075746655440442 255 255 255
0.2914418409076688 0.6135437837398843 1.2512131658097705 255 255 255
-0.2745487867334818 0.5267133661623944 1.2573447420353836 255 255 255
-0.3537486096876719 0.5455900162537674 1.3237337772031428 255 255 255
-0.2569467992288760 0.5361015965046271 1.2393714084509608 255 255 255
-0.2925825119695758 0.5567749685982361 1.2992420900886119 255 255 255
0.3719643205078475 0.6503628322330648 1.2498826635669618 255 255 255
-0.2708736188740705 0.5444691099843710 1.2561692159407460 255 255 255
-0.3096021296339396 0.5598171017728332 1.2965413310797453 255 255 255
-0.1524021227148045 0.5434074525927162 1.1901304922313696 255 255 255
-0.0666145077421607 0.5611832778177103 1.1975482044580623 255 255 255
-0.2505497216095424 0.5478769558121501 1.2349426317827028 255 255 255
-0.3708070781022320 0.5650956199233890 1.3137791700399879 255 255 255
-0.3349197309656767 0.5658778734857138 1.2953787196262092 255 255 255
-0.2776223482122627 0.5662323353997109 1.2766893640021728 255 255 255
0.3706035870986465 0.6658762728265257 1.2418667216364270 255 255 255
0.2584033221767407 0.6447073102227469 1.2310447593853961 255 255 255
-0.3335656406425099 0.5726569079169240 1.2957142377723239 255 255 255
-0.2504642004156247 0.5554215633658826 1.2168976543283612 255 255 255
0.1035277185951648 0.6007493954480714 1.1803443842766781 255 255 255
-0.1007067144646130 0.5707027400652874 1.1913079879044663 255 255 255
0.3689782991708899 0.6712887395893625 1.2284167912711761 255 255 255
0.3054324076184974 0.6626332992827962 1.2303760248811830 255 255 255
-0.3137570607001116 0.5753846063650689 1.2840468610172835 255 255 255
-0.1839248904073494 0.5655027510276914 1.2062512835691099 255 255 255
0.3069958769121964 0.6612545793624227 1.2176443805063126 255 255 255
0.3734371328098026 0.6741964366574720 1.2194279201602720 255 255 255
0.2363922366551574 0.6525543662562328 1.2190383411710832 255 255 255
0.1593593676909493 0.6355621625116304 1.2170274598033899 255 255 255
0.3589351877538831 0.6786452224620393 1.2249744263973275 255 255 255
-0.2408520322184100 0.5629883823567555 1.2124881559998566 255 255 255
-0.3483687919227598 0.5837275293977177 1.2960138937227650 255 255 255
0.3365375690851202 0.6781011913411621 1.2228063332470305 255 255 255
0.1684014784364902 0.6335837220838990 1.1934233732789634 255 255 255
0.2763673380750851 0.6649899001816625 1.2148126814835931 255 255 255
0.0780402614066503 0.6055756780065351 1.1635942990452535 255 255 255
0.3668639118220312 0.6884555372313458 1.2223262755628155 255 255 255
-0.3423878496777051 0.5898448450648968 1.2918549587567685 255 255 255
-0.4021220651319859 0.5796701245644524 1.2868657991539958 255 255 255
0.1354044050691981 0.6381411069391056 1.1949740275172720 255 255 255
0.1649433809199682 0.6420270761454063 1.1906340669107478 255 255 255
0.2688394223378321 0.6695130356535561 1.2070592993002445 255 255 255
0.2162789043659035 -0.2819808187451531 1.0879641464954561 255 255 255
0.0331482944407798 -0.2483781106974545 1.0928128424042498 255 255 255
-0.0737164853000631 -0.2108643548726566 1.1248500855179089 255 255 255
-0.1519738101838856 -0.2064662837305303 1.2140099318172968 255 255 255
-0.0874633758299809 -0.1443523872964984 1.0991923145700981 255 255 255
-0.0191304422445944 -0.1276467156145779 1.0815932888684459 255 255 255
-0.1292295254184943 -0.0725483568385481 1.1175748742341456 255 255 255
0.1828999079273444 -0.0728812143549462 1.1129264045927767 255 255 255
-0.2315244530581990 -0.0657288985488808 1.4341581066582314 255 255 255
-0.1793439240032013 -0.0500695158595915 1.2547227264789587 255 255 255
-0.0977865661206373 -0.0362945612049288 1.1218471255901643 255 255 255
0.0701207758200968 -0.0318550732491571 1.0665023915574903 255 255 255
-0.1945875829308904 -0.0366209776282208 1.3822148228291538 255 255 255
-0.0011703410039085 -0.0192052746358747 1.0833024080569589 255 255 255
0.0631195763491972 -0.0126706203097602 1.0592299226460051 255 255 255
-0.2150865660517272 0.0107724706415715 1.4051887491541075 255 255 255
-0.2541232978993822 0.0149782346340753 1.4224863671037671 255 255 255
-0.0277869237943610 0.0165983819223184 1.0916605703014512 255 255 255
-0.1084106112078609 0.0246047946172387 1.1342224764439197 255 255 255
-0.2635102835229749 0.0334369929866628 1.4238121067328215 255 255 255
-0.1063942332168534 0.0529119254005302 1.1224045157237255 255 255 255
-0.0043145265223787 0.0694017010136975 1.0018752710291754 255 255 255
-0.0216634433938223 0.0882265487817862 1.0593086082536705 255 255 255
0.0051539317622510 0.1117962693315445 1.0374612244348811 255 255 255
-0.0949562053238584 0.1348674000715573 1.1106923585890163 255 255 255
-0.0338483267930897 0.1417531824778114 1.0552774017439908 255 255 255
-0.0900073474700916 0.1627884405927177 1.1074992245105018 255 255 255
0.0053317761942335 0.2019350422488459 1.0447471935911941 255 255 255
-0.1934535337652970 0.2776880696116763 1.5032889921457346 255 255 255
-0.0736120785390769 0.2139012874515829 1.1076898536096191 255 255 255
0.0288341037941753 0.2311180603912773 1.0557932712532501 255 255 255
-0.1102342013377967 0.2652101606712302 1.2800410366094570 255 255 255
-0.0748132845056003 0.2400117810547715 1.1229334804096711 255 255 255
-0.0791156976084857 0.2902961806467810 1.2453862181841133 255 255 255
-0.2258958613295827 0.3370208714730762 1.4866823950634105 255 255 255
-0.0924498264037473 0.3192389260871207 1.2683982765039377 255 255 255
0.2256188099850112 0.4032095712300702 1.2618192815283973 255 255 255
-0.0941631342809509 0.3746981336005134 1.2808253083916035 255 255 255
0.1893990532655640 0.4528132653343885 1.2538621447981781 255 255 255
-0.1691825842214566 0.4589984363788420 1.3060045528575042 255 255 255
0.3656772888486756 0.5447112502686957 1.3258521289246956 255 255 255
-0.3213918059939350 0.4844542266682975 1.3556427407088816 255 255 255
-0.1223417185844044 0.4901921825393462 1.2728472294835596 255 255 255
0.0113064105933840 0.5111917604144259 1.2217433040777415 255 255 255
-0.1384308784088203 0.4899146198446466 1.2346799172820109 255 255 255
-0.0349828934102521 0.5210882483630773 1.2017443292313259 255 255 255
-0.0041931832514805 0.5525681318944023 1.2124304307261926 255 255 255
0.2886479966029924 0.6265636563524097 1.2536362661529923 255 255 255
0.0459773061796698 0.5873545309917825 1.2241999897971647 255 255 255
-0.3930758310941265 0.5525085393380361 1.3169454458541761 255 255 255
0.0904413000687106 0.5861780705153035 1.1987256668879500 255 255 255
0.1051878760926819 0.6029710553398311 1.1840311789262419 255 255 255
-0.3106929942573139 0.5749993913104788 1.2896618473754744 255 255 255
-0.0637434387544581 0.5785557768272105 1.1917243391674717 255 255 255
-0.3814346067557879 0.5770033631601077 1.3031627968634396 255 255 255
-0.2403130887828789 0.5636434203450422 1.2132406542009027 255 255 255
-0.3180295954778672 0.5840575722846195 1.2835967323284356 255 255 255
0.2406389432724887 -0.2662635322362374 1.1206051711865994 255 255 255
-0.1186227607489296 -0.0976376049895115 1.1189295561490900 255 255 255
-0.0556875766828308 -0.0665595326409774 1.0868111254372179 255 255 255
0.2054166949810806 0.0187507098119249 1.1628739469936049 255 255 255
-0.1704387277093811 0.0358008658070665 1.3015002603022641 255 255 255
-0.0656792448228921 0.2205249554004438 1.1081809121798254 255 255 255
-0.0534887781149496 0.2666640378139840 1.1308574034434258 255 255 255
-0.0558933326891945 0.2802036245292845 1.1642241295054849 255 255 255
0.2193373864252895 0.4109897085885060 1.3092677594208455 255 255 255
0.2185652882641216 0.4252716886330218 1.2729601943215618 255 255 255
0.2018945875805793 0.4317655034396014 1.2836922752056354 255 255 255
0.1566003882291872 0.4454934870742286 1.3127816066906492 255 255 255
-0.1916523226411053 0.4412812752045670 1.3602231361119184 255 255 255
-0.3238927539222622 0.4641888654725077 1.3663208622231680 255 255 255
0.0729821642970521 0.4909746695021662 1.2647683458516381 255 255 255
0.4268283059865534 0.5696513550597309 1.3176077353115918 255 255 255
0.0458906537759466 0.4978298841656398 1.2501360324822086 255 255 255
-0.0977608435070835 0.4892713495947410 1.2044465801997024 255 255 255
-0.2525375190978604 0.4812307803185973 1.2149445031497661 255 255 255
-0.2867007247972960 0.5142988047701548 1.2992525979131735 255 255 255
0.3791170718240530 0.6100143780546621 1.2684980170405789 255 255 255
-0.3094822676866965 0.5233613675273113 1.3221163452355256 255 255 255
0.3563699229507361 0.6414907974991434 1.2609425700423222 255 255 255
-0.1327578419447132 0.5444726740295945 1.2133807318975793 255 255 255
-0.1979434887087729 0.5318585756220905 1.2073451578717647 255 255 255
-0.0125936223958503 0.5716827813627404 1.2148764124456164 255 255 255
0.2583893118155863 0.6288699831011848 1.2307242700379697 255 255 255
0.2876780787666838 0.6445849052589208 1.2176660396193284 255 255 255
0.0743419508665232 -0.4048499945996563 1.1379672028238210 255 255 255
0.1078367562565538 -0.3698983677703324 1.0806431479870595 255 255 255
0.0957441710736681 -0.3690452998929422 1.0906747152378613 255 255 255
-0.0883343220681633 -0.2646318928818424 1.1653645452263490 255 255 255
0.0780191839581907 -0.2303340809114421 1.1095833558799357 255 255 255
0.2395251953249651 -0.2439437022233025 1.1504190380814407 255 255 255
0.2578495527062822 -0.2135356195713543 1.2187590160444277 255 255 255
-0.2080773297093281 -0.2198060102756200 1.4861535857126098 255 255 255
-0.0829415132115207 -0.1465006569729708 1.1159923779964429 255 255 255
-0.1443166721470775 -0.1318622872440451 1.1664725300914789 255 255 255
-0.0910043911491043 -0.1050163384716048 1.0881274286424960 255 255 255
-0.1074176090778668 -0.0825604020901399 1.0969948706929173 255 255 255
0.1035212233334972 -0.0809081566744687 1.0650748682771300 255 255 255
-0.2238461257484357 -0.0937168819701727 1.4626007205974139 255 255 255
-0.2052581181595542 -0.0651465729498328 1.3564907643862647 255 255 255
-0.2574619819457151 -0.0292358375497580 1.4443101767633226 255 255 255
-0.1151236289883987 -0.0167113430699949 1.1467323987497289 255 255 255
0.0624734066969846 -0.0138571909607777 1.0547559340219614 255 255 255
-0.2144621497928281 0.0106321572815331 1.4085259826839078 255 255 255
-0.1075524440137422 0.0229201439103001 1.1386577867434782 255 255 255
-0.0393198607168689 0.0241359118175870 1.0982629128507078 255 255 255
-0.2336555511520039 0.0486149182055269 1.4058980187463148 255 255 255
-0.0860809487187713 0.0597575039976673 1.0988301982477953 255 255 255
-0.0042782926690068 0.0654406065404411 1.0080760794217203 255 255 255
-0.1246981762878677 0.1025425159828139 1.1378461582703256 255 255 255
0.0052698825180763 0.1120244657747358 1.0400045772478674 255 255 255
-0.0378818964480385 0.1574857077415721 1.0938775602123467 255 255 255
0.0238908786001268 0.1694218930126703 1.0589136731464937 255 255 255
-0.0675200280167791 0.2172947908148899 1.1227387616979227 255 255 255
-0.1946295388819716 0.2788451990880775 1.4984927849624687 255 255 255
-0.0488514698180138 0.2292881104888721 1.0893896060185959 255 255 255
-0.0786689242701179 0.2397986901152498 1.1182413005279934 255 255 255
-0.0452039353408695 0.2626666324732258 1.1112828383935991 255 255 255
0.2507777341875250 0.3525677626144941 1.2492901238498284 255 255 255
0.4357383473964597 0.4521259498477063 1.3646538738537091 255 255 255
-0.3285273686072657 0.4283608155616718 1.4419429963590380 255 255 255
-0.2997694849283201 0.4196007425893636 1.3904092068501868 255 255 255
-0.3121019470850787 0.4419391906120633 1.3973269107457706 255 255 255
0.1691459779566195 0.4838546413058015 1.2604837792449513 255 255 255
