ply
format ascii 1.0
element vertex 687
property double x
property double y
property double z
property uchar red
property uchar green
property uchar blue
end_header
-0.1295070392550627 -0.0643850450443693 1.1451012571517667 255 255 255
-0.0976616907742954 -0.0148911867505999 1.0921488915665685 255 255 255
-0.1209338324259339 -0.0135145798594675 1.1324845187896151 255 255 255
-0.0743659870556219 0.1081399808560659 1.0619216339967998 255 255 255
0.0437740028714420 0.1269661859638830 1.0670154380531580 255 255 255
-0.0999169393834558 0.3268919824529741 1.3255706317367726 255 255 255
0.0350888496135337 0.3891162757030324 1.2862506893005110 255 255 255
-0.4074625486670054 0.5437638398465546 1.3989204140037270 255 255 255
0.3814739447385421 0.6837431106472410 1.3799749878416976 255 255 255
-0.0225669227031737 0.6169114187156798 1.2464651762443004 255 255 255
-0.4725032390814227 0.5833267023293156 1.3669070057618733 255 255 255
0.0614859260877042 -0.3603255583853999 1.1807689022402426 255 255 255
-0.0808511759598468 -0.1458683938195535 1.0487152490115184 255 255 255
-0.0117439077203489 -0.0714258741115002 1.0899899790718977 255 255 255
-0.0313272985764375 -0.0381991956963456 1.0894131603929627 255 255 255
-0.0600919861674872 0.0988502836769024 1.0432754378888969 255 255 255
-0.0246995511553960 0.1333392576969458 1.0323338135056688 255 255 255
-0.0497523006819643 0.2362285217950090 1.0729547936913271 255 255 255
-0.0188100072764928 0.2389792861964495 1.0971314410244259 255 255 255
0.0116103752051115 0.2563356536020702 1.1283420065104826 255 255 255
0.0461263557653788 0.5068571761207940 1.2190018052354856 255 255 255
0.0992279173240717 0.5478747067606777 1.3049978723812374 255 255 255
0.0740411181704220 0.5917411498742352 1.2645927329932984 255 255 255
-0.4436676780599733 0.5625949203482550 1.4135321422580638 255 255 255
-0.4168505241897494 0.5942090917507736 1.3604668949945438 255 255 255
-0.1970836453485627 0.5962681096973297 1.2233232974013084 255 255 255
-0.0852136745662412 0.6397747814489790 1.2137777181123477 255 255 255
-0.2344413550699235 0.6217101927821833 1.2148296825891887 255 255 255
-0.1659142185812679 0.6454988455846230 1.2236741847462638 255 255 255
-0.0305542107263007 -0.3670061390570941 1.0713761837334588 255 255 255
-0.1165611392171034 -0.2909237242130000 1.1270847212001434 255 255 255
0.0003290908940452 -0.2965228314470854 1.0888788041919146 255 255 255
-0.0735671158827637 -0.2867528545756964 1.1059464967460115 255 255 255
-0.0444470011426394 -0.2591041247862667 1.0803727835352142 255 255 255
-0.0749832026571639 0.0608630857450619 1.0629586072088613 255 255 255
-0.0713465458997774 0.1293885167624945 1.0437248872163862 255 255 255
-0.0700481096752560 0.3483885588741749 1.2911550545139494 255 255 255
-0.0951636329960738 0.4142367932897610 1.3169496047220766 255 255 255
0.2424362539101147 0.4866628030815761 1.4105886894227606 255 255 255
-0.4440438431825807 0.4769681558063018 1.4878918501796126 255 255 255
-0.4350923979897656 0.5506461785718846 1.4143596972481467 255 255 255
-0.0951392735251907 0.5641256247526959 1.2368312061955611 255 255 255
-0.4343742736846327 0.5916034749188159 1.3884018988971030 255 255 255
-0.2105665616069900 0.5942856154317572 1.2541175197691683 255 255 255
-0.1024982349818949 0.6164987742772813 1.2236158648070961 255 255 255
-0.1967546584168777 0.6174046731165637 1.2315964802104844 255 255 255
-0.1643141906296521 0.6196401944680034 1.2165909680437823 255 255 255
-0.2321329317834187 0.6262677832808705 1.2383117809631652 255 255 255
-0.1358406715041789 0.6341990653320779 1.2195036149114100 255 255 255
-0.0627220361759169 0.1546407515223703 1.0712405726592509 255 255 255
-0.0515669421645692 0.2147401791077207 1.0802141243820216 255 255 255
-0.0449142028438186 -0.3162338867819069 1.1203653792960100 255 255 255
-0.3030248472986676 -0.0986203523926928 1.5253881770592077 255 255 255
-0.0476324193879803 0.0748304889398324 1.0635735444821943 255 255 255
0.0348885771485969 -0.2372092701871012 1.0630747238195366 255 255 255
0.1031553948212528 -0.1145662725356729 1.0413166786669072 255 255 255
0.0529934810094844 0.1377885976694566 1.0233203164166171 255 255 255
0.0162252163678873 0.1885803798991243 1.0746675747077854 255 255 255
0.0564864788055548 0.2350697069310810 1.0613716392218402 255 255 255
0.0242219003258495 0.2999908256039618 1.3218986208948365 255 255 255
-0.0722359811012107 0.5602003249785056 1.2468235040792877 255 255 255
-0.2413633173002752 0.6211724601514005 1.2350122051613497 255 255 255
0.0540664044559233 -0.1563696046013374 1.0362055967957953 255 255 255
0.0766444293737660 0.5207065529003393 1.2634823087751517 255 255 255
0.3227493781811759 0.5681200072963246 1.3332614987184954 255 255 255
-0.4996345464408735 0.6009211936689717 1.3932116889647082 255 255 255
-0.4090825514986340 0.6820275582028786 1.3420597164384773 255 255 255
0.0366485560163668 -0.2392922909521978 1.0644883405997541 255 255 255
0.0356555353266811 0.1663242941632827 1.0671791450676582 255 255 255
-0.0747242204554887 0.6178200180860687 1.2230585127069382 255 255 255
0.1043015184620125 -0.4121934132234850 1.2390936808573620 255 255 255
0.0211110290299852 -0.4483399496909732 1.0772227207272835 255 255 255
-0.0210930044518418 -0.4519017149398044 1.0978484346768087 255 255 255
-0.0360107748561449 -0.4487247829703281 1.1003004939119838 255 255 255
0.0093370648176407 -0.4372006750845290 1.0845654636864470 255 255 255
0.1528491801999060 -0.4255004328472948 1.1277779407424291 255 255 255
-0.1027121338942906 -0.3975074200139794 1.0500045858476881 255 255 255
0.0761416835964624 -0.3414997119862783 1.1032176401415354 255 255 255
0.1099385217305691 -0.3079733706843053 1.0961146933726014 255 255 255
0.1986886009161929 -0.3058356907451686 1.1424744012978831 255 255 255
0.0714386130304226 -0.2837935932855406 1.0838163328499451 255 255 255
0.0727555564529855 -0.2544233854118516 1.0573096733510441 255 255 255
0.1586193393385719 -0.2711431222341243 1.1220325639368753 255 255 255
0.2099412416915984 -0.2487227183638018 1.1559013474082811 255 255 255
0.0928614867556757 -0.2097720746556327 1.0625133376193217 255 255 255
0.1046092462970865 -0.2089871705904108 1.0647996123418337 255 255 255
0.1894282988971570 -0.1509006131211302 1.0922734755940589 255 255 255
0.2423711542100905 -0.1790046578681533 1.1973872534025392 255 255 255
0.0381000743842701 -0.1472336289752234 1.0483204783174589 255 255 255
0.1491542773644551 -0.1221075567765578 1.0555906552644094 255 255 255
-0.0682521288734692 -0.1164742994395564 1.0948150191464652 255 255 255
0.0556903018372048 -0.0967446146757141 1.0488123420307491 255 255 255
0.0635206371063419 -0.0969867116758037 1.0592924746984735 255 255 255
0.3340908386205160 -0.1790952917022500 1.4431924355795487 255 255 255
0.1456441368264698 -0.0942188950295093 1.0811255847512926 255 255 255
0.0110909257347745 -0.0888116248628505 1.0688127348780905 255 255 255
0.1989601488788084 -0.0917713077648095 1.1192540293987834 255 255 255
0.1381136988569577 -0.0827157900210334 1.0989614872504969 255 255 255
0.1773334521261817 -0.0842171433848123 1.1159081487798184 255 255 255
-0.0193933146658329 -0.0695759851026314 1.0710814402434201 255 255 255
0.1856204110849841 -0.0631801423578875 1.1318199641998101 255 255 255
0.1591261405392689 -0.0309999770974410 1.0786759445994114 255 255 255
0.3549413519171758 -0.0998418479247746 1.5098621493444708 255 255 255
0.3664583360801815 -0.0560433542151105 1.5052259347627386 255 255 255
0.1636681477387614 0.0222042160247318 1.1197563723162545 255 255 255
0.3200990873679857 -0.0242693131012896 1.4566151212180469 255 255 255
0.0442649847741371 0.0466458786095358 0.9663809576595564 255 255 255
0.1235404326052917 0.0405655007813204 1.0715282789854352 255 255 255
0.1297399870351865 0.0421005898352487 1.0857562049536282 255 255 255
0.2635895326575007 0.0151698505554002 1.4017104600285095 255 255 255
0.1456173899506624 0.0648442580470749 1.0787084789413979 255 255 255
0.2840949896841991 0.0571257446440751 1.3781164782301409 255 255 255
0.3146152480397099 0.0774552476830544 1.4195819763887900 255 255 255
0.0334409393304476 0.1078829750908385 1.0246427685302302 255 255 255
0.1021685725629038 0.1151666349758797 1.0463947679484051 255 255 255
0.1489505365483363 0.1251930658764016 1.0812089868087471 255 255 255
0.1350876092334379 0.1364414879253593 1.0938279413580907 255 255 255
0.0734343207651608 0.1560304130437172 1.0353928303396591 255 255 255
0.0264848381947623 0.1607490970889853 1.0312128857089478 255 255 255
0.1207188794807856 0.1666238473683036 1.0848264463865338 255 255 255
0.0575776269742488 0.1875613092903041 1.0773663046214241 255 255 255
0.1257559047069674 0.2026297978571723 1.0918998367793753 255 255 255
0.1184122915647890 0.2087818344355909 1.0907918176109976 255 255 255
0.1183349998229501 0.2173107047416144 1.0912093063916524 255 255 255
0.1403830805080649 0.2252701412410849 1.1285813720572595 255 255 255
0.1437371436019166 0.2221818154616214 1.1596260547894341 255 255 255
0.1277051775852348 0.2229058058240663 1.0928858496223257 255 255 255
0.1000663636845578 0.2317165496312888 1.0839237238712605 255 255 255
0.1357714919467171 0.2317610713624667 1.1318943808609725 255 255 255
0.0826986429129162 0.2338421479599961 1.0844108814496096 255 255 255
0.1854909735430137 0.2539534095906984 1.3206853532858112 255 255 255
0.1182885554979230 0.2525022939046201 1.1135351018455273 255 255 255
0.0499308840087157 0.2601996636227715 1.0581657957276771 255 255 255
0.0902051288705637 0.2710460182224716 1.1266270191187868 255 255 255
-0.3174769915795309 0.3368362686018467 1.4844608171681890 255 255 255
0.1459208980469729 0.3288133806184199 1.3092767429424113 255 255 255
0.1200793250688544 0.3455852064255809 1.2994308296275308 255 255 255
-0.3138768366860022 0.3737019919551784 1.3861802893910917 255 255 255
0.1286935937318066 0.3540468976985853 1.3151045883798864 255 255 255
-0.2861876927110476 0.3941128246811081 1.4918987526639971 255 255 255
0.0663213719252901 0.3533615659369344 1.2369485231003443 255 255 255
-0.3024824962087283 0.3900382402839082 1.4045741795432376 255 255 255
-0.3066642064778137 0.4020720237412952 1.4962439145749260 255 255 255
-0.2913765071399655 0.4083803200835587 1.4951759184532951 255 255 255
-0.2920442015318426 0.4205872607480751 1.5173565612710105 255 255 255
0.0677397269158403 0.3785453203074240 1.2638916376990286 255 255 255
0.3648001760156015 0.4078965117908939 1.4766941658853459 255 255 255
-0.2881257722069602 0.4341561099591439 1.4872389678703744 255 255 255
0.2668035570255227 0.3724354566649885 1.2310678599746647 255 255 255
-0.2926703230987274 0.4344442162878165 1.4627782083482035 255 255 255
0.3717256669106421 0.4297911601221322 1.4420027711010079 255 255 255
0.3666086705337012 0.4385799012592693 1.4274449001168776 255 255 255
0.3461459666188397 0.4421757992815331 1.4361003914953423 255 255 255
0.3293226879672552 0.4434871858155666 1.4283491629907068 255 255 255
0.3573227384047780 0.4435060436973016 1.4200882235707983 255 255 255
0.4202907961263821 0.4488017726110225 1.4656748771810468 255 255 255
0.3718127300327393 0.4512548794607125 1.4213498925867964 255 255 255
0.3262312013918949 0.4549410918571570 1.3902794527875488 255 255 255
0.4192714607613054 0.4656127212612046 1.4516014998260953 255 255 255
-0.2965294169279156 0.4850236544909165 1.3633156404019813 255 255 255
0.3600248103960862 0.4761165041379851 1.3939364803360170 255 255 255
0.4020985549059611 0.4771779873142546 1.4049027300843744 255 255 255
0.3849693082202500 0.4796551235250966 1.4099459464043698 255 255 255
-0.0595579421016439 0.4798215304503315 1.3230371920172355 255 255 255
0.4147579336928883 0.4923555039262221 1.4348301980086278 255 255 255
-0.3302127391306110 0.5228529966493802 1.4627057754520814 255 255 255
0.3234363256478728 0.4774966058084345 1.3490357532069379 255 255 255
0.4236454857467811 0.4909616304286464 1.4032246407759801 255 255 255
0.1766956422474724 0.4845733348144257 1.3247642454142239 255 255 255
0.3529529192748820 0.4945748733767047 1.3852361784536471 255 255 255
0.3787794394577163 0.4972782776059143 1.3706458944408495 255 255 255
0.4060701165291144 0.4955826968308394 1.3735049928587086 255 255 255
0.2879974961159978 0.5026550402937380 1.3108630628191955 255 255 255
0.3008647668642270 0.5064264976089167 1.3085363481527321 255 255 255
0.3938073222815194 0.5216502451747032 1.3563605817496351 255 255 255
0.3851146782613905 0.5276270228623995 1.3541305351347293 255 255 255
0.3784527809875975 0.5343427264397914 1.3487338975456189 255 255 255
0.3955784190020065 0.5398119878051504 1.3685643917558667 255 255 255
0.4103967513538506 0.5387945042590249 1.3510774029933241 255 255 255
0.3867313000650125 0.5393272124470300 1.3468621479710983 255 255 255
0.0073023909238777 0.5377847707073838 1.2477736423915868 255 255 255
0.3179668335544001 0.5425376652580746 1.3274316043309502 255 255 255
0.2691853258851821 0.5376000916118788 1.2835977047860121 255 255 255
0.3230523234887817 0.5493117953465496 1.3206754670943865 255 255 255
0.3398389085172853 0.5536547654701037 1.3183129997259595 255 255 255
-0.0373030795965570 0.6097532538848143 1.3816708792818511 255 255 255
0.3458155061198064 0.5611683724863156 1.3189353205419208 255 255 255
0.2580607696151406 0.5540308648028061 1.2693153405994035 255 255 255
0.4073985272438776 0.5707787051031015 1.3470358560259683 255 255 255
0.3239598023753075 0.5653867981431120 1.3072429403490595 255 255 255
0.0265781338430568 0.5734406342415045 1.2731462877013149 255 255 255
0.0065204293234250 0.5704894819187845 1.2553918345302402 255 255 255
0.3980193421291175 0.5762610240195867 1.3451645569708401 255 255 255
-0.0020644530412058 0.5692498037878680 1.2314800991704626 255 255 255
0.2572463578761754 0.5665659590779734 1.2730353691891498 255 255 255
0.2087039712839181 0.5765853784110619 1.2944312500726158 255 255 255
0.2255315532031370 0.5757752328665230 1.2849910268505698 255 255 255
-0.2577114758764559 0.6093207889700335 1.2821061156358584 255 255 255
-0.0021310054875480 0.5885224552354864 1.2645927749079318 255 255 255
-0.0234780016505847 0.5829172132989789 1.2280795747751274 255 255 255
-0.0110171921628368 0.5871476175419491 1.2457711613238016 255 255 255
-0.5713436996605965 0.6734192413823615 1.4024105102968520 255 255 255
-0.0199492312808636 0.5948158598316908 1.2441892034322681 255 255 255
-0.4349405601547565 0.6687081105513945 1.3774034503463743 255 255 255
0.0100908659057814 0.6114378551338776 1.2491669220126125 255 255 255
-0.5715743224082680 0.6866301099315957 1.3632169613873577 255 255 255
-0.0410490702362778 0.6189311652829990 1.2447925061992684 255 255 255
-0.5693995009494349 0.7091311967545513 1.3955022412088327 255 255 255
-0.5759045496649581 0.7013099585308999 1.3569174687824543 255 255 255
-0.1468171387536032 0.6374391768325447 1.2401457174752095 255 255 255
-0.4246164511790669 0.6970562011147037 1.3390516993452044 255 255 255
-0.5425637951067720 0.7291080551081182 1.3762160000456825 255 255 255
-0.2217271978132298 0.6564239600903147 1.2269006686120210 255 255 255
0.0751827900393233 -0.4886915153120197 1.1301018565519032 255 255 255
0.0273185713704466 -0.4654626023414616 1.0850896612734175 255 255 255
-0.0890518180008783 -0.4383661206875024 1.1349181379187905 255 255 255
-0.1743486083581045 -0.3795045706112247 1.1510390690021841 255 255 255
0.1663402256596363 -0.2951259308429204 1.1256138321952958 255 255 255
0.0651373609552237 -0.2724829723699889 1.0744944426754874 255 255 255
0.1227573845444116 -0.2661840973910212 1.0848987163514288 255 255 255
-0.1459789745291407 -0.3264962109267606 1.2039439122803954 255 255 255
0.2346848475487689 -0.2414805488806404 1.1921933891526941 255 255 255
0.1495785314486460 -0.1698391744224917 1.0565211562817589 255 255 255
0.1103571632589304 -0.1674953627828148 1.0801166530885653 255 255 255
0.0959780268697907 -0.0781206948563608 1.1129303958853198 255 255 255
0.1337438639293308 -0.0704772381191013 1.0990564025881575 255 255 255
0.1802113454764078 -0.0728814871328054 1.1206354105088481 255 255 255
0.1201809538310274 -0.0587765641461502 1.0940450540508222 255 255 255
0.3452942481711774 -0.1107098360970872 1.4654572911556789 255 255 255
0.1461651241873016 -0.0367129135020947 1.1358425175378692 255 255 255
0.3231587033044118 -0.0725483151603982 1.4608380981400810 255 255 255
0.1377854741016004 -0.0018935662827927 1.1015305620470119 255 255 255
0.1863901498088769 0.0287516992500254 1.1163368486965832 255 255 255
0.1081525760051100 0.0363376509685093 1.0704478365596959 255 255 255
0.0197951008170169 0.0691228798363639 1.0233321825203774 255 255 255
0.0772909026640795 0.1258744636482788 1.0467167496097796 255 255 255
0.1689131901895359 0.1425878037602647 1.1013130724259319 255 255 255
0.0677360698147637 0.1747397064178499 1.0360132401237303 255 255 255
0.2515128446731658 0.1808498235873132 1.5138898142463366 255 255 255
0.0297575880861878 0.1908112341963362 1.0410686441686738 255 255 255
0.0960068409366725 0.2102071045194304 1.1043756735964487 255 255 255
0.1089427569653092 0.2186886286493084 1.0843215921534275 255 255 255
0.2240665728784447 0.2612761536769367 1.5288193048395156 255 255 255
0.1377934869410550 0.3457651844224819 1.2999259152912341 255 255 255
0.0247458757699951 0.3447329958693623 1.2189757444033629 255 255 255
0.1152856832748396 0.3904521335144887 1.2976140004237866 255 255 255
0.3422651398565047 0.4103598966330798 1.4786856985140451 255 255 255
0.1362836567203417 0.3952424690431222 1.3052645569098296 255 255 255
0.3239331366911717 0.4255994531690364 1.4135207221641370 255 255 255
0.1354114468683126 0.4308911929066617 1.3176045447135232 255 255 255
0.0551075691888107 0.4438603178405544 1.2916138812226132 255 255 255
0.3076182113392343 0.4658741448554721 1.3642810772343033 255 255 255
0.0635774886086427 0.4886606886944675 1.3137588116237375 255 255 255
0.3931682415123132 0.4978583356198106 1.3753299187438452 255 255 255
0.0151535598914995 0.5197196885975464 1.3260592041250940 255 255 255
0.1888460782133470 0.5025799184600984 1.2199009635070581 255 255 255
0.3265990765485708 0.5279243167097698 1.3186918371486669 255 255 255
-0.5141067752581372 0.6236710290891030 1.4223270107946056 255 255 255
0.1554658525303949 0.5363452352497662 1.2772953104343621 255 255 255
-0.2702477151637702 0.6085705168745388 1.2670232876139789 255 255 255
0.1323825804424907 -0.0867433359560673 1.0939033932708186 255 255 255
0.0702614487239974 -0.0606631176775121 1.0836379748472296 255 255 255
0.1867442990692156 -0.0620758227758981 1.1323879665244343 255 255 255
0.0878411878516440 -0.0479767602544264 1.0742193447842283 255 255 255
0.1277358159508827 0.0586635388981689 1.0875203292280495 255 255 255
0.0705324023017926 0.1036082408003425 1.0300816980761958 255 255 255
0.2281028363460689 0.1925352171028724 1.4210760100560853 255 255 255
0.0996777546914378 0.2320291248099061 1.0845757171350110 255 255 255
-0.5880582072400184 0.5205851095816504 1.4869539545585442 255 255 255
0.3546614942141799 0.4597129471614451 1.3475043125647903 255 255 255
-0.5716899832853599 0.5536426422914439 1.4932641984037789 255 255 255
-0.5824672286997740 0.5574847084216235 1.4801520104869212 255 255 255
0.1801763354434357 0.5017715090209474 1.3989827445420286 255 255 255
0.1133476655142966 0.5106422858097635 1.2840638559025721 255 255 255
-0.5622511531180227 0.6022173627167368 1.4321426724568562 255 255 255
0.3943640285829065 0.5476142828679743 1.3588663222232267 255 255 255
0.3032627173445618 0.5491795994887503 1.3150909732480593 255 255 255
-0.4508761261637116 0.6624801388444596 1.3580436491790862 255 255 255
0.0260864860048406 -0.4649710689966336 1.0842573345899307 255 255 255
0.0012796702854750 -0.4636945941235535 1.0854012132876125 255 255 255
-0.0638096198798886 -0.4561693573423403 1.0916088508492849 255 255 255
-0.0063396556604704 -0.4541274971763377 1.1118630521511939 255 255 255
-0.0121607417092453 -0.4345463900481585 1.0883153262408556 255 255 255
-0.0847795684982237 -0.4228712845718315 1.1047547720184254 255 255 255
0.1157834753571809 -0.2813725176601969 1.0984510297621168 255 255 255
-0.0216469707330272 -0.3137451397232228 1.1638099569560381 255 255 255
-0.1152387769040537 -0.3184559431041362 1.1864011633786873 255 255 255
0.1603905223811720 -0.1366362244917406 1.0976788804728475 255 255 255
0.1731431320457427 -0.1084080362880607 1.1066458247439457 255 255 255
0.2562662549054990 -0.1211829721170155 1.2700374930108258 255 255 255
-0.0184914890704087 -0.0783702119248187 1.0883837121265296 255 255 255
0.1980704523994899 -0.0457436281578447 1.1430797307058795 255 255 255
0.1694463979329936 -0.0429548735815781 1.1425417724955658 255 255 255
0.1120946058994104 -0.0179415634160868 1.0904411346633422 255 255 255
0.1080384490457400 0.0312407108785808 1.0684526096809845 255 255 255
0.0639493413405503 0.0629426548680367 1.0123322135396637 255 255 255
0.0777574979702621 0.0707641437715671 1.0642290051664161 255 255 255
0.1255291823541455 0.1079280547548257 1.0792125918205460 255 255 255
0.0832326867962527 0.1246155666439347 1.0303244233111053 255 255 255
0.1394997903375301 0.1252609983271032 1.0749063145482520 255 255 255
0.1081995724048018 0.1436415833821770 1.0783569855982822 255 255 255
0.1483720041267859 0.1435076892375180 1.0887336637749658 255 255 255
0.1231270223247399 0.1562316087412448 1.0847847800670443 255 255 255
0.0699576756733401 0.1826117321838262 1.0752235172124256 255 255 255
0.1025879845925253 0.2127959133136673 1.0820957800834017 255 255 255
0.0979780001522386 0.2326822935385801 1.0917302512755673 255 255 255
0.0302593692512428 0.2608233777843936 1.1183295764404311 255 255 255
0.1507883777047471 0.2863883813145605 1.2674762722389246 255 255 255
0.2168663369286056 0.3425847815006386 1.3901934080842575 255 255 255
-0.2747493535517186 0.4153126643919527 1.4442722496373774 255 255 255
0.0845547913786893 0.3791449288619786 1.2669474464018904 255 255 255
0.1359153090943190 0.3939839410899063 1.2974886240816865 255 255 255
0.0612766244870719 0.4008106573975333 1.2839528488322161 255 255 255
0.3071155356970510 0.4679778339571105 1.3721222728656193 255 255 255
-0.5151664522112930 0.5449939523930152 1.4736248446163527 255 255 255
0.0039723014026243 0.4859355695058295 1.3075921721964696 255 255 255
-0.5572763787622662 0.5751552545170920 1.4711538216582603 255 255 255
0.0138944784364411 0.5434563804596702 1.2536872331595954 255 255 255
-0.2039092077140235 0.6106686043727589 1.2589845315650945 255 255 255
-0.2310774256232019 0.6213911943018215 1.2592470690311590 255 255 255
0.0522568006907612 -0.4571653734961833 1.0898622113767513 255 255 255
0.1209956584860921 -0.3636351574236337 1.0294790846435355 255 255 255
-0.1388287133676674 -0.3748624636818633 1.2175192109560133 255 255 255
0.0745813893559342 -0.2101999204963696 1.0605525179194260 255 255 255
0.1886287726218526 -0.0734609971203135 1.1115155089819924 255 255 255
0.1071760513331249 0.0861996918759851 1.0568346012209968 255 255 255
0.1371213415646603 0.1273690263843962 1.0759103768691833 255 255 255
0.1201597108558892 0.1627669876000221 1.0846901256208779 255 255 255
0.0970242619657187 0.2162046496541569 1.0859379814436980 255 255 255
0.1298324264998817 0.3986408960693598 1.2883879637196003 255 255 255
0.2896481065403312 0.0756761864281713 1.3889667738702087 255 255 255
-0.1424389709029813 -0.3830451289758223 1.2318949581880116 255 255 255
0.1300369829990046 -0.1630024457619080 1.0550925756028497 255 255 255
0.1021770443485666 -0.1234403234107164 1.0491714725614902 255 255 255
0.1226333480073284 -0.0030203761322059 1.0871408781681444 255 255 255
0.1129045746568866 0.0830718538180399 1.0619670388965434 255 255 255
0.0363872508239278 0.2336806632768284 1.1238486336322113 255 255 255
-0.0564803163729639 -0.4710300892165463 1.0824649277689453 255 255 255
-0.0504862627825158 -0.4410890668006532 1.0833885379651049 255 255 255
-0.0632394784982636 -0.4117777292955504 1.0502697135014136 255 255 255
-0.0880838533879460 -0.4095677668699650 1.0525910884207930 255 255 255
0.1562395902136031 -0.3593532411537644 1.0325387613456409 255 255 255
0.1621279710421414 -0.3624527674806355 1.0560597230687134 255 255 255
-0.0883921659957961 -0.3994994714211939 1.0537273605325728 255 255 255
-0.1260127619157267 -0.3777002873935332 1.0669953779818007 255 255 255
0.1428075626325207 -0.3127534279233425 1.1079629815594660 255 255 255
-0.1423807470895263 -0.3694691043969354 1.1740693408988840 255 255 255
0.1773967934702140 -0.3009651005622404 1.1286260369479553 255 255 255
-0.2099432550227079 -0.3551485284467104 1.1894873128114714 255 255 255
0.1421759353302391 -0.2652846999919909 1.1062741102935190 255 255 255
0.2802740356207386 -0.2882804769653674 1.2119546906315037 255 255 255
0.2806699548673521 -0.2764934814419437 1.2182032811507704 255 255 255
0.1323476491846343 -0.2533196121943354 1.1141676706136348 255 255 255
0.1272996456513055 -0.2258742560282143 1.0792181097683631 255 255 255
0.2961412185406468 -0.2128277304775035 1.2103172452191033 255 255 255
0.2386388060067677 -0.1935760473766573 1.1697185200285198 255 255 255
0.2596884831340591 -0.1929188228951839 1.2045502010915399 255 255 255
0.0941948679629454 -0.1472682208617111 1.0400356850830532 255 255 255
0.1410786654848946 -0.1347550592836316 1.0564092860908716 255 255 255
0.3368723963967453 -0.2732813294933488 1.6031962912385609 255 255 255
0.1935530968066825 -0.1325396039274674 1.0805493087511735 255 255 255
-0.0098884918242505 -0.1218399405699738 1.0486394985900707 255 255 255
0.1843042425240172 -0.1035738697695133 1.0855175334820062 255 255 255
0.2655573904018160 -0.1414178013714731 1.2470650683521476 255 255 255
0.2629587075862819 -0.1284035810973570 1.2411461855862933 255 255 255
0.1708981424454358 -0.0939216177427344 1.0966694128165264 255 255 255
0.1818235819712993 -0.0910961937019955 1.1024429708439247 255 255 255
0.1179149549185076 -0.0748228653969492 1.0956770459587037 255 255 255
0.2662160877363857 -0.0944114045647682 1.2372504004721634 255 255 255
0.0817025390347129 -0.0482281248708364 1.0867564326451209 255 255 255
0.0911893668131806 -0.0459709759915324 1.0926466264846413 255 255 255
0.1080095861731202 -0.0426357846031483 1.1029341911228592 255 255 255
0.2944378063212307 -0.0808837070813825 1.3663594606608438 255 255 255
0.3060805321414494 -0.0872638176036881 1.4639613208970639 255 255 255
0.2898690622876092 -0.0250385402348180 1.3986100885694339 255 255 255
0.2818423280087329 0.0002275206595682 1.3322305164862871 255 255 255
0.3017072464086819 -0.0124162791420969 1.4606585810593433 255 255 255
0.0919038386317465 0.0416118534945075 1.0545769968483782 255 255 255
0.0788159792290095 0.0530789561979224 1.0496004708492019 255 255 255
0.3350954095371545 0.0442892935669200 1.4516457462328536 255 255 255
0.0675123004970883 0.0908348115902421 1.0222853176860065 255 255 255
0.1594030029082779 0.1203892767649046 1.0763704761666819 255 255 255
0.2258804306194926 0.1249818814746533 1.1831254104365829 255 255 255
0.0595847115891075 0.1468803009053833 1.0510184672211023 255 255 255
0.1404769683744239 0.1604413282119529 1.0920403237147718 255 255 255
0.1107065376255169 0.1724591850148005 1.0765284796827421 255 255 255
0.0737066654199584 0.1921118974279769 1.0610595802294418 255 255 255
0.1875468990198624 0.2166215917674436 1.2155880769187863 255 255 255
0.1260888296039402 0.2368170300524162 1.0985370309155245 255 255 255
0.1272610833838427 0.2456019907017443 1.1042320030466830 255 255 255
0.1324993478019099 0.2429748608402347 1.1182001554532766 255 255 255
0.1428660027957209 0.2467377715043270 1.1524445384890867 255 255 255
0.1511435417374451 0.2456517857723515 1.1586782815493073 255 255 255
0.1887733300549000 0.2674761062398860 1.3146432794451433 255 255 255
0.1672768786783459 0.2932600326915674 1.2984131406731649 255 255 255
0.1345008791975392 0.3024463020373913 1.2676945109950879 255 255 255
0.1174157530928389 0.3358846951653869 1.2761780194188526 255 255 255
0.1935794565001873 0.3459538135907841 1.3391722556890644 255 255 255
0.2722283603683146 0.3345212211250108 1.2749365354677167 255 255 255
0.2942724132378137 0.3418411932901250 1.2612775059377110 255 255 255
0.0843690140370387 0.3602434659840053 1.2351938824592033 255 255 255
0.3396155863344320 0.3833370075664725 1.4385843868742112 255 255 255
0.3474148887418823 0.3972351961511814 1.4660747211189198 255 255 255
-0.2993619452782638 0.4397010591031713 1.3306904551013923 255 255 255
0.3576615024827255 0.4025555240408416 1.4519949088073689 255 255 255
0.2965117915151692 0.3771838800185732 1.2234986716672134 255 255 255
-0.3254208394218461 0.4854018984842164 1.4871076414924602 255 255 255
-0.2795335853257045 0.4690169769232438 1.3566517072578055 255 255 255
0.4082001305033488 0.4320186185443691 1.4389815642389423 255 255 255
0.3354168042629779 0.4328611475620726 1.3909463313362915 255 255 255
0.3593626061677906 0.4342716558065940 1.4174528986286203 255 255 255
0.3162341932987779 0.4336996844980894 1.3698179774644281 255 255 255
0.3414554293210089 0.4402594400490936 1.3896488428768388 255 255 255
-0.2782986669320031 0.4987396622766962 1.3312116090899362 255 255 255
0.3370162751600401 0.4467390575671566 1.3746807950945852 255 255 255
0.3504549059131060 0.4497826238888423 1.3962132146253166 255 255 255
-0.2892477158213084 0.4966905250749361 1.2780035192846741 255 255 255
0.3824697202285267 0.4518215689108059 1.4074178597396685 255 255 255
-0.2837974643702471 0.5022936701508964 1.2869165828718638 255 255 255
0.2784462759905487 0.4635244187928354 1.3258428116975640 255 255 255
-0.2686006406099461 0.5259065250616781 1.3257499227462026 255 255 255
0.3797314894816001 0.4664201707262545 1.3891891357561530 255 255 255
0.3993238322985721 0.4688231077624687 1.3864494398833651 255 255 255
0.3005439002138222 0.4761370845777351 1.3293992097460789 255 255 255
0.4113193283565293 0.4803333494635673 1.3883722200599284 255 255 255
-0.2560827506041717 0.5413060485219415 1.3009081129466258 255 255 255
0.3822628271920436 0.4823294617868297 1.3706300782236434 255 255 255
0.3024916042385626 0.4840413442861285 1.3273227106036836 255 255 255
0.2886609056272207 0.4873170653303334 1.3160846190770610 255 255 255
0.1024030668172578 0.5097046778084017 1.2857929101773211 255 255 255
0.3163979929487177 0.4896382522038706 1.3156934788304593 255 255 255
-0.2303686262604311 0.5632397434212956 1.3260843064938390 255 255 255
0.3340805515171408 0.4900460793044573 1.3145597608489863 255 255 255
0.3611045278031650 0.4962287229525182 1.3468588606872092 255 255 255
0.4015003024636405 0.5004779732545519 1.3612377934960800 255 255 255
-0.2346597743642452 0.5774626715210134 1.3212146529788305 255 255 255
0.3685115942491383 0.5058035718810677 1.3445971718681693 255 255 255
-0.0117201332074186 0.5307770730856846 1.2494898718021381 255 255 255
0.0708871979342513 0.5269737008091314 1.2766187792943062 255 255 255
0.2817023717696031 0.5062732919093893 1.2893168721094126 255 255 255
0.3969158418072519 0.5083584077510696 1.3575416304983143 255 255 255
0.2653466007924112 0.5196448076271639 1.3096449229061013 255 255 255
0.2603855459972630 0.5219980939585198 1.2897358305821991 255 255 255
0.3110803595768538 0.5213747060439667 1.3045959317961262 255 255 255
0.2940703620260721 0.5254360882504674 1.3055642713063054 255 255 255
-0.1773408328336023 0.6082777116528887 1.2768264400965388 255 255 255
0.2803459052467200 0.5415040766334456 1.2706266408864875 255 255 255
0.0256815866555413 0.5811605441591509 1.2679535539631930 255 255 255
0.2887225643130961 0.5550376704628238 1.2999183184057030 255 255 255
-0.1953065058774487 0.6217587903305469 1.2872560626963969 255 255 255
-0.2421986388853148 0.6171645304340362 1.2481928617634508 255 255 255
0.2876489023145672 0.5474509563987306 1.2726612337102989 255 255 255
-0.5167365631009218 0.7091803265304750 1.4148737409160541 255 255 255
0.3317973777909577 0.5509804692527772 1.2958444209277336 255 255 255
-0.5932237995533113 0.7466970104779583 1.3843728423979205 255 255 255
0.0486752698925128 -0.4588335049626289 1.0825019551360131 255 255 255
-0.0020622358493363 -0.4659367186631700 1.0909080703497154 255 255 255
-0.0180381037237468 -0.4323366857932199 1.0952717490789514 255 255 255
-0.1506646909593460 -0.3891904174709696 1.1317165319134777 255 255 255
0.0758770025111415 -0.3323968547686940 1.0766708425421765 255 255 255
0.2051359105587042 -0.2915941409668567 1.1626898174590863 255 255 255
0.2339455995170118 -0.2757090258371339 1.1735268695044236 255 255 255
0.1945973618555083 -0.2363943261592498 1.1224987942693778 255 255 255
0.2390140781095530 -0.2412661908175045 1.1887343958025114 255 255 255
0.3341785471821148 -0.3509201937275547 1.5643042950505253 255 255 255
0.1387634640097082 -0.1517543778591912 1.0505753348543707 255 255 255
0.1577027813068305 -0.1267129477644436 1.0545275192853112 255 255 255
0.1922441282141381 -0.1220803578457107 1.0855181515986538 255 255 255
0.2632165291608143 -0.1145763108054068 1.2445404988058717 255 255 255
-0.0453674136642229 -0.0851094490545384 1.0887789478783727 255 255 255
0.0733870647012557 -0.0588081701959669 1.0673122120869183 255 255 255
0.2072781654309037 -0.0677574626847657 1.1370765627135180 255 255 255
0.2041323282885388 -0.0493231683771856 1.1370735002240233 255 255 255
0.1751499771918964 -0.0410519833722435 1.1227975911441648 255 255 255
0.2794843540890317 -0.0618525840082275 1.2658494448690110 255 255 255
0.2050878807575925 -0.0215542122510185 1.1369643063210668 255 255 255
0.3040669228134181 -0.0494514624705762 1.4290882354330618 255 255 255
0.2890011292897088 -0.0241852229178741 1.3759530567226423 255 255 255
0.0657818301123205 0.0636647274583851 1.0092532616862140 255 255 255
0.3438410270106566 0.0166345761337363 1.4480875581084434 255 255 255
0.2150069751684072 0.0642132551386852 1.1394357920452529 255 255 255
0.0776697449345398 0.0744946051555843 1.0336899570012315 255 255 255
0.1026856262613883 0.1271032794977305 1.0449507997803889 255 255 255
0.1494965365224439 0.1412721067036075 1.0877200562112286 255 255 255
0.0888070452656128 0.1530928311647509 1.0503784142062937 255 255 255
0.0484996802539984 0.1892815818235541 1.0527079435061055 255 255 255
0.1627561041869336 0.1882678325752423 1.1109267914768883 255 255 255
0.1366851892634892 0.2093571042823151 1.0982242399783066 255 255 255
0.1504092176241957 0.2123458576076653 1.1140394555329072 255 255 255
0.0711412152570090 0.2250092961252870 1.0660790214324216 255 255 255
0.3152800550809194 0.3247596857300394 1.4430118948167587 255 255 255
0.2820984020371641 0.3212049369451525 1.2661768312064809 255 255 255
0.2856466520055370 0.3505944835073403 1.2266990361115817 255 255 255
-0.2875002626990912 0.4389443832821110 1.4022048684486212 255 255 255
0.2834727747791555 0.3683412423340151 1.2182025450143807 255 255 255
-0.2710584876675359 0.4963008194622679 1.4929246881495108 255 255 255
-0.2831374652882074 0.4772672768520659 1.3241237677441493 255 255 255
0.3634885705551117 0.4568851624814870 1.3980282261925843 255 255 255
0.3125063312586700 0.4619964684371088 1.3383866278944023 255 255 255
-0.2704575224123046 0.5264563515848032 1.2945447447344980 255 255 255
-0.5321683835675657 0.6185539245334090 1.5195036178238828 255 255 255
0.3730068671641173 0.4825526586126516 1.3681249951007939 255 255 255
-0.0772718972773695 0.5267419472967959 1.2876420198231988 255 255 255
-0.4668469661187197 0.6134354140287727 1.4154616190468119 255 255 255
0.3293402489296388 0.4961205570168075 1.3163406369384716 255 255 255
0.3659469744087428 0.4953486045249835 1.3382019934456328 255 255 255
0.3464377582373186 0.5079608041857734 1.3574475436186222 255 255 255
-0.0179373667075240 0.5415420230767641 1.2973847015540416 255 255 255
0.2936012038536184 0.5091017506208168 1.2936597792903963 255 255 255
0.3530055097200945 0.5202723732631928 1.3211988491987490 255 255 255
-0.4660864774572308 0.6919538659080310 1.4054975987896912 255 255 255
0.1671100335419451 -0.2658931143068116 1.1033344634731566 255 255 255
0.1472747326997275 -0.2373853690519114 1.0977504916237542 255 255 255
0.1829090155133531 -0.1402080009957730 1.0812126209526605 255 255 255
0.2437490258312333 -0.1511663976688258 1.1943082627851700 255 255 255
-0.0751264839690569 -0.0952897500714930 1.1073605222586340 255 255 255
0.0767193222689263 -0.0440492913836578 1.0682726006236363 255 255 255
0.2861903319294723 0.0198965283323851 1.3978804657958215 255 255 255
0.2886719585542594 0.2653222627755184 1.4514405968738646 255 255 255
0.1328307299365892 0.3359281810924692 1.3360495551195317 255 255 255
-0.3090471457688881 0.4389623338478246 1.4866491820888459 255 255 255
0.0689565027119490 0.3782232812193924 1.2574758639776105 255 255 255
-0.2901392131110576 0.4548831558479594 1.3941951518476690 255 255 255
0.3647984169076988 0.4729797473679917 1.3818868215246725 255 255 255
-0.6350200553153702 0.6178463910846673 1.4785900664456086 255 255 255
0.3261933489131996 0.4757108760781010 1.3357698869422610 255 255 255
0.2842442275850556 0.4913556269114374 1.3387857836506907 255 255 255
0.3565848897774500 0.4871419553075348 1.3509476947838368 255 255 255
0.2944992997214177 0.4941764227517461 1.2849109050940357 255 255 255
0.1206066998468372 -0.5374001912673476 1.2210197631704758 255 255 255
-0.0561566653280594 -0.4103162331415223 1.0961885501444852 255 255 255
0.0256954434494293 -0.3235339783801157 1.0919619599588939 255 255 255
-0.1230278374181112 -0.3660009359469518 1.1956656989368255 255 255 255
0.1745125076161946 -0.2770667337055195 1.0807947453803461 255 255 255
0.2058604694102354 -0.2919689285761914 1.1636567513410250 255 255 255
0.2157780451060597 -0.2644000284163568 1.1536120546533271 255 255 255
0.2345030432173881 -0.2419700052186315 1.1788835606930566 255 255 255
0.0721271417459936 -0.2146109764242745 1.0719971473698424 255 255 255
0.1520319837219795 -0.1687832488021771 1.0463494374301689 255 255 255
0.3404159581338445 -0.2982812509641738 1.5944223365118735 255 255 255
0.1542559264128418 -0.1290386869731310 1.0617144785274208 255 255 255
0.2635542661178754 -0.1607670538805877 1.2233951984302480 255 255 255
0.2749567070444941 -0.1484247360799017 1.2724282975212009 255 255 255
-0.1309393185267744 -0.1309492176899300 1.1091878982326664 255 255 255
0.1831571035873058 -0.0727190696819215 1.1115055245351475 255 255 255
0.3465004598474802 -0.1641670901125086 1.5718245838275324 255 255 255
-0.0687243089859535 -0.0777523830282096 1.1129156348857905 255 255 255
0.1220108809652791 -0.0604018919467222 1.0863910847741378 255 255 255
-0.0936647494407699 -0.0793264633097967 1.1198153780267357 255 255 255
0.2573589801949838 -0.0521944751884390 1.2245792859572746 255 255 255
0.1399165744445371 -0.0028266522957115 1.0947315848624493 255 255 255
0.1176122086858980 0.0095785787143852 1.0794060199128237 255 255 255
0.0894049339481289 0.0471370389859329 1.0160100296587806 255 255 255
0.1988529643862062 0.0429215166667258 1.1191775467286529 255 255 255
0.2600682307855373 0.0263629596602172 1.3278686311315810 255 255 255
0.0803351543198220 0.0721958006704015 1.0502174798895760 255 255 255
0.1042824201454044 0.0891538402577208 1.0595186318441814 255 255 255
0.1293547364229243 0.1084990443083992 1.0636104024504063 255 255 255
0.1634842935143769 0.1873569068436078 1.1128991825300765 255 255 255
0.1585946670264727 0.2265682361195285 1.1667120294779254 255 255 255
0.1439298197764737 0.2412034272743386 1.1529567157129823 255 255 255
0.1307290919996990 0.2440750056007018 1.1194052609450900 255 255 255
0.1259465882481872 0.2599497405366445 1.1586849269234172 255 255 255
0.1146245419956885 0.3168671042286654 1.2710542223800236 255 255 255
-0.0049676784347463 0.3945110245764444 1.2510350353842772 255 255 255
-0.2504429470141595 0.4723221989218727 1.5080583521477702 255 255 255
-0.2251053483447308 0.4849127180426969 1.3806344521025571 255 255 255
-0.2584081858059671 0.5494592467360548 1.3866225087524013 255 255 255
0.3411066469148872 0.4871815329707616 1.3331919300820316 255 255 255
-0.1369161736466713 0.5592606133530537 1.2717087079341025 255 255 255
0.3422326768010291 0.5088270350176844 1.3247263410112771 255 255 255
0.1641663285979763 0.5152431515594921 1.2164321361330632 255 255 255
-0.1692517368255537 -0.3717004787475556 1.1486074078211066 255 255 255
0.0615581214696468 -0.3011120775698769 1.0862811122311735 255 255 255
0.1940940792796689 -0.1244460018475268 1.0842758594558060 255 255 255
0.0295328593337266 -0.0918832478654537 1.0531869489482464 255 255 255
-0.0641502994676205 -0.0816607087369886 1.1139638936450675 255 255 255
0.2529178329547496 -0.0418428485892796 1.2137220946501446 255 255 255
0.1773757786796295 0.0215329185907034 1.1224445634460694 255 255 255
0.1742301501312395 0.1418367491828699 1.0999001888607856 255 255 255
0.1018939978655692 0.2534997388835749 1.1895684403294171 255 255 255
-0.2590998803398977 0.5141764544297860 1.4181651725666917 255 255 255
-0.0617859467994161 0.5220140288373883 1.3148540040060057 255 255 255
-0.4913663527089177 0.6620257054033399 1.4056692645161182 255 255 255
0.0981252278363554 -0.0796426440789145 1.0931140587766259 255 255 255
0.1681221414167434 -0.0607320320747629 1.1044588672543694 255 255 255
0.0194932607704588 -0.3367822872585801 1.1049404436429224 255 255 255
0.2307668627847459 -0.2404795080883967 1.1635925197492016 255 255 255
0.1483662708759515 -0.0328880121181586 1.1105017976437790 255 255 255
0.1355094269923209 0.1274359883835102 1.0680587431184285 255 255 255
0.1272153027055951 0.2493753737551403 1.1125281842363313 255 255 255
0.1442538146842228 0.2936558682657498 1.2678760907003876 255 255 255
0.1335010349544165 0.4063863420119621 1.3007793024672181 255 255 255
0.1387371018509361 -0.3772178225196740 1.0284115028003546 255 255 255
-0.0662616007534333 -0.4303468815126116 1.0543901469728376 255 255 255
0.0036467382135310 -0.4044374363105695 1.0727043759961667 255 255 255
0.2426238531159011 -0.3521976210759370 1.0959325715887924 255 255 255
0.0433799230993786 -0.3155418308654018 1.0756073845942193 255 255 255
0.1523096831399622 -0.2774382455337014 1.1068873657530272 255 255 255
0.1916747709496727 -0.2451698232842041 1.1281129547393958 255 255 255
0.1155888023569563 -0.2213550107217961 1.0638268883526736 255 255 255
0.2608318485936208 -0.2057713997277829 1.2075270949768084 255 255 255
0.1778758818083569 -0.1554366249634261 1.0768164167413075 255 255 255
-0.0334690562234197 -0.1041713925356279 1.0686168443347892 255 255 255
0.0877035936567917 -0.0830127637213451 1.0765917941251679 255 255 255
0.1604125292508428 -0.0537509957924961 1.1129763843642289 255 255 255
0.2078124771101845 -0.0454672510437691 1.1561498975418862 255 255 255
0.1980034284689611 -0.0414411488733889 1.1379856366102767 255 255 255
0.1652282472082858 -0.0100103127113334 1.0992384353525788 255 255 255
0.2156594988806886 0.0336582271010401 1.1467815331033808 255 255 255
0.2946097523125997 0.0342151546697458 1.3935849655894084 255 255 255
0.2589661492863314 0.0668092833146435 1.3679536071215974 255 255 255
0.0943428832213063 0.1072122592390246 1.0393044178038722 255 255 255
0.1371621595113281 0.2088554089113650 1.1000490094941631 255 255 255
-0.3186898390151045 0.4721490044347139 1.4544564463101100 255 255 255
0.2705348081135928 0.3448873981810979 1.2428190181214536 255 255 255
-0.3077584240312652 0.4962586867746150 1.3983876536705375 255 255 255
-0.6008173947594272 0.6055522578844671 1.5052927251492172 255 255 255
-0.2735371900832995 0.5349309846151635 1.3911007538850493 255 255 255
0.3868628043154600 0.4295483884647332 1.4593083108320073 255 255 255
0.4025753920033320 0.4196181727081465 1.4375088698133893 255 255 255
0.4129429571783286 0.4215827783610152 1.4429092012829547 255 255 255
-0.2526206995967217 0.5355674587646491 1.3757183846907985 255 255 255
0.4005510258397586 0.4334547434311319 1.4277115892356045 255 255 255
-0.2410615219978848 0.5630295658899865 1.3213811837753235 255 255 255
-0.2568550823351414 0.5613454925925191 1.2860960955832617 255 255 255
0.2984452076558096 0.4625406007271094 1.3409419466564918 255 255 255
-0.1034778535640602 0.5333610392619058 1.2399671015424607 255 255 255
-0.5319556381712490 0.6908582763689318 1.3843067035224095 255 255 255
-0.0934548357736114 0.5631503598811103 1.2357374548031985 255 255 255
-0.2150384467525517 0.6037295866154178 1.2799496139689837 255 255 255
-0.5073312359995797 0.7071881578407027 1.3546387298568157 255 255 255
-0.5520522240848456 0.7204814493923289 1.3886366866332167 255 255 255
-0.4519980848101546 0.6983509752885942 1.3878300725778239 255 255 255
0.4377840838090638 0.4920597828483694 1.3730930565756938 255 255 255
0.0026244211070791 0.5603374143778048 1.2428567956123675 255 255 255
0.3826085085644603 0.5100385761993524 1.3482146110792026 255 255 255
0.3626973438185493 0.5143463425399893 1.3417968585414970 255 255 255
0.4335901838124931 0.5045306686873227 1.3636637665980564 255 255 255
-0.5187532728725724 0.7479591639385027 1.4213162263175150 255 255 255
-0.1602744818154477 0.6185775824260799 1.2671284542267895 255 255 255
0.3844565075251354 0.5149624318125154 1.3393355024940488 255 255 255
0.0759162062747482 -0.5158008081324306 1.1674593587888975 255 255 255
-0.0560481864739814 -0.4511450582494289 1.0747977604760415 255 255 255
0.0283130990539470 -0.3193184142726094 1.0881250845708532 255 255 255
0.0515784922718723 -0.3057791811785581 1.0866145049490945 255 255 255
0.2463170585078840 -0.2818219279010490 1.1393545487947541 255 255 255
0.1208196742777975 -0.2683520884027195 1.0870615684849829 255 255 255
0.2421014104830341 -0.2680786254097199 1.2045252947039611 255 255 255
0.2645699430051273 -0.2194924151815776 1.2102837131056690 255 255 255
0.0393370583675248 -0.1597075325315657 1.0491568634605601 255 255 255
0.2241386208324969 -0.1662451595121431 1.1393067784950155 255 255 255
0.0337718007033800 -0.1295064281094234 1.0450952235454394 255 255 255
0.2629184795728779 -0.1582764285630330 1.2197555451230708 255 255 255
0.2300629463365683 -0.1187889764706742 1.1387388388971469 255 255 255
0.1493923345950671 -0.0314586972989157 1.1071153285817203 255 255 255
0.1797485642588284 -0.0183507361410394 1.1190739551238937 255 255 255
0.0838871130012245 0.0204787732388855 1.0141998943653279 255 255 255
0.1447864560081287 0.0465100775987130 1.0894034585995920 255 255 255
0.1998241507188308 0.0422535257510832 1.1222369925595372 255 255 255
0.0999610634792493 0.0878087503910021 1.0613362887971118 255 255 255
0.1008862220481467 0.2121275968716692 1.0807852032149123 255 255 255
0.2050726401920154 0.2297888144803996 1.2873842040319858 255 255 255
0.2136687766689034 0.2838880266873849 1.3483173195118578 255 255 255
0.4146801261913754 0.3378463153949681 1.4859954144647731 255 255 255
-0.2008077958706447 0.5057039129027064 1.3798268181123736 255 255 255
0.4063639525595741 0.4297688401615027 1.4933857368386896 255 255 255
0.3455338215128846 0.5099811282994594 1.3226128860347302 255 255 255
0.2638672679661688 -0.0475190729027968 1.2370329910030857 255 255 255
0.1626934448677148 0.0119267739723006 1.0996056860938010 255 255 255
0.2172875439086490 0.2710041837081379 1.3583722331800259 255 255 255
0.4013212074788627 0.4192335477476729 1.4401870948730100 255 255 255
-0.2749624056564339 0.5377405613666313 1.3953906712935220 255 255 255
-0.2206605408200077 0.5872341141734776 1.2778137167395549 255 255 255
0.0984427738765410 -0.5144975120957382 1.1080037051156602 255 255 255
0.3353077522857340 -0.3492056414057659 1.5553338381109258 255 255 255
0.1686458398489528 -0.1067745996120327 1.0722163537927392 255 255 255
0.2366057168626280 -0.0825221766302983 1.1511323545263432 255 255 255
0.0964236822087255 -0.0749256065921193 1.1014515135141441 255 255 255
0.1366451569474507 -0.0701820512690537 1.0984932126879496 255 255 255
0.0833858355424506 -0.0693970417289860 1.0858493945028445 255 255 255
0.3241452740076305 -0.0677625288660950 1.4361024998998579 255 255 255
0.2038614184210190 -0.0212843370289047 1.1388022517706049 255 255 255
0.2599217073437638 -0.0211677860770306 1.2175475841441701 255 255 255
0.1646265578472927 0.0140154899549111 1.0940383419736894 255 255 255
0.2490930348861521 0.0023232417826164 1.1955838832885564 255 255 255
0.3068465577960254 0.0305423789151235 1.3982780723733979 255 255 255
