ply
format ascii 1.0
element vertex 684
property double x
property double y
property double z
property uchar red
property uchar green
property uchar blue
end_header
0.2798995321151511 0.6063389137334571 1.2663940496449246 255 255 255
0.3207456201673459 0.6214701527106323 1.3004111571615602 255 255 255
0.3369031161237906 0.6193842905942086 1.2949370535707483 255 255 255
-0.3805847958985305 0.6443971149802656 1.3434594634346702 255 255 255
-0.3544939190724231 0.6371499779035577 1.3280404595043680 255 255 255
-0.0433252844038075 0.5889396635991498 1.2270188401991513 255 255 255
-0.3316923189729518 0.6376909180391157 1.3231374066107224 255 255 255
-0.2550124834285584 0.5939724888172961 1.2323999324462942 255 255 255
-0.0704224128925322 0.5864030049309181 1.2221386602537896 255 255 255
-0.3903508329445323 0.6472750944130631 1.3382647384082089 255 255 255
0.4115681937993390 0.6654141544386223 1.3853612840117657 255 255 255
-0.4885744536665568 0.6481419460897589 1.3431868289466784 255 255 255
0.2609160296487413 0.6101041698631292 1.2591989410914741 255 255 255
0.3395347507025110 0.6450239432815296 1.3293067097297373 255 255 255
-0.4543567196740016 0.6565780061157929 1.3464067025247310 255 255 255
-0.0514032742893023 0.5981278237841799 1.2249578269123846 255 255 255
-0.0298346479344233 0.5999497953769145 1.2311501631170776 255 255 255
0.0001713719586049 0.6034289788193908 1.2357649806916775 255 255 255
-0.0992823318301196 0.6000163002332679 1.2247138132426045 255 255 255
0.0434874814387870 0.6254620226743768 1.2794552590702555 255 255 255
0.3829192332510079 0.6430526589506895 1.3133571039870138 255 255 255
0.4173312903835331 0.6665174436750069 1.3624109599986918 255 255 255
0.4662120331119988 0.6754349422135245 1.3889608059492682 255 255 255
-0.2405787716170482 0.6055710351496122 1.2349647516086970 255 255 255
-0.1441523265565820 0.6149034713977283 1.2485475461856601 255 255 255
-0.4124035682092541 0.6650992817704227 1.3472234964634759 255 255 255
-0.0835198855909563 0.6085022278050590 1.2275175884675340 255 255 255
-0.4698794084676886 0.6545915448550710 1.3261112862871551 255 255 255
-0.4564812835250450 0.6701131034407612 1.3462038796144069 255 255 255
-0.3628564967765582 0.6561997788342681 1.3202653138437388 255 255 255
-0.2533796692260022 0.6168183988318724 1.2392253773410187 255 255 255
0.3942998708008930 0.6732819078727754 1.3552884031834913 255 255 255
-0.3515857932959371 0.6571359437582674 1.3122240776644185 255 255 255
-0.4212373148092422 0.6714490324380471 1.3386670624346688 255 255 255
-0.4020877593839973 0.6710946543839508 1.3395014939933310 255 255 255
-0.2957436677985990 0.6163720653374827 1.2335061624418526 255 255 255
-0.2589515589177600 0.6082189929203190 1.2081919813021229 255 255 255
0.2124991428622951 0.6314744122146690 1.2619560171051665 255 255 255
0.3493552166821067 0.6511564792972627 1.2955275747020740 255 255 255
0.1970311828684020 0.6323296979679136 1.2576850664564454 255 255 255
0.4400850015624777 0.6920703482746898 1.3812967806319874 255 255 255
-0.3318989831876872 0.6597776077712701 1.3079132199154944 255 255 255
0.2407342933953134 0.6312229806523489 1.2517633541637758 255 255 255
0.0696391089641797 0.6420145411804776 1.2670412323565450 255 255 255
0.1023541759008549 0.5986329136195738 1.1821087550342346 255 255 255
0.2103657107996512 0.6460458134433216 1.2718492216573924 255 255 255
0.2539594871017016 0.6330954260944948 1.2439704719803417 255 255 255
0.3275966406571277 0.6750913999746080 1.3313710573708752 255 255 255
-0.4805587128654910 0.6714480361941846 1.3152804997837617 255 255 255
-0.1552132402142056 0.6255148143157733 1.2257898326393344 255 255 255
0.1594219663678147 0.6220598523238055 1.2119113406141038 255 255 255
0.4053260475253467 0.6705456585990556 1.3160756133704710 255 255 255
-0.4168255120700514 0.6649394592307976 1.3038056709182479 255 255 255
-0.3707484073411987 0.6717708360505306 1.3100345919643857 255 255 255
-0.4350714495484038 0.6710516431972242 1.3157856474364362 255 255 255
-0.3863116501344225 0.6749714456359689 1.3219816107383697 255 255 255
-0.0550394174241688 0.6282131619279352 1.2223766433112786 255 255 255
0.0909659023028144 0.6107752898752773 1.1918541837918686 255 255 255
0.3530404770322107 0.6637769733888254 1.2892713665712596 255 255 255
-0.4627493863111346 0.6779919304895139 1.3149489420908254 255 255 255
-0.2383297687143730 0.6323775266765712 1.2283073810685381 255 255 255
0.2372187582946382 0.6569521991640335 1.2774837537177470 255 255 255
-0.3780230247291322 0.6858112895200933 1.3190900091567241 255 255 255
-0.1530577064972414 0.6415280507353787 1.2280881035665261 255 255 255
-0.1271571224503230 0.6440988648522502 1.2326370268333682 255 255 255
0.2182209317584198 0.6462581162007380 1.2397201258224846 255 255 255
0.4310760521773418 0.6965927912673805 1.3402031719933309 255 255 255
-0.4781973804075116 0.6736124548882727 1.2879699484836373 255 255 255
-0.4377333230255257 0.6928248236359283 1.3238143864999070 255 255 255
-0.2308729859271808 0.6327350999557655 1.2088114131471561 255 255 255
0.2487673696604176 0.6496673349880855 1.2398434027840344 255 255 255
0.2962483053227015 0.6781792939480787 1.2977527498566497 255 255 255
0.1516461850166858 0.6392284769816872 1.2164768710586287 255 255 255
0.2366487035987233 0.6494092429119269 1.2356801593291185 255 255 255
0.4446024363684695 0.7039215005170070 1.3438629068365060 255 255 255
-0.4764438397550630 0.6922638843891821 1.3132817932768983 255 255 255
0.2152264949907221 0.6632211978185594 1.2622476694405214 255 255 255
0.2355400002042933 0.6682289841745577 1.2712557222514593 255 255 255
0.0110965651875344 0.6615117978320332 1.2497802998922378 255 255 255
0.4629522726952801 0.7129746934040144 1.3551218730851990 255 255 255
0.4886696839131359 0.7215971345102375 1.3601395508317062 255 255 255
0.1493374742022923 -0.5152428469666231 1.2169917241894346 255 255 255
-0.0620980900896553 -0.3438909965246530 1.1339066518024556 255 255 255
-0.0418598480186410 -0.3310677964252039 1.1189635251373029 255 255 255
-0.1073184470128556 -0.3056604788879137 1.1434448363861827 255 255 255
-0.0742596990600812 -0.2850719504337604 1.0975719272954316 255 255 255
0.1136285096051361 -0.2786038603169226 1.0906391498757384 255 255 255
0.1487043380003089 -0.2746095003525177 1.1178501722200966 255 255 255
0.0975382953152602 -0.2320032669991346 1.0683561281929950 255 255 255
-0.1304222430763325 -0.2199526187284496 1.1410527370747694 255 255 255
0.0423994061729202 -0.1580735516211377 1.0446873838912678 255 255 255
-0.0999301612574835 -0.1332687886540897 1.1163118344732772 255 255 255
-0.0303097805780900 -0.1254872498652362 1.0617298693447199 255 255 255
0.1607681387345635 -0.1344669977793283 1.0950674601871002 255 255 255
-0.2722684641376688 -0.1644279634283379 1.5083118802620361 255 255 255
0.1407781627630914 -0.1061786274395370 1.0763737501315471 255 255 255
0.0156385369933445 -0.0953350881013847 1.0456940618312318 255 255 255
-0.0857986162622633 -0.1047177517342538 1.1123003760056278 255 255 255
0.0136732001205300 -0.0795480179631832 1.0443834320426586 255 255 255
0.1474678244458096 -0.0841639892235980 1.1055299821848399 255 255 255
0.1346873495837365 -0.0693092163046054 1.0998103323411006 255 255 255
-0.0441197724152590 -0.0429158025051045 1.0974709252398018 255 255 255
-0.0642508148261722 -0.0387768154972601 1.0926768047205653 255 255 255
-0.1105024307644642 -0.0472533980405858 1.1090982471066753 255 255 255
0.1104529191702160 -0.0188359631892165 1.0900964905387296 255 255 255
-0.0469368560413996 -0.0117101232463044 1.0893092661608546 255 255 255
-0.0942436979962027 -0.0031227443765006 1.1025330248236351 255 255 255
-0.0817325817835893 0.0029216402088220 1.0935420345825682 255 255 255
0.1165109557178001 0.0165566955607606 1.0772401165401053 255 255 255
0.0845564646108647 0.0233633613781130 1.0148703894363336 255 255 255
-0.0786072686144114 0.0364930357842110 1.0639964565950195 255 255 255
0.0332672146955895 0.0330575232407058 0.9643924420217338 255 255 255
0.0708723703175758 0.0406815444063238 0.9820744917087971 255 255 255
-0.0059720238587251 0.0395418822386264 0.9867076253806436 255 255 255
0.0452634722417209 0.0534683343523732 0.9898193924137971 255 255 255
0.2873579375300417 0.0773550635754045 1.3806960195994915 255 255 255
-0.0043739172731478 0.0614832278574829 0.9946516628455061 255 255 255
-0.0530427911256803 0.0806483093325116 1.0661189664041180 255 255 255
-0.0456523654316968 0.1182159667240311 1.0531136091793321 255 255 255
-0.0154739431144589 0.1171347077418176 1.0268643214549722 255 255 255
-0.0480439157601224 0.1342084160191562 1.0733971973183534 255 255 255
0.0263615270851009 0.1269537668284149 1.0083210338597601 255 255 255
-0.0614090052547396 0.1419224535920983 1.0740513255511639 255 255 255
-0.2019346831615894 0.2186030432361482 1.4792134949330820 255 255 255
0.0538666499917745 0.1628476760993807 1.0613828344571521 255 255 255
0.0090208126706242 0.1651800045030630 1.0519904316232880 255 255 255
-0.0211372753962911 0.1759901306376906 1.0551266723632677 255 255 255
0.0759482753190340 0.1820504945210045 1.0641147883193973 255 255 255
0.0499284867360097 0.1884929156860621 1.0501091369788598 255 255 255
0.0115865521773768 0.1914885713195939 1.0524495654384678 255 255 255
-0.2873187831250931 0.2924496951419492 1.5774362202113066 255 255 255
0.0401840751310016 0.2230669499322077 1.0483572848987834 255 255 255
-0.2690425251859995 0.3665496282803477 1.5250944627587915 255 255 255
-0.2868374903329549 0.4160234300237063 1.4798970651266923 255 255 255
-0.4876120861772976 0.4552501788394549 1.6044968616575148 255 255 255
0.0655176247564838 0.3936282618027007 1.3187971272891568 255 255 255
-0.5040129141550254 0.4776426114219691 1.5938572470055461 255 255 255
0.0859773036874260 0.4271168899103292 1.2969123198917722 255 255 255
-0.4718045315027423 0.5053622680983195 1.4858744011856522 255 255 255
0.1861085215167863 0.4787176989122561 1.3877250779100943 255 255 255
-0.2339842416018267 0.4785054799120014 1.3932143182897827 255 255 255
0.2039544754595243 0.4881979181419580 1.3922955127528760 255 255 255
0.0273992134934995 0.4939695198221880 1.3210389879222346 255 255 255
-0.0404358427466537 0.4983964912902502 1.3144372128336819 255 255 255
0.2021705561602601 0.5068623208916503 1.3513123924367973 255 255 255
-0.4865054547106571 0.5498067023048736 1.4413809882540527 255 255 255
0.3734025798009441 0.5393137606963492 1.3787907673576700 255 255 255
0.1914926498949477 0.5031099529073427 1.2578218428293515 255 255 255
-0.4714615081653998 0.5764759974647897 1.4145394296527163 255 255 255
0.1595133022327318 0.5550832858207204 1.3391511301475771 255 255 255
0.3752324302193664 0.5676655384322747 1.3532522595054224 255 255 255
-0.0023788114151303 0.5331289780895294 1.2720084599320369 255 255 255
-0.0299713393903757 0.5347440852109923 1.2611405077978892 255 255 255
-0.3716476092881025 0.5927587333663333 1.3713201486911015 255 255 255
0.0724181089112481 0.5692842618146517 1.3157077198737512 255 255 255
0.1604645765660005 0.5636480076592866 1.3190475893167655 255 255 255
-0.1382696671572094 0.5498380384701201 1.2560200962283927 255 255 255
-0.3857646857305754 0.5967089558169729 1.3540754974396874 255 255 255
-0.4765929149450006 0.6151748030323594 1.3828640605636657 255 255 255
-0.4209160779320731 0.6150106504146574 1.3708700972610697 255 255 255
-0.0557337963099720 0.5796712434581280 1.2358592524208503 255 255 255
-0.4662734092707739 0.6462213642685163 1.3744848173290576 255 255 255
0.1497976882137647 0.5904458515234051 1.2435010470663463 255 255 255
-0.1223473638839447 0.5873715965545845 1.2329153764837943 255 255 255
0.0969144312556864 0.6173677610188639 1.2785960549053779 255 255 255
-0.1058596793386330 0.5897742701678585 1.2292228229762363 255 255 255
-0.4124381352744159 0.6729153678984032 1.3946639973835113 255 255 255
-0.4499578564417298 0.6575179128533470 1.3517851076805096 255 255 255
-0.0018104906127526 0.6053252875621215 1.2399823287638161 255 255 255
0.0302208609214745 0.6001051794867271 1.2275472928001865 255 255 255
0.2928133548223502 0.6299372102403615 1.2870818666214427 255 255 255
-0.1533895218036748 0.6001107062492234 1.2200415218606711 255 255 255
-0.0507040796596962 0.6161023966644879 1.2310167273622377 255 255 255
-0.1008260504186662 0.6164217417408245 1.2256611542924680 255 255 255
-0.2089358511935372 0.6184056913362352 1.2236270850433368 255 255 255
-0.0391275309012460 0.6236208863189946 1.2217070190344392 255 255 255
0.3991026956891799 0.6898687488759222 1.3603812570602889 255 255 255
0.4469357877908839 0.6606906574357622 1.2853174528598186 255 255 255
0.2856885804572278 0.6628548857252666 1.2899438410653667 255 255 255
-0.1105276382914555 0.6366923225434926 1.2278973169861624 255 255 255
-0.0042196596676756 0.6528272169183376 1.2578291102451629 255 255 255
0.0603369200343580 -0.4941132084818607 1.1216037665967404 255 255 255
0.0037576580669161 -0.3301932013692790 1.0974478569853545 255 255 255
-0.0437652788806317 -0.2687109860506624 1.1063904971680090 255 255 255
0.0718095818683512 -0.1073678362093159 1.0482131159906933 255 255 255
-0.0272186067969270 -0.0521155970979981 1.0913602038421679 255 255 255
-0.0893143500457776 0.0864672290561150 1.0773193259779941 255 255 255
-0.0128212113142935 0.0930931160931698 1.0279286305872453 255 255 255
-0.2974567279226271 0.3118042978715044 1.5629133513934570 255 255 255
-0.3188552462075146 0.3324925056956600 1.5179581100964008 255 255 255
-0.0210757354327581 0.2471518860142673 1.0578019194708848 255 255 255
-0.1075619841522731 0.3896313151170508 1.3386067138644004 255 255 255
-0.4372278570738751 0.4745222348548042 1.4810636366231074 255 255 255
-0.5101816527272957 0.5055238536668857 1.4989277012535536 255 255 255
-0.4351772739234877 0.5512463013877630 1.5030525831656476 255 255 255
0.3823537959986230 0.5284602710247397 1.3556714039835112 255 255 255
-0.4106268301840719 0.5593732464778951 1.4469999169822545 255 255 255
0.4379233633169982 0.5610600230005316 1.4435860015917963 255 255 255
0.0919497009526312 0.5403615467930131 1.3324295896070759 255 255 255
-0.0936674527691535 0.5428155247219547 1.2328108182368664 255 255 255
0.1648134788228691 0.5630053299784987 1.2900335984650175 255 255 255
0.3409203267294140 0.5868598467766029 1.3316683503867228 255 255 255
0.3614761530631433 0.5869116183349440 1.3146249232135616 255 255 255
-0.3684921220676117 0.6100650378618691 1.3454936380915090 255 255 255
-0.1428340677413371 0.5721501421981278 1.2601498530671540 255 255 255
0.1109163928154296 0.5870816781379846 1.3032714768293971 255 255 255
0.3247047745659446 0.6137934366210469 1.3382509184046871 255 255 255
-0.0287608031979464 0.5743131337264386 1.2373244636951006 255 255 255
-0.1941361397746395 0.5923566961704635 1.2760928961108449 255 255 255
-0.2357629000864029 0.5894549402519631 1.2557050096405289 255 255 255
-0.2004303905704125 0.6177503398021932 1.2988892735037236 255 255 255
0.0200443583814285 0.6026286284671724 1.2588406182241012 255 255 255
0.1158462952693022 0.6108625162149842 1.2590724845852457 255 255 255
-0.0784476047234804 0.5902936956378839 1.2133611352568896 255 255 255
-0.0499107318340892 0.5984454580476896 1.2272390724895068 255 255 255
0.3341865821210733 0.6331785745402069 1.2954645660631994 255 255 255
-0.3323119809974663 0.6499923750109363 1.3207086026870680 255 255 255
-0.1318269035491357 0.6108786877906154 1.2256616585114344 255 255 255
-0.4049417038221716 0.6805458563270275 1.3655055968539311 255 255 255
-0.3594786651463669 0.6625577095133386 1.3270512069120910 255 255 255
-0.3302640891126127 0.6569140971651586 1.3036766462470406 255 255 255
0.4151004901725124 0.6839423672582376 1.3564028572005158 255 255 255
0.1158860386728191 -0.4810556655841678 1.1335643174426924 255 255 255
-0.0594925698740815 -0.6087493946567052 1.5865196053079311 255 255 255
0.0882316163558007 -0.4623280873043832 1.1947031275864195 255 255 255
-0.0753125088788168 -0.3661944539696660 1.1558791573988023 255 255 255
-0.0632078720371769 -0.3551118202878193 1.1391710671899828 255 255 255
0.0615390624772758 -0.3394978221152772 1.1148299367572583 255 255 255
0.0966666868583048 -0.3229468222902740 1.1052103637892148 255 255 255
0.0303233079199531 -0.3108432914520738 1.0817779502165021 255 255 255
0.1213607815564458 -0.3098530418888856 1.1249518873783018 255 255 255
0.1969697467872754 -0.3152667902506889 1.1696081940801328 255 255 255
-0.1128291002550500 -0.3123785057731026 1.1789527711496901 255 255 255
0.0727116517240322 -0.2823888628536192 1.0949384043872536 255 255 255
0.2352035358150357 -0.2932290269300384 1.1952886493712687 255 255 255
0.2282980114096847 -0.2599998972305608 1.2043368297357229 255 255 255
0.0319713000041014 -0.2240265669985820 1.0720291387991987 255 255 255
-0.0331036995644775 -0.1739265321831211 1.0414319174423450 255 255 255
0.0415310202249060 -0.1586819849070586 1.0379390172738241 255 255 255
-0.0003183358761794 -0.1524694281678899 1.0358635569335493 255 255 255
-0.0539089959020922 -0.1481560542550720 1.0428436394094447 255 255 255
0.0651173049433950 -0.1466360172777663 1.0373347566199840 255 255 255
0.1281392994530271 -0.1461611970131690 1.0556130119043725 255 255 255
-0.0349284272176753 -0.1256537606982625 1.0498701302139115 255 255 255
0.0869057525638068 -0.1180065592453543 1.0439430534064387 255 255 255
-0.0742538153614832 -0.1099573207904931 1.0610658958283419 255 255 255
0.1443812171899305 -0.1041018569930894 1.0694602591006992 255 255 255
0.0493868422330020 -0.0858380040910643 1.0472790453851168 255 255 255
0.0764950648474558 -0.0854017646051015 1.0812231263571457 255 255 255
0.1054227431333648 -0.0689005346513257 1.0714059100436861 255 255 255
-0.0682559565179856 -0.0719957128473937 1.0884335674290349 255 255 255
-0.1800404659081151 -0.0475281854109194 1.2075538152134513 255 255 255
-0.0430943081605112 -0.0171759392445315 1.0626479474343820 255 255 255
-0.0418772697597045 0.0178992831712873 1.0601706917801099 255 255 255
-0.0770054754477292 0.0363704779697613 1.0663562263066888 255 255 255
0.3290691484023850 0.0571584600138123 1.4306573730693730 255 255 255
0.0319578739019896 0.0355206973700035 0.9692800480261049 255 255 255
-0.0502387305980909 0.0797953781452919 1.0607617841866321 255 255 255
0.0045949692572350 0.0840369774867459 1.0299987361234788 255 255 255
-0.0758546293764323 0.1063717062092739 1.0607776535663458 255 255 255
-0.0436605844083388 0.1172497716692443 1.0550538451028129 255 255 255
0.0074862502015246 0.1388665093104444 1.0231154503326703 255 255 255
0.0391582908807365 0.1434228076034057 1.0174693674911572 255 255 255
0.0539539932817268 0.1633460264789631 1.0622357949737469 255 255 255
0.0509174769354085 0.1888061698991470 1.0498074197701035 255 255 255
0.0145838193165231 0.1909802606093460 1.0564493818857976 255 255 255
0.0349230554297717 0.2231979725549935 1.0650538554464715 255 255 255
-0.2522088642875275 0.3205189344063564 1.4912160238750263 255 255 255
-0.1435282486900222 0.3044249074728161 1.3648284299245561 255 255 255
-0.0070496397229988 0.2509057725704696 1.1676354989902600 255 255 255
-0.2263817519979764 0.3470994959801032 1.5210982627205378 255 255 255
-0.3520102264398562 0.3649959965080496 1.4665347858995552 255 255 255
-0.0269784204161983 0.2715417896837237 1.0877675370196713 255 255 255
-0.2721995781452114 0.4045669868167932 1.5228395108448514 255 255 255
-0.2197225898656351 0.4162759649789538 1.4629175119486253 255 255 255
-0.2625832646185470 0.4282403749029630 1.4468610398083712 255 255 255
0.4162709734190171 0.4115627856739466 1.4036357911291479 255 255 255
0.1610428889060643 0.4007020810221422 1.3386801998064874 255 255 255
0.2176973577963488 0.4615675713631523 1.4429909500252336 255 255 255
0.0857404207427801 0.4247125585707963 1.3011261305276955 255 255 255
-0.4970190463312009 0.4987751364962265 1.5075135978517951 255 255 255
-0.4756432371110229 0.5101887930515955 1.5032440222193606 255 255 255
0.1887201056856044 0.4860991606491659 1.4110162662821109 255 255 255
0.4968425012582308 0.5165302914752778 1.5032705837204330 255 255 255
-0.4598428086100766 0.5322325134984776 1.4761848960185744 255 255 255
-0.2652620472423473 0.5025364527981362 1.4027066182363925 255 255 255
-0.1946534472046746 0.4884334623661086 1.3698716171314840 255 255 255
0.0604969991423693 0.4888350263771027 1.3344001950861299 255 255 255
0.2004437488493628 0.4817864796677149 1.3000818170570800 255 255 255
-0.0969827854850879 0.4923606303723859 1.3358277337750513 255 255 255
0.0045827129705262 0.4912283795822632 1.3210129407853428 255 255 255
0.0270951928611505 0.5045164766697345 1.3559602994507065 255 255 255
0.2162934538891222 0.4713682005612456 1.2669094457201093 255 255 255
0.1596638919785604 0.5007296456573681 1.3499962481236536 255 255 255
0.2190512032279051 0.5011950523847920 1.2439740343112919 255 255 255
-0.0676977170542624 0.5281614790644540 1.3168859395843882 255 255 255
0.0449306468788494 0.5282964033197034 1.2867167898951544 255 255 255
-0.2220863242700495 0.5465199912361312 1.3252305638261701 255 255 255
0.0724871010426998 0.5285040385084114 1.2728622406705095 255 255 255
-0.1681141833453498 0.5440849252218550 1.2969027312811312 255 255 255
-0.1013698775231122 0.5365866490716316 1.2943785106637042 255 255 255
-0.3874895168453932 0.5810802104706677 1.3745205273349497 255 255 255
0.0039971491271955 0.5091078439856911 1.2082222808383150 255 255 255
-0.1266862350302471 0.5329852536000121 1.2595267325983852 255 255 255
-0.0333410324144883 0.5264134206422639 1.2411161158843595 255 255 255
0.1550239392733237 0.5583352044751058 1.3112633740586273 255 255 255
0.0211629307279228 0.5521084911573676 1.2780887322686578 255 255 255
-0.4661174738167710 0.6109474107377705 1.4065265307369650 255 255 255
-0.2542940961843715 0.5805065282017702 1.3323167920714536 255 255 255
-0.0610195409693145 0.5479173699302684 1.2537619813711058 255 255 255
-0.0083355303678256 0.5515979755963288 1.2570228633501253 255 255 255
-0.2692179874189384 0.5644004503658389 1.2933699398404597 255 255 255
-0.4287776388951756 0.6233782658920305 1.3896596409731854 255 255 255
0.0751054889299752 0.5755045639912503 1.2815418739946871 255 255 255
0.1418584301394371 0.5858509171689752 1.2986215352706261 255 255 255
-0.1639513373890409 0.5861471560120380 1.2841874432494755 255 255 255
0.0036559368834144 0.5750047892978984 1.2669346383107678 255 255 255
-0.0908218511438433 0.5722354991460376 1.2399909192891170 255 255 255
-0.2549364370254984 0.5850035761609267 1.2634116297304081 255 255 255
-0.1984702370686721 0.5930962776662811 1.2661526806452412 255 255 255
-0.0488912166423978 0.5741415232846100 1.2336557250135942 255 255 255
-0.4124492160520231 0.6399484148180068 1.3687876999904072 255 255 255
-0.4650621114985776 0.6415250426760094 1.3623456401038252 255 255 255
-0.0247556266818598 0.5243438778247320 1.1086767266963073 255 255 255
-0.2643330542668564 0.6016203077172180 1.2500410583805248 255 255 255
0.0373586110094972 0.6385731054482058 1.2927518749188700 255 255 255
0.1590210391035323 -0.4799477641650676 1.1926345080587148 255 255 255
-0.0742603713256214 -0.3584601987889122 1.1355425435875153 255 255 255
-0.1921143633078503 -0.3767074776267713 1.2023386129708873 255 255 255
-0.1081873336083496 -0.3002330323957733 1.1566105683664352 255 255 255
-0.0017436107958505 -0.1544919450021740 1.0342163178205710 255 255 255
0.0625448513163897 -0.1487813233225795 1.0301399930382424 255 255 255
-0.0416676525975812 -0.1250774134828063 1.0481034215832796 255 255 255
0.1087619559310167 -0.1253804557946017 1.0516833959745122 255 255 255
0.0829719869251937 -0.0833131612823939 1.0689175052096711 255 255 255
-0.0452512918726619 -0.0082442703393052 1.0759566077799516 255 255 255
0.1218155350335929 -0.0059556653253155 1.0730224881157466 255 255 255
-0.0001305324108448 0.0913960436124887 1.0143041993444584 255 255 255
-0.0128396024440732 0.1157767020516378 1.1164086164348046 255 255 255
0.0269737568786851 0.1258256974056086 1.0189227709332567 255 255 255
0.0369173924652214 0.2376920348488581 1.1309295629972593 255 255 255
-0.2309030168951799 0.3631897931137241 1.5449750868304886 255 255 255
-0.2718137792991702 0.4020413103283088 1.5189190589336041 255 255 255
-0.2656158084565322 0.4376722325727387 1.4647050846777829 255 255 255
0.1751986256965273 0.4752846764616657 1.3791730879732715 255 255 255
-0.0258935500528200 0.5108861648197915 1.3336193488857546 255 255 255
-0.2634327333581321 0.5146177552305277 1.3052429813998625 255 255 255
0.0813999866184325 0.5455526494652220 1.3576646913836812 255 255 255
0.2586068237060666 0.5320655959584282 1.2951547453220162 255 255 255
0.1699097269014649 0.5360690179547121 1.2063643744666916 255 255 255
0.1457691235046015 0.5821192733168959 1.3084310092031597 255 255 255
-0.2166889374368348 0.5374403563085877 1.3066047105012242 255 255 255
-0.0747081105295269 -0.3584048168125967 1.1278500879382956 255 255 255
0.0980594127102925 -0.3217288503592923 1.1033298481180276 255 255 255
0.0590238057186758 -0.2971214156416553 1.0959470295776166 255 255 255
-0.1034925394244875 -0.3047879885794143 1.1698413070631235 255 255 255
0.1398274785578385 -0.2750067396000017 1.1092976714814462 255 255 255
-0.0022971688813173 -0.1557272728085151 1.0230919210045133 255 255 255
0.0592790268271234 -0.1529277322149699 1.0363949882587744 255 255 255
-0.0378481686471915 -0.1258455267243827 1.0511819587449256 255 255 255
0.0242275032009129 -0.0904475832234939 1.0667580401137813 255 255 255
0.0874273451619272 -0.0814322048505803 1.0885345165425255 255 255 255
-0.0494729291047142 -0.0030104235242281 1.0721756285252304 255 255 255
-0.1655715773200515 0.3086343854718132 1.4558385731677244 255 255 255
-0.2315447497794542 0.3737259225046671 1.5635571197598683 255 255 255
-0.0463581368280497 0.2876737689381239 1.1696119719592635 255 255 255
0.2648445040957185 0.3741253367385983 1.4660181321713883 255 255 255
-0.2707614646638895 0.3934920546069610 1.4833788746340197 255 255 255
-0.0270698750857380 0.3812596793215399 1.2856296624749131 255 255 255
-0.2665503704841988 0.4447868188235883 1.4655705130042440 255 255 255
0.2329346859485161 0.4900559569694431 1.3145042816867964 255 255 255
-0.0464244078245470 -0.3135929860019643 1.1468252771336969 255 255 255
0.0651723799550315 -0.2909056034098571 1.1046032858615396 255 255 255
0.1329539799551313 -0.2869681476336775 1.1401699365092262 255 255 255
-0.1522270010920283 -0.2725582926108089 1.2468560709118726 255 255 255
-0.0436930225596313 -0.0784080522968996 1.1039994810095126 255 255 255
-0.0436852107547830 0.3828347954573754 1.2904139880958692 255 255 255
-0.0752923754971513 -0.5270008360651243 1.2188464399530756 255 255 255
0.0950911224390091 -0.4855671648384436 1.1382172750908193 255 255 255
-0.1265152421439165 -0.5242811489807917 1.2938081852529708 255 255 255
0.0051409503669019 -0.3830535114682890 1.0355296825398510 255 255 255
-0.0016746028798286 -0.3612876034243346 1.0276741839387291 255 255 255
-0.0884958481288779 -0.3598732832198959 1.0726203856085603 255 255 255
-0.1395296274039703 -0.3358765049988411 1.0708818803665556 255 255 255
0.2567370759801615 -0.3492418999385093 1.1379752297557293 255 255 255
0.2699888893922118 -0.3320795067061851 1.1619063553260793 255 255 255
-0.0731003064982321 -0.3038130602913695 1.1626330213459528 255 255 255
0.2059465339820183 -0.3105311267150270 1.1332340352709833 255 255 255
-0.0327863828020434 -0.2893774745381486 1.1023764040662847 255 255 255
-0.0181088749720015 -0.2768110726920259 1.0735293196230826 255 255 255
-0.0007448470645582 -0.2724228207152962 1.0596814880201213 255 255 255
0.0086699097015328 -0.2657877371881259 1.0557745155198084 255 255 255
0.0822734755132288 -0.2609527589145115 1.0538930252527257 255 255 255
-0.1983970490949115 -0.2937931992249484 1.2636001417693410 255 255 255
-0.1744722905702267 -0.2780490411829702 1.1877357420560140 255 255 255
-0.0781805020110619 -0.2489651170818613 1.0842041583440838 255 255 255
-0.0615510862575778 -0.2460837423839001 1.0702989041874238 255 255 255
-0.1528297236618592 -0.2470947549544023 1.1048723835955505 255 255 255
0.0134785340371003 -0.2358379121641611 1.0523891769031672 255 255 255
-0.1001177576075485 -0.2392505483798336 1.0942070520176037 255 255 255
-0.1685643800649899 -0.2537203180518233 1.1804122153931260 255 255 255
-0.1913316375097217 -0.2471275535333229 1.2081317124231186 255 255 255
-0.1000744682267745 -0.2201766370746568 1.0819951649423940 255 255 255
-0.1653480524067055 -0.2118442001475543 1.1655851004991626 255 255 255
-0.0452139588975993 -0.1924096225278907 1.0449301597226757 255 255 255
-0.0210441111737215 -0.1904464069674552 1.0544647894443213 255 255 255
0.0346883434385148 -0.1859570391509086 1.0413785044276982 255 255 255
-0.1529079475922491 -0.1989764353474706 1.1564022919386050 255 255 255
-0.1971471988762872 -0.2011795041952853 1.2286698049669755 255 255 255
0.0508442562533596 -0.1749940923736309 1.0440124151880448 255 255 255
-0.1246888985325563 -0.1556840289130008 1.0774027132820221 255 255 255
0.0462909783589295 -0.1557277824471173 1.0402366489388097 255 255 255
-0.0525158231015052 -0.1449591267065462 1.0326049863596940 255 255 255
-0.2057353326731751 -0.1715679250166522 1.2572360437323031 255 255 255
-0.1233239385492238 -0.1413430618068622 1.0754014115526218 255 255 255
-0.1348296347824881 -0.1410888984204963 1.0839599987278803 255 255 255
-0.0701680512229696 -0.1346907056666092 1.0454315337869089 255 255 255
-0.1633345309767762 -0.1394879705687130 1.1557581025084800 255 255 255
-0.0434556692406008 -0.1280324542415817 1.0687907353100905 255 255 255
0.0243177381684225 -0.1214220788810043 1.0435094375612481 255 255 255
-0.1502252649318997 -0.1082297605003249 1.1166715042070476 255 255 255
-0.1316167681194336 -0.1061208618384799 1.0821742017227338 255 255 255
-0.0873129782699056 -0.1016501745163806 1.0866121402873907 255 255 255
-0.2433042550360976 -0.1239636862129338 1.4021778456909906 255 255 255
0.0596681086811638 -0.0982340136717313 1.0525538299180843 255 255 255
-0.1358242589362679 -0.0948810436915528 1.1065518687266784 255 255 255
0.0052083864044612 -0.0940210522708927 1.0674034739016585 255 255 255
-0.0346735014242208 -0.0938868004386653 1.0926359948206976 255 255 255
-0.3032039454577187 -0.1220916346147288 1.4751676527649225 255 255 255
-0.0268737693621860 -0.0897090979731142 1.0848122421844706 255 255 255
-0.1002015960879475 -0.0876735306046796 1.0890415971174574 255 255 255
0.0439588086460560 -0.0836391849494781 1.0428089336014632 255 255 255
-0.1395446462241095 -0.0741804929623198 1.1239452351615933 255 255 255
-0.1388742385470771 -0.0577145796024961 1.1867087877678619 255 255 255
0.1313095891944368 -0.0520318310241439 1.1049555681779144 255 255 255
-0.1249152340514484 -0.0489701431724669 1.1218478009142907 255 255 255
-0.3130978980949998 -0.0558550961216885 1.4948095838867768 255 255 255
-0.1903287951811273 -0.0488715217588431 1.2970684430875008 255 255 255
-0.2808795753496573 -0.0454256846023764 1.4848432734213182 255 255 255
-0.0953095570579116 -0.0368433395243823 1.0755089483622777 255 255 255
0.1232153436869650 -0.0360061009596095 1.0975549720173170 255 255 255
-0.2444627163391057 -0.0349898493803310 1.3733393850423425 255 255 255
-0.0080673547819422 -0.0102025051120615 1.0380142958307821 255 255 255
-0.2476628213532177 -0.0098392581086524 1.5207198739418479 255 255 255
-0.2019229923140533 -0.0046997421610734 1.2508328247517304 255 255 255
-0.2611312820676508 0.0340051223282723 1.4286181596295175 255 255 255
-0.1217533744410576 0.0339175843835509 1.1136788122936327 255 255 255
-0.0006745027588945 0.0290816968732963 0.9783757259080651 255 255 255
0.0097174901742641 0.0367952201433238 0.9555330147385405 255 255 255
-0.1351872323941513 0.0506040833253433 1.1133281293834565 255 255 255
-0.1251327917901721 0.0569390013197134 1.1084585236863336 255 255 255
-0.0411474842106781 0.0730541444652182 1.0595936793854730 255 255 255
-0.0168048372799144 0.0800073876314780 1.0342092525895961 255 255 255
-0.0143922107982022 0.0917425160333891 1.0220743184050045 255 255 255
-0.0283206344394923 0.0974146657875536 1.0390564671078912 255 255 255
-0.0400605784764913 0.1030052820327582 1.0415477325991718 255 255 255
-0.1170642847328428 0.1162564372391051 1.1140457771706576 255 255 255
-0.0865252869166096 0.1136894676309769 1.0708501578645215 255 255 255
-0.0995515390676808 0.1321569353974206 1.0819793680626304 255 255 255
-0.1158017990962011 0.1433815928365078 1.1054755029741385 255 255 255
-0.1921703832817933 0.2116649180716875 1.5500561527740830 255 255 255
-0.0909782320021530 0.1465981689335307 1.0882284872169283 255 255 255
0.0007178583241646 0.1528784621368003 1.0278494350725289 255 255 255
-0.1338319668326794 0.2256041599081025 1.3146350534692022 255 255 255
0.0370609478787350 0.1875161867128838 1.0552884999794490 255 255 255
-0.0758130053714545 0.2048308104581173 1.0943575311432960 255 255 255
-0.0861781805241043 0.2100354844723230 1.1058376016626181 255 255 255
-0.0385097101407866 0.2091756670311021 1.0689348937554253 255 255 255
-0.0105658711521565 0.1999638344288126 1.0528281022746919 255 255 255
0.0238085237247182 0.2175357171106476 1.0428869844200395 255 255 255
-0.0435234770460458 0.2286639077490676 1.0899385839285409 255 255 255
-0.0293183557063518 0.2231231812037259 1.0593315828719267 255 255 255
-0.1295240745329249 0.2713870654635133 1.2888390574125959 255 255 255
-0.0626574796165642 0.2590383328356788 1.1376812193642376 255 255 255
-0.0487300229666238 0.2502209391048931 1.0791941706276140 255 255 255
-0.0429587582387442 0.2485726959379509 1.0678903885292637 255 255 255
-0.1147355598112519 0.3068180328881218 1.3259516526201640 255 255 255
0.4921283553382866 0.4315538508717656 1.6111667911761198 255 255 255
0.4299599359946073 0.3752730768745270 1.3776482705724618 255 255 255
-0.4073725157783211 0.4259858552104965 1.6272570234718344 255 255 255
-0.0150662650876104 0.3533712817599112 1.2519291337913852 255 255 255
-0.4335400804108653 0.4356624708642983 1.6034382119132362 255 255 255
-0.0351632575504006 0.3593042602218667 1.2450709981159187 255 255 255
-0.0623989452556583 0.3733257102001123 1.2699092471917950 255 255 255
0.2956600186627499 0.4169913766246218 1.3293795562840980 255 255 255
0.7244953977579632 0.5463834879536705 1.6553740059122402 255 255 255
0.3082791907066460 0.4589881315069767 1.3345469969901893 255 255 255
-0.3724924689359090 0.4688972926096718 1.4690968013656689 255 255 255
-0.2275607828452206 0.4717694782324244 1.4239967183444657 255 255 255
0.5821910683600787 0.5579707893920655 1.5463213077091311 255 255 255
0.2492962803890428 0.4608604136033353 1.2916614814851628 255 255 255
-0.1745161567991182 0.4789078988189449 1.4168809423248061 255 255 255
0.4576354023971438 0.5168291557859125 1.3972591562279866 255 255 255
-0.4713861193108725 0.4876923542802118 1.5073521129600058 255 255 255
-0.4437154300351224 0.4928473656293954 1.4873384229240694 255 255 255
0.5415593720626986 0.5761524784145649 1.5429895676775729 255 255 255
-0.4556522457298310 0.5047264228879417 1.4930603650469518 255 255 255
-0.3913841801346193 0.4892762591076625 1.4352758281440463 255 255 255
-0.4290655470273728 0.5078229423927035 1.4887873020484084 255 255 255
-0.4422778338758832 0.5078154511820139 1.4788513361983004 255 255 255
-0.3825344050413281 0.4942579724875755 1.4278605810676261 255 255 255
0.3108269307737741 0.5184497956261677 1.3372698662472180 255 255 255
-0.4658498553424666 0.5036445910848054 1.4410007101992575 255 255 255
0.2230171778592193 0.5111583707303848 1.3577627646178652 255 255 255
0.5949658007870213 0.5927828771736727 1.4840057768183719 255 255 255
0.4421462377429019 0.5629585310375956 1.4198727633317072 255 255 255
-0.3997949149513698 0.5100844346646894 1.4234918490725921 255 255 255
0.1981851339384440 0.5049315373851494 1.3023558275613494 255 255 255
0.3067666721978094 0.5294528098592952 1.3342885826731392 255 255 255
0.4033134079411800 0.5502480722682417 1.3631444476114716 255 255 255
0.2212003349591669 0.5468692599629470 1.3773167320493054 255 255 255
-0.4059617442214775 0.5219507930173455 1.4349777527076999 255 255 255
-0.3870969497917049 0.5181140441959763 1.4122590372593409 255 255 255
0.1585332772467318 0.5386616061736352 1.3636275930123560 255 255 255
0.5995170514205150 0.6187318110496371 1.4963066372152898 255 255 255
0.0123693580064849 0.5080202254386865 1.2985336242679903 255 255 255
-0.3680720529881236 0.5202907121320067 1.3983430462718203 255 255 255
0.0507234807590418 0.5104796080053845 1.2954327879032483 255 255 255
0.4108480860554601 0.5972901985082194 1.4470017282889533 255 255 255
0.6259635695175527 0.6290606366878865 1.4922265700777324 255 255 255
0.1716826556492460 0.5519787170321161 1.3604022728750420 255 255 255
0.4072354484985306 0.5853678115799399 1.3922567585866445 255 255 255
-0.3983770620365112 0.5329819696668388 1.3983665392140430 255 255 255
0.6102520846811156 0.6460335040629154 1.4955102160175773 255 255 255
0.5124060861282648 0.6243298142198185 1.4436153311770432 255 255 255
0.0455043919331944 0.5285264953486066 1.2888126267121141 255 255 255
-0.4051548305318782 0.5406617306919967 1.3906340130334591 255 255 255
-0.4449595107681306 0.5657833187693360 1.4572684553189865 255 255 255
0.2172788048526324 0.5564078441870490 1.2858386664959707 255 255 255
0.3002917772534635 0.5586005642178974 1.2789849956261428 255 255 255
0.2430232029773827 0.5409435789320526 1.2605172817438473 255 255 255
-0.4772883192800079 0.5566417373126004 1.4095327980131920 255 255 255
-0.4363588230154731 0.5638114590569226 1.4140145209255373 255 255 255
0.0079072509053053 0.5374164086624390 1.2781619104181987 255 255 255
-0.4466583285148926 0.5884753310169922 1.4586671739359280 255 255 255
0.3963011759808649 0.5902169866942854 1.3023148573680920 255 255 255
-0.4586303781996634 0.5658801128050625 1.4000642008841251 255 255 255
0.5985938654991827 0.6844088955446297 1.4711046978943996 255 255 255
-0.3758901444295004 0.5704688252795059 1.3651661274483804 255 255 255
-0.3525143230666702 0.5725349124054280 1.3688495760522783 255 255 255
-0.3435138805339881 0.5763277354508821 1.3667231417241659 255 255 255
0.5131571148985787 0.6695881915319289 1.4270127910229875 255 255 255
-0.0493936597587926 0.5376096504774485 1.2049385763014144 255 255 255
-0.4735309034305092 0.5775752069085440 1.3661569457727343 255 255 255
0.6033477170742999 0.7034198530706335 1.4586516381820687 255 255 255
0.5233762558284246 0.6868526513380030 1.4340108988894600 255 255 255
-0.4022362924449295 0.5816397714142353 1.3548186373759308 255 255 255
0.4363255131011008 0.6566975420077477 1.3697487902270895 255 255 255
-0.3565152345119893 0.5939862091773891 1.3593835740188787 255 255 255
0.4946843298841581 0.6830683659462523 1.3997024974335994 255 255 255
-0.2066252571143646 0.5371687457070149 1.1878875539847247 255 255 255
0.0722948243834224 0.6058949735739684 1.2974674806018145 255 255 255
0.1208191096297542 0.6141625332980398 1.3100425250974019 255 255 255
-0.3210153270967228 0.5865648658238367 1.3198568177452814 255 255 255
0.5942601437887065 0.7292366593425067 1.4583136162937327 255 255 255
-0.2244958978940300 0.5482237261970878 1.2004975757463638 255 255 255
-0.4864127461636381 0.6064364987726312 1.3777527935074343 255 255 255
0.4711669127328448 0.6971623547933932 1.4004562284512787 255 255 255
-0.4538155115661237 0.6208634292988221 1.3952320334254138 255 255 255
-0.3507736300502102 0.6046586465775765 1.3337758681529499 255 255 255
-0.3697810657464218 0.6104851232526094 1.3477532589721093 255 255 255
-0.1938822923692791 0.5881948717590794 1.2601903587819860 255 255 255
0.2843714212609726 0.6334661448724064 1.2578471597026957 255 255 255
0.4555645557495120 0.7070163049343743 1.3889568141147002 255 255 255
-0.2742592370331323 0.5829891556218019 1.2470189206344164 255 255 255
-0.4141765881025388 0.6287593121284255 1.3633162946314541 255 255 255
-0.3961015851832008 0.6181776206572970 1.3350028990043092 255 255 255
-0.3494473747782951 0.6158760515455118 1.3251518225219101 255 255 255
-0.1532132801062604 0.5960882583938522 1.2424083062363978 255 255 255
0.4181835668085057 0.7053563771918329 1.3703601698031078 255 255 255
-0.4255492252998486 0.6366461192985473 1.3610960523507367 255 255 255
-0.4166684481451787 0.6281114562419917 1.3379608049738125 255 255 255
-0.3376631208630136 0.6225119282398353 1.3165579896493811 255 255 255
-0.2175680735496359 0.6112534391358294 1.2588307797175824 255 255 255
0.1108173496262718 0.6133879788042180 1.2222984040182105 255 255 255
-0.4371055804051477 0.6308183521884803 1.3407757664081070 255 255 255
0.3341229403249564 0.6946763791239302 1.3372224914060629 255 255 255
-0.1836483110798244 0.6101283522626950 1.2557790203875245 255 255 255
0.4201365032683609 0.7257856795985259 1.3718560132287989 255 255 255
0.4436934562993048 0.7284629594856050 1.3694130923733081 255 255 255
0.4676948184785789 0.7319517015124918 1.3717250990660801 255 255 255
-0.2961348764344755 0.6091217720613650 1.2444534556465019 255 255 255
-0.0360776693158562 0.6287219873951390 1.2377856805115870 255 255 255
-0.2325763585248586 0.6088246637842799 1.2252543199173955 255 255 255
-0.2655855253828490 0.6029819610583681 1.2143201104014767 255 255 255
-0.1905198347760526 0.6210160194661664 1.2364490967473507 255 255 255
0.1953995416857844 0.6745446576661647 1.2674366957006695 255 255 255
-0.0097912528145396 0.6260246419262695 1.2012863155252680 255 255 255
0.3472484975304760 0.7236335695535319 1.3307211787013609 255 255 255
-0.1983683659451391 0.6373404991596642 1.2450866676189054 255 255 255
0.1139429224791831 -0.5312091915799819 1.2315664300778260 255 255 255
0.1597374010067677 -0.4317716618186708 1.0882350976811546 255 255 255
-0.0169335867160437 -0.3819154604445236 1.0561154850701111 255 255 255
0.2011622465747457 -0.3993768787633421 1.0853904964197305 255 255 255
-0.1944702129162401 -0.4718443025900644 1.3761985203196865 255 255 255
0.0099180593981219 -0.4276742304245112 1.2550113460899992 255 255 255
-0.2003413672815407 -0.4489897882440586 1.3727534182559733 255 255 255
0.2167244211342547 -0.3715538411416813 1.1097671189123164 255 255 255
-0.0049299917479078 -0.3688336076140776 1.1417187604149701 255 255 255
-0.2317423960377115 -0.4195602284238926 1.3704373603327376 255 255 255
-0.0215632881695496 -0.3318038308543879 1.0960443527366801 255 255 255
0.0498761502304070 -0.3250559656631452 1.0781742456450691 255 255 255
-0.0027686896713495 -0.3247531501160842 1.1121463260142201 255 255 255
0.2539107114300880 -0.3478969890974628 1.1563407724847359 255 255 255
-0.1031053690048148 -0.3290439708002882 1.1497733025667232 255 255 255
-0.0721058190962432 -0.3209855801239391 1.1242177741841799 255 255 255
-0.2454638627073371 -0.4060241378369036 1.4343867173638827 255 255 255
0.0951874147150598 -0.3206445709127833 1.1028553001771155 255 255 255
-0.1090743597193088 -0.3071421265465600 1.1473572577769426 255 255 255
-0.2540057039503684 -0.3732716798110793 1.4571985533187983 255 255 255
-0.0742459753630466 -0.2854435975465351 1.0975467856853844 255 255 255
0.0439493763751484 -0.2844075276910016 1.0765183986743132 255 255 255
0.2652573168690977 -0.3230823143249873 1.1936809881736297 255 255 255
-0.1458240700865851 -0.2895262980622247 1.1834917938914440 255 255 255
0.0065284995568270 -0.2550361004291697 1.0655924883509464 255 255 255
0.2848825918471585 -0.2685636784735045 1.2527392146689793 255 255 255
0.2373357544548096 -0.2455229622149167 1.2143443642451694 255 255 255
-0.1011470980553435 -0.1508813256418556 1.0701835598779783 255 255 255
-0.1461190513421981 -0.1480484668674289 1.1330687886645157 255 255 255
-0.0869453301053883 -0.1283812475959548 1.0431232619967283 255 255 255
-0.0554174773125505 -0.1278052973827604 1.0445848649569816 255 255 255
-0.1429983200048156 -0.1172141248560952 1.0910956224964061 255 255 255
-0.2812357948819736 -0.1320642793684849 1.4908252995264657 255 255 255
-0.0093380477040734 -0.0901361817986645 1.0729811029938539 255 255 255
-0.2064967157305097 -0.1000139094347742 1.2745687726603792 255 255 255
-0.1469471808499580 -0.0923529147208084 1.1482267063768663 255 255 255
0.0751276977926010 -0.0803024952658953 1.0635507088495750 255 255 255
-0.0908074715377553 -0.0735708727124802 1.0875546215424508 255 255 255
-0.0711149218669645 -0.0705306892790750 1.0880836776710963 255 255 255
0.1161110944906709 -0.0726694503301773 1.0981713834866274 255 255 255
-0.3125492105428805 -0.0884816280242401 1.5020340174043174 255 255 255
-0.3313928632165769 -0.0654294274606104 1.5043232716676382 255 255 255
0.0111534258454636 -0.0323796400886741 1.0088736182637907 255 255 255
-0.0402297932276259 0.0172755043063969 1.0633718517824360 255 255 255
-0.0212906256894133 0.0224484277948348 1.0337788990909711 255 255 255
-0.0174609042099513 0.0432287559978490 1.0291278195338949 255 255 255
-0.0738369170464785 0.0584270919202993 1.0727098279163123 255 255 255
-0.1225586356524544 0.0973489037193485 1.1257263702063163 255 255 255
0.0338455757107856 0.1031085279098055 1.0127998551419801 255 255 255
-0.1958149657956685 0.2565668827018942 1.5703883557272007 255 255 255
-0.1403140127056174 0.2127854942952805 1.2845039294142722 255 255 255
-0.0035937790402444 0.1843267940330473 1.0564920073730206 255 255 255
-0.1071347426836911 0.2078351893079221 1.1565929213148669 255 255 255
-0.0576540288102401 0.2158862375952830 1.0769770661179425 255 255 255
-0.0254500091960285 0.2149917695741861 1.0507483298666438 255 255 255
-0.1405973916135856 0.3062196790816051 1.3928070304453661 255 255 255
-0.1705129384416997 0.3297793868647191 1.3907759549010286 255 255 255
-0.2331999787683035 0.3856087260250050 1.5152314464641168 255 255 255
-0.0416504072976733 0.3704853401893572 1.2803850632454523 255 255 255
-0.2697774824923698 0.4266960305207504 1.4765222704097760 255 255 255
0.2599048578174101 0.4623673676230786 1.4807186824499414 255 255 255
0.6853116003485740 0.5379564940405328 1.6319994425735662 255 255 255
-0.1382955311977836 0.4467518324566885 1.3728628537246745 255 255 255
0.2180912160945366 0.4952946136604163 1.3795836767165117 255 255 255
0.1514308566929553 0.4826475230607531 1.3264841359673267 255 255 255
0.5461004909751557 0.5826649154476223 1.5134621974449065 255 255 255
0.1287996609236747 0.5024935628383850 1.3392763350579824 255 255 255
0.2604150275897786 0.4852313182770864 1.2717156957592757 255 255 255
0.5561508235778043 0.6055636055183546 1.4885996475251275 255 255 255
-0.1951583755009849 0.4952689080363217 1.3067107857269620 255 255 255
0.0150034748075158 0.5200716645461930 1.3366969651613398 255 255 255
-0.0592640608672106 0.5401880486355093 1.3179129465031527 255 255 255
-0.4970748772295469 0.5599887752918195 1.4188569003807570 255 255 255
-0.1094447410136614 0.5154632403097712 1.2417377782249908 255 255 255
-0.2232147006713930 0.5491147470071334 1.3249874653711327 255 255 255
-0.0815034027440483 0.5222014546454007 1.2375327500497519 255 255 255
0.4879109592510811 0.6461352854287333 1.4309428539329001 255 255 255
-0.1226867217470364 0.5424102985296831 1.2871768255004314 255 255 255
0.2883517536795330 0.5949131918865970 1.3291898839214449 255 255 255
0.1356739194113235 0.5701206495108971 1.3068756800830899 255 255 255
-0.0965757474792055 0.5480711705342552 1.2797764306839254 255 255 255
-0.0398079074652584 0.5666120114431025 1.3085969185832558 255 255 255
0.0832384093870180 0.5882747057163003 1.3125862309755174 255 255 255
-0.4313287256841941 0.5919129345814143 1.3826605333116315 255 255 255
0.0031215893191687 0.5731942374110692 1.2616452287766067 255 255 255
-0.1411297655388852 0.5750111092161221 1.2753186615404595 255 255 255
-0.0444998355329859 0.5636458329654669 1.2319799468798089 255 255 255
-0.2422059814920944 0.5573838874628413 1.2421247217331597 255 255 255
-0.1176681998482420 0.5702375850557377 1.2360932666797988 255 255 255
-0.0950112255917559 0.5727741344781320 1.2295750106183894 255 255 255
-0.4513003759673917 0.6072336650714023 1.3625913934625198 255 255 255
-0.3002990939472667 0.5656395634863551 1.2286920884965336 255 255 255
0.1174210898324860 0.6121666321275320 1.2553233831534907 255 255 255
-0.2543280658578441 0.5876171677515128 1.2650053169668194 255 255 255
