ply
format ascii 1.0
element vertex 685
property double x
property double y
property double z
property uchar red
property uchar green
property uchar blue
end_header
-0.2590168367300648 0.3340986725346421 1.4945592449486442 255 255 255
-0.0104073565824782 0.2392965939366659 1.0417802706609132 255 255 255
0.0498375875487228 0.2403774463509652 1.0388063856410468 255 255 255
0.0285296570947778 0.2408434188599443 1.0335981528513527 255 255 255
0.4037647425146983 0.3852531877468517 1.4831243110478991 255 255 255
0.3964288095213866 0.4013764410500232 1.5296990236020964 255 255 255
-0.0385484499894992 0.3261722420384422 1.2439883088604717 255 255 255
-0.4141448686501467 0.4110963477828136 1.4728987256821817 255 255 255
0.0885138905551330 0.3289088884752325 1.1906212135967551 255 255 255
0.3814858318770205 0.4072335834601389 1.4639201714541779 255 255 255
-0.0424791234562423 0.3277562424566658 1.1571673449368161 255 255 255
0.4510058605289254 0.4381536004486051 1.4778227215139177 255 255 255
0.0799378304388762 0.3787861953308935 1.2492991729106842 255 255 255
-0.2723057066118921 0.4465673057305768 1.4298822858932090 255 255 255
0.4014433630584425 0.4543809699617695 1.4295794465020424 255 255 255
-0.0102588890565711 0.4015935770210573 1.2712668772139533 255 255 255
-0.2834956241384550 0.4536252311330807 1.4122309305956928 255 255 255
-0.2246486077885897 0.4439748312190265 1.3890469031020849 255 255 255
-0.2462171308335090 0.4547745041697071 1.3847883987753900 255 255 255
0.4071355519044561 0.4540491114528413 1.3839938534642078 255 255 255
0.3988683886574228 0.4767638482779755 1.3984763374820914 255 255 255
-0.2037770958725420 0.4731116755969591 1.3557898841263685 255 255 255
-0.5044436889558772 0.4994661054817830 1.4664070630407515 255 255 255
0.4438331761219913 0.4843292325326274 1.4150366666416601 255 255 255
-0.1239944280136234 0.4572322636587593 1.3147608306504666 255 255 255
-0.4790199156252902 0.4988271123008396 1.4250499398009273 255 255 255
0.4458288316668865 0.4940149893548930 1.4027234970280320 255 255 255
-0.2142206071215090 0.4798092595985048 1.3284341360953436 255 255 255
-0.4398721250271988 0.5073944336464309 1.4139552950804879 255 255 255
-0.4614371898277587 0.5070026424104311 1.3945304252180859 255 255 255
-0.2479325045296081 0.4877621390659527 1.3495673347634958 255 255 255
0.4352897390353909 0.5010262317554374 1.3917796937039491 255 255 255
-0.4244325612618110 0.5004771682269215 1.3720811256731769 255 255 255
0.3580257271836323 0.4984254063865556 1.3401628658025078 255 255 255
0.4187987922602554 0.5106714033628655 1.3772111550583193 255 255 255
-0.4626797575221639 0.5166441162754174 1.3730595993734978 255 255 255
0.3757524632259588 0.5098536544055913 1.3697051464377428 255 255 255
0.1043335951223290 0.4830203575884390 1.2881655873744857 255 255 255
-0.2083307650610936 0.4944175302211805 1.3069885381520925 255 255 255
-0.0580485502468265 0.4755553870029188 1.2815984844113666 255 255 255
0.1619415816792238 0.4855792698049045 1.2915661955296152 255 255 255
0.3381541790310023 0.5026563897627228 1.3272844386784959 255 255 255
0.4061019128953769 0.5142588039533758 1.3573073321200040 255 255 255
-0.2456713775391093 0.4902410106242008 1.2977669780404477 255 255 255
-0.4363395798469778 0.5346428701614878 1.3888919972435771 255 255 255
-0.4546005051276296 0.5351345286212775 1.3869690684722991 255 255 255
0.4465933132846369 0.5310394740756132 1.3864823774866251 255 255 255
0.3677188546770498 0.5183628838121838 1.3403503606367708 255 255 255
0.3963603806952306 0.5203549652055348 1.3424198314669431 255 255 255
0.4174964749462268 0.5259326826380681 1.3535498058775055 255 255 255
-0.2685091123004200 0.4721236214955706 1.2206827542216356 255 255 255
-0.4590793627783663 0.5410547173102485 1.3758955766028407 255 255 255
0.1084028588242998 0.4999753334066976 1.2732349350192023 255 255 255
0.1285462880764301 0.5063165992515047 1.2854361924250088 255 255 255
0.4281006209495797 0.5321230651932213 1.3555238003115935 255 255 255
-0.1804060246026776 0.5069447011931918 1.2906752963090247 255 255 255
0.1626407438874855 0.5093379807060917 1.3044566227434815 255 255 255
0.3492086139693274 0.5307547825154315 1.3442294496811291 255 255 255
0.4052868178082682 0.5289337238525557 1.3373316176694612 255 255 255
-0.4476986444981481 0.5488195921749710 1.3704415075647447 255 255 255
-0.3707898791865983 0.5413571393988057 1.3468755968551362 255 255 255
0.3447296011725210 0.5306237813097245 1.3190945903122044 255 255 255
-0.3597453318174065 0.5434715064846465 1.3415737535576302 255 255 255
0.1033300418011642 0.5158605178620547 1.2803099840976739 255 255 255
0.5315955445564822 0.5577619913782754 1.3829246264698349 255 255 255
0.3327102189555810 0.5290067139469201 1.2954367436168941 255 255 255
-0.3724972287251490 0.5474364295719221 1.3355946357671404 255 255 255
0.3825189823516643 0.5447316238725703 1.3285233908097853 255 255 255
0.0814158877308988 0.5299331760184504 1.2816367672584199 255 255 255
0.5209495350287092 0.5708569388949754 1.3902475229255040 255 255 255
-0.4532980458640344 0.5560872495657281 1.3336356513809957 255 255 255
-0.4223191385273527 0.5635960110354086 1.3577451403346408 255 255 255
-0.3526530621790425 0.5540274380487816 1.3349691829082531 255 255 255
0.0572568543169857 0.5244218147144072 1.2700036921153095 255 255 255
0.3397135121721330 0.5414350515020874 1.3036191664925039 255 255 255
0.3706139698222687 0.5498139945766396 1.3273736518832224 255 255 255
0.4042559525739081 0.5559912914605236 1.3418609523368881 255 255 255
0.4267300990545229 0.5567754003735451 1.3475284402660459 255 255 255
-0.4815559233792227 0.5599550602423494 1.3370199306038526 255 255 255
-0.4413301921461199 0.5629135951783935 1.3418905794983225 255 255 255
-0.3405124616106394 0.5555097455115853 1.3270239825229202 255 255 255
-0.5405087853834470 0.5759390380570492 1.3756523121568687 255 255 255
0.0343878439646903 0.5282763616873910 1.2672060171081521 255 255 255
0.3854354766134239 0.5596105597597634 1.3324074048714842 255 255 255
0.4083484854789760 0.5578732881938381 1.3172736087168158 255 255 255
-0.3607993486426122 0.5570668859229652 1.3192603932477180 255 255 255
0.3348639510797461 0.5527256752322089 1.3040233608041063 255 255 255
0.3630143476998480 0.5558035071827881 1.3098758137070525 255 255 255
-0.3523961553269399 0.5650435381428893 1.3238880137341265 255 255 255
-0.4430372584673458 0.5784489022388862 1.3487088366508642 255 255 255
-0.0083590871839717 0.5382368640726295 1.2733449572461897 255 255 255
0.3447793844176073 0.5573368324677285 1.2951761527443511 255 255 255
0.3803267762631418 0.5679391359680034 1.3224273576600070 255 255 255
0.3699177749566682 0.5649852180771416 1.3087569459266541 255 255 255
0.5068544676741806 0.5857934784276172 1.3633651584122977 255 255 255
0.4284897575955571 0.5753540390253239 1.3370747717404718 255 255 255
0.4060176817365298 0.5745464222825750 1.3267390164701147 255 255 255
-0.4628000932602807 0.5717926615741815 1.3093324530736525 255 255 255
-0.3429066772203889 0.5744922194698413 1.3130862141989925 255 255 255
0.2578495032022630 0.5463012937146352 1.2541789963897241 255 255 255
-0.0993814812474893 0.5344680110672042 1.2355048685935535 255 255 255
0.3376394545910723 0.5646105131246189 1.2875838865715119 255 255 255
-0.0486057097926719 0.5299928017645092 1.1999828056189630 255 255 255
0.1803428751996272 0.5248159650373981 1.1903821054302435 255 255 255
0.4406573645990073 0.5792784904249031 1.3120239418544799 255 255 255
-0.4558962581134353 0.5867379848380175 1.3144175550882657 255 255 255
-0.4261873428848528 0.5777968987597227 1.2963878994630966 255 255 255
0.3611287979446273 0.5882428281312593 1.3192047664669171 255 255 255
0.3994579980543256 0.5897768887514622 1.3225938890463971 255 255 255
-0.1314084618963459 0.5477928637840471 1.2168673326635053 255 255 255
0.3649863691498860 0.5823577747893246 1.2974504359453976 255 255 255
0.5167222929779323 0.6069321643830410 1.3617913490133333 255 255 255
0.3302173539983035 0.5782055358779029 1.2888536662472809 255 255 255
0.4352695162662019 0.5958375923976902 1.3291355844929131 255 255 255
0.4085428255702528 0.5894666829993659 1.3122301775288518 255 255 255
-0.4590209528175800 0.5992584615002087 1.3165712950933945 255 255 255
0.3893139010379575 0.5906406457135155 1.2998539874882500 255 255 255
-0.4116599607848489 0.5974013524349082 1.3110587263589379 255 255 255
-0.2096528191084047 0.5803994627236185 1.2687249953584943 255 255 255
-0.1915922822608094 0.5762043488137657 1.2583646887705016 255 255 255
-0.4639497978188865 0.6003753509426786 1.3029724731476782 255 255 255
-0.1431432771067104 0.5575171411303403 1.2180504415602529 255 255 255
-0.0952598257654238 0.5524276940887972 1.2028707468641850 255 255 255
0.3361262256706701 0.5838374414352203 1.2745627483847450 255 255 255
-0.4546847564458970 0.6107819714762289 1.3220460659319913 255 255 255
-0.3647431513878336 0.5972415500973173 1.3135253308099513 255 255 255
-0.3422165922749722 0.5933366419356634 1.2891972313149145 255 255 255
0.1483949454303801 0.5583220696628995 1.2109735758591165 255 255 255
0.3169755903070303 0.5841147111505753 1.2676831350595010 255 255 255
0.4043443192799790 0.6042936210432747 1.3071690492793131 255 255 255
0.0863418157904482 0.5640199259557641 1.2152744404986535 255 255 255
0.2586483380175154 0.5703889349848851 1.2414059467029699 255 255 255
0.2447621575813081 0.5725534130295650 1.2343740923304327 255 255 255
-0.4546851043617022 0.6055589177960208 1.2949535267520849 255 255 255
-0.0375068992396426 0.5635803739530428 1.2106309151378205 255 255 255
0.2672336721318296 0.5743699719277524 1.2322810887939954 255 255 255
0.5075948495260700 0.6205539104055928 1.3380647845015703 255 255 255
0.3036072252869728 0.5897963738166697 1.2582513517904679 255 255 255
-0.1426761496553290 0.5761996101761314 1.2204619603802147 255 255 255
0.0535778618262207 0.5745896364055185 1.2177764396612032 255 255 255
-0.4184158392184200 0.6054161018850547 1.2980553185351098 255 255 255
-0.3706786713882350 0.6085799044630225 1.2852023710540335 255 255 255
0.2412558437378888 0.5829565618082960 1.2369018638299989 255 255 255
-0.2659380887276185 0.5744288799874139 1.2215138973141546 255 255 255
-0.0304033592571615 0.5685862385687340 1.2019478630606755 255 255 255
0.1768319555753466 0.5677426256222562 1.2053639686779634 255 255 255
-0.3994171934061647 0.6225148030769734 1.3083292209696682 255 255 255
0.1599499478484511 0.5731837824691521 1.2025188241356273 255 255 255
0.1999239788142204 0.5897621302090678 1.2407829046669721 255 255 255
0.3380893403260963 0.6029103071586809 1.2649522075321853 255 255 255
-0.1808938495271615 0.5700821305291852 1.1912028763348677 255 255 255
0.2857831870318641 0.5978428347150123 1.2614830421728596 255 255 255
-0.0096851355621218 0.5854379271877790 1.2191239458146677 255 255 255
0.2362864876874632 0.5867175796421252 1.2243789645297551 255 255 255
0.2510432721109699 0.5699181374445464 1.1846058261006154 255 255 255
-0.0680144132528247 0.5770008746884155 1.2017889079088664 255 255 255
0.0016198429292252 0.5602372384909924 1.1671643244389707 255 255 255
-0.2972925395170130 0.6006161094352508 1.2443809062916851 255 255 255
0.2260288438534163 0.5911388133028724 1.2245711701420012 255 255 255
0.4182649366957920 0.6213185675733630 1.2881162584913313 255 255 255
-0.2952132405983016 0.5854079795265269 1.2127914113351637 255 255 255
-0.1404691715621078 0.5848690482944806 1.2080484400023435 255 255 255
-0.1186543158179208 0.5865686577428431 1.2083307986986862 255 255 255
0.2496293840702103 0.5972935145261523 1.2351667594966744 255 255 255
0.3934130899514541 0.6291620514358985 1.3022517035433483 255 255 255
0.0168982418091103 0.5927145534523109 1.2159151965417259 255 255 255
0.2724810202286588 0.5986660161798320 1.2304223646707328 255 255 255
0.3101966761882363 0.6109888122821235 1.2581561123550757 255 255 255
0.3270579419711635 0.6101332618562639 1.2556908386987591 255 255 255
-0.3714870385601303 0.6322469579632752 1.2944580141194937 255 255 255
-0.3475025399465823 0.6247820501671689 1.2796429507835396 255 255 255
-0.0426831371810129 0.5839272982731690 1.1952438667740442 255 255 255
-0.3249234349134932 0.6260711391055632 1.2769293054933868 255 255 255
-0.2514790652938997 0.5887210699714576 1.2001912921949989 255 255 255
-0.0694723352025296 0.5816701323272441 1.1907394880705591 255 255 255
-0.3784880053841331 0.6301955954940195 1.2765404563363751 255 255 255
0.3900125966005930 0.6418845770555235 1.3105127581842315 255 255 255
-0.4756987290803964 0.6344447235698710 1.2885300364796559 255 255 255
0.2555255140351422 0.6020598764093379 1.2216423977442192 255 255 255
0.3245735096132177 0.6268418136677670 1.2674015519449235 255 255 255
-0.4407601168020795 0.6398800706094746 1.2867240049913413 255 255 255
-0.0506919297217216 0.5928697496473203 1.1929773255036544 255 255 255
-0.0294946947501358 0.5942015639124339 1.1982221864629277 255 255 255
0.0004791594417575 0.5977041121146837 1.2028688670831371 255 255 255
-0.0982461684747972 0.5949379517955966 1.1930889797776683 255 255 255
0.0408012273867777 0.6150686755230128 1.2360064291385076 255 255 255
0.3708320502125468 0.6319600782833775 1.2711424985290827 255 255 255
0.3955308255462351 0.6419725516968768 1.2906157794029125 255 255 255
0.4348739308711088 0.6457294584449604 1.3015342746286489 255 255 255
-0.2371101922470288 0.5992391413452615 1.1995464968462350 255 255 255
-0.1419723425838295 0.6081037639323645 1.2127312346848147 255 255 255
-0.4021623962357033 0.6513603718704348 1.2945503088620587 255 255 255
-0.0830729650718322 0.6022419223520418 1.1934473091585023 255 255 255
-0.4576938853711190 0.6411246366217839 1.2730302949388754 255 255 255
-0.4456702814009881 0.6569318081814578 1.2947224067869323 255 255 255
-0.3560892717256153 0.6457133415039018 1.2755565908634205 255 255 255
-0.2490795693544937 0.6098213660097597 1.2025849026876556 255 255 255
0.3731530351661120 0.6505643595162598 1.2857210307222415 255 255 255
-0.3420513048946129 0.6415138806155471 1.2562237276180357 255 255 255
-0.4108608195076917 0.6578624754804628 1.2865355756573760 255 255 255
-0.3893658166169612 0.6522978471118017 1.2760359504563750 255 255 255
-0.2909356686970958 0.6091033306389947 1.1961268244608991 255 255 255
-0.2546492901620843 0.6012254593833100 1.1726458104837738 255 255 255
0.2059549001563209 0.6206690974297548 1.2185502982172405 255 255 255
0.3375500614002417 0.6391979678677168 1.2520282664670486 255 255 255
0.1915327582690869 0.6230166638401224 1.2184668077771914 255 255 255
0.4102670407276504 0.6613800082873834 1.2954022760643009 255 255 255
-0.3258502935330519 0.6501194144423267 1.2660919454357311 255 255 255
0.2334101165545141 0.6202597983316989 1.2083089224726924 255 255 255
0.0661903992479965 0.6324659450458466 1.2273128332064511 255 255 255
0.1007574618565229 0.5957730087061579 1.1586917345048318 255 255 255
0.2013782973567182 0.6319628502793896 1.2217598001583405 255 255 255
0.2460686221173933 0.6233704123255671 1.2050014864381886 255 255 255
0.3086180802124068 0.6517956629901528 1.2611518622150244 255 255 255
-0.4699513555974085 0.6599245735410850 1.2685120516967510 255 255 255
-0.1535049792575252 0.6180481453675394 1.1896973379907880 255 255 255
0.1559657241583349 0.6169633914271769 1.1837665042863328 255 255 255
0.3909074333515347 0.6568553892710137 1.2697948489741664 255 255 255
-0.4043012760791063 0.6479098066705428 1.2453851494111159 255 255 255
-0.3629662007814003 0.6604346418516218 1.2641458583855223 255 255 255
-0.4241202659938002 0.6575924115737777 1.2643532316053863 255 255 255
-0.3786322977005400 0.6640547876229578 1.2774742812175066 255 255 255
-0.0542615203017835 0.6223384197777497 1.1906792300613982 255 255 255
0.0890581727692191 0.6056773482745841 1.1622249766154138 255 255 255
0.3409744149893661 0.6512251587535111 1.2454299280457528 255 255 255
-0.4480652530876031 0.6612829529629417 1.2574478855055056 255 255 255
-0.2336742369545035 0.6244216034312232 1.1904625940644258 255 255 255
0.2251443988772751 0.6391781176379593 1.2199547360971694 255 255 255
-0.3691090238567342 0.6725756799659508 1.2694680817532586 255 255 255
-0.1509615523064805 0.6351121773826484 1.1953396346305374 255 255 255
-0.1251275666519001 0.6371314695211243 1.1986202988770025 255 255 255
0.2112329681590923 0.6362520526331629 1.2007220065872843 255 255 255
0.4085716907808307 0.6705249717282493 1.2688848968466062 255 255 255
-0.4675923711498750 0.6624053194970414 1.2425533928001211 255 255 255
-0.4271512329286843 0.6793454792216020 1.2735362236028920 255 255 255
-0.2271038567675177 0.6247680420076955 1.1724847593987247 255 255 255
0.2408884595118726 0.6393167811604641 1.2004744585139755 255 255 255
0.2823511496587414 0.6597035013422619 1.2398149150320952 255 255 255
0.1466626617960028 0.6300753397455351 1.1790375245188722 255 255 255
0.2291763482424261 0.6392201066357108 1.1966599113755956 255 255 255
0.4197766102939884 0.6781800382176685 1.2712740976444146 255 255 255
-0.4657731708649676 0.6800138535182394 1.2662108711076789 255 255 255
0.2053106313927470 0.6459660348281616 1.2071158251183158 255 255 255
0.2237985190673315 0.6506788928158013 1.2146217152112317 255 255 255
0.0094276230051915 0.6511222441522455 1.2084133801175392 255 255 255
0.4357196306808129 0.6836236243450554 1.2740527542698925 255 255 255
0.4613039820494008 0.6925858805489634 1.2808698291813434 255 255 255
0.1499820226850516 -0.5091233735759493 1.2044814984485070 255 255 255
-0.0612126798593081 -0.3440180751187109 1.1368407243626570 255 255 255
-0.0415809286632425 -0.3307379320207313 1.1207155732207488 255 255 255
-0.1069718798177174 -0.3046145286673005 1.1459128368397347 255 255 255
-0.0733571051208527 -0.2851490197344500 1.1019779587619019 255 255 255
0.1153388053080120 -0.2743606188401658 1.0830927639695380 255 255 255
0.1502209696551298 -0.2699302727660519 1.1094184983577697 255 255 255
0.0993334617251274 -0.2283589681316693 1.0625763838588211 255 255 255
-0.1299990643122367 -0.2176377620062952 1.1417739974446262 255 255 255
0.0428135565801523 -0.1560840912262300 1.0407421847441152 255 255 255
-0.0997809770999539 -0.1295862540139866 1.1155598134193583 255 255 255
-0.0269596817521671 -0.1235448559856470 1.0669273766147980 255 255 255
0.1623606831324294 -0.1296103479150328 1.0874553863102940 255 255 255
-0.2704477806907986 -0.1567687643711043 1.4725483659528635 255 255 255
0.1425335094919798 -0.1016922058832650 1.0687167146477605 255 255 255
0.0160444900245671 -0.0923072514991950 1.0400494304355994 255 255 255
-0.0839545609800366 -0.0999426400997710 1.0957401582585586 255 255 255
0.0156924612097583 -0.0764943578450654 1.0429575498564481 255 255 255
0.1487271947772198 -0.0793938377812368 1.0964358502683080 255 255 255
0.1361264743069311 -0.0662702127052703 1.0916178830980536 255 255 255
-0.0434897361702246 -0.0393793246928258 1.0927493443707963 255 255 255
-0.0630584567643912 -0.0352020051805332 1.0906906596681045 255 255 255
-0.1086813441353570 -0.0429398750161882 1.1101685193293582 255 255 255
0.1112994455622952 -0.0141919871839583 1.0806683980652247 255 255 255
-0.0462409449949496 -0.0079970862550725 1.0841790716194413 255 255 255
-0.0922348552053474 0.0010004009900492 1.1017579698705342 255 255 255
-0.0806775563946769 0.0069389154611637 1.0908367063351718 255 255 255
0.1175667676294966 0.0211288729307165 1.0680334082908964 255 255 255
0.0863374675673092 0.0278291414523943 1.0070890261381744 255 255 255
-0.0759504157590371 0.0413187013192368 1.0658531693542745 255 255 255
0.0359667839450579 0.0373255364647961 0.9576854150223516 255 255 255
0.0729462721659200 0.0451241062607895 0.9744850380800777 255 255 255
-0.0035363165356627 0.0437305578484050 0.9793303078929532 255 255 255
0.0477472366144763 0.0581620274038298 0.9800905762891423 255 255 255
0.2818505183129232 0.0821211194708506 1.3542772514533206 255 255 255
-0.0020011404708124 0.0653642488651487 0.9950243368461948 255 255 255
-0.0516774794337951 0.0849695856997189 1.0623583534819636 255 255 255
-0.0442223278641883 0.1226931268016008 1.0488711922034430 255 255 255
-0.0142205496964044 0.1213462329943577 1.0221864206066749 255 255 255
-0.0472742624654615 0.1385467817793127 1.0659700850009086 255 255 255
0.0281331361185754 0.1310003296615453 1.0039943256324770 255 255 255
-0.0601976612699821 0.1465382955676162 1.0680662320242251 255 255 255
-0.1994939322835013 0.2184158031306450 1.4289490254701818 255 255 255
0.0542101044887786 0.1666161285146586 1.0494529308043701 255 255 255
0.0098128921478923 0.1692323536593349 1.0425109585526584 255 255 255
-0.0194877674888656 0.1800671602150486 1.0428660460272157 255 255 255
0.0769633196824414 0.1859918286346281 1.0512538599669603 255 255 255
0.0513523155942463 0.1924596278203386 1.0370366854402495 255 255 255
0.0126602441792415 0.1954209582933165 1.0394599710902566 255 255 255
-0.2803505688351318 0.2902553211365482 1.5101416712845221 255 255 255
0.0406961880903452 0.2267433243783420 1.0372154156807221 255 255 255
-0.2659104262870186 0.3634358613541592 1.4773711732672827 255 255 255
-0.2829759188401232 0.4108612507621819 1.4312796684807467 255 255 255
-0.4780374652151409 0.4483811216510862 1.5469604132805641 255 255 255
0.0627072341044990 0.3900077263986664 1.2790472289752604 255 255 255
-0.4811623015844537 0.4619593665205301 1.4954977820051027 255 255 255
0.0834390400382560 0.4260573882004894 1.2695181548776280 255 255 255
-0.4625935440865405 0.4977821237521499 1.4338699458015898 255 255 255
0.1794997754558658 0.4732392780632454 1.3467978088978183 255 255 255
-0.2312505152590555 0.4737573423514442 1.3519975024065387 255 255 255
0.1947463554131129 0.4771378737509017 1.3353893863839323 255 255 255
0.0267081530558000 0.4891122715938335 1.2835842472568371 255 255 255
-0.0411502940258926 0.4924115714418600 1.2736437687978974 255 255 255
0.1938744466267101 0.4979727163748270 1.3009631705163860 255 255 255
-0.4679260838292295 0.5336373650686134 1.3641452394487057 255 255 255
0.3624800157132495 0.5333911274782945 1.3425624891013608 255 255 255
0.1881189459662847 0.5014612732017218 1.2340905666318853 255 255 255
-0.4621723483931937 0.5674724237776105 1.3656300353879045 255 255 255
0.1518835937516414 0.5438105401981503 1.2877904157837845 255 255 255
0.3645478364114339 0.5612136684915781 1.3178933906619128 255 255 255
-0.0039704403492191 0.5270970069280358 1.2335911094816376 255 255 255
-0.0296410681400338 0.5303188865462495 1.2276445728969378 255 255 255
-0.3650335701510052 0.5840043604125009 1.3257547995151309 255 255 255
0.0680653280951499 0.5590751867611653 1.2678097260548766 255 255 255
0.1524613320847247 0.5514621436921054 1.2654157585469770 255 255 255
-0.1365926488561210 0.5449415541412158 1.2218257306400777 255 255 255
-0.3770267902454879 0.5858781177137475 1.3049611518885214 255 255 255
-0.4668550592533751 0.6042556978410545 1.3333265417844031 255 255 255
-0.4103414686372566 0.6027509465683528 1.3188794517661435 255 255 255
-0.0549268722412625 0.5746792445364580 1.2036319866423935 255 255 255
-0.4542463918230518 0.6319512591999235 1.3176528211209986 255 255 255
0.1442951130061356 0.5814272536070614 1.2023737262822869 255 255 255
-0.1209104386975131 0.5822255996647895 1.2005635659201324 255 255 255
0.0927179722978373 0.6062428713994085 1.2320569941351487 255 255 255
-0.1050191647018424 0.5843224179458137 1.1961483169787701 255 255 255
-0.4045038059856690 0.6607389588712493 1.3457972976003421 255 255 255
-0.4350533365921787 0.6411998751659890 1.2915860246402047 255 255 255
-0.0034187272113406 0.5969672634559808 1.2008118751325865 255 255 255
0.0299889512830717 0.5954190436137776 1.1974628649696935 255 255 255
0.2835128143146400 0.6184182365783728 1.2421465430175420 255 255 255
-0.1516676077091548 0.5948568460480055 1.1881215088000108 255 255 255
-0.0508994749289637 0.6083872401801549 1.1943629506730413 255 255 255
-0.0999851117093603 0.6100531239400301 1.1920178868359403 255 255 255
-0.2056634716626015 0.6109878329443439 1.1875064227426257 255 255 255
-0.0391276155262348 0.6182353751779910 1.1914523427112234 255 255 255
0.3739955853827016 0.6623170329211020 1.2812251138912720 255 255 255
0.4318535636435925 0.6477000166878382 1.2410302447056734 255 255 255
0.2740582158836313 0.6476707454090164 1.2387016728023019 255 255 255
-0.1089817403642780 0.6298683352880268 1.1944796396909778 255 255 255
-0.0057554463447548 0.6424103522140074 1.2165545531295201 255 255 255
0.0626058717102294 -0.4895547533971497 1.1111858260019754 255 255 255
0.0053381490310774 -0.3269337589160481 1.0892515358722910 255 255 255
-0.0426862799749069 -0.2688218354113013 1.1084694656867742 255 255 255
0.0729006103742711 -0.1042664424288578 1.0425653879253209 255 255 255
-0.0258106480178139 -0.0488802144387602 1.0884545243391557 255 255 255
-0.0878783811481952 0.0911692236252856 1.0734552137516951 255 255 255
-0.0110634162165373 0.0971852774911627 1.0247125800565695 255 255 255
-0.2901910783513210 0.3089969107883594 1.4970002721358338 255 255 255
-0.3147382179344441 0.3296541216503642 1.4694800095493992 255 255 255
-0.0187565390101082 0.2519421561921023 1.0495315214509751 255 255 255
-0.1067291812676370 0.3869534310702963 1.2974710239699787 255 255 255
-0.4296511502954744 0.4687007207967988 1.4327434475345742 255 255 255
-0.4965224564863840 0.4938649069352531 1.4350614301469282 255 255 255
-0.4225016119638720 0.5357846498851686 1.4365666911573038 255 255 255
0.3734120864617233 0.5247216137858129 1.3270888831711301 255 255 255
-0.4027633393672170 0.5502217655601592 1.3959604610699492 255 255 255
0.4134201106699036 0.5426937567741303 1.3670778711514613 255 255 255
0.0884629975200089 0.5317867951299508 1.2861029143862310 255 255 255
-0.0927020920171942 0.5387891298940102 1.2009623521824486 255 255 255
0.1588062484550029 0.5542336870889819 1.2465886400632131 255 255 255
0.3297436341433218 0.5773215762089143 1.2888729979323776 255 255 255
0.3518448408319839 0.5805601039487778 1.2813464723536971 255 255 255
-0.3603532276899553 0.5987054076541816 1.2970207102466600 255 255 255
-0.1413357961295231 0.5662193910676899 1.2241072231194168 255 255 255
0.1059993680843257 0.5752942913939233 1.2532325191794833 255 255 255
0.3105511825410774 0.5986665002805563 1.2818630867689187 255 255 255
-0.0288742759239930 0.5688517384295826 1.2036286500669946 255 255 255
-0.1919702112570172 0.5867022619630854 1.2422559953573353 255 255 255
-0.2324117101755190 0.5831234502986763 1.2191243890219823 255 255 255
-0.1952654067803042 0.6072190394939182 1.2529841114365410 255 255 255
0.0180858719478851 0.5944634517573467 1.2197927829349235 255 255 255
0.1115195555088849 0.6024750650219827 1.2207553556954724 255 255 255
-0.0774760406386242 0.5857045022385139 1.1827268317418538 255 255 255
-0.0501910591295793 0.5918842298201766 1.1920418623505922 255 255 255
0.3231798468705945 0.6222149516915669 1.2530098180473446 255 255 255
-0.3250366689616055 0.6384709126407284 1.2732766679895700 255 255 255
-0.1307615881430265 0.6049558428238830 1.1926133170068351 255 255 255
-0.3941380181967072 0.6643928419851075 1.3067698646758428 255 255 255
-0.3526480200350713 0.6522048978593590 1.2832196669867959 255 255 255
-0.3230211394336853 0.6455081667438116 1.2572491809889097 255 255 255
0.3946607265782409 0.6626955725245055 1.2914599667531559 255 255 255
0.1175623610246310 -0.4784749864821877 1.1286708076598075 255 255 255
-0.0600307391239359 -0.5913709371825056 1.5539219420871406 255 255 255
0.0894296429975094 -0.4564215318455175 1.1822564859484217 255 255 255
-0.0733125833912271 -0.3610944789753909 1.1396599970891577 255 255 255
-0.0611417216444264 -0.3498371355782042 1.1226916484651077 255 255 255
0.0630164986724072 -0.3359480269208353 1.1060234318003965 255 255 255
0.0974341767963603 -0.3211743401576486 1.1007682810869306 255 255 255
0.0342880723070615 -0.3126953905903543 1.0884729211661366 255 255 255
0.1226243575211486 -0.3053985290516328 1.1164995372108670 255 255 255
0.1974231019761902 -0.3120648365473559 1.1594154963758272 255 255 255
-0.1111994252432666 -0.3065809553765329 1.1608400140332014 255 255 255
0.0743290542085734 -0.2787677996350735 1.0864070178699234 255 255 255
0.2353186014974397 -0.2884109765908520 1.1832232463043009 255 255 255
0.2282861297315368 -0.2551533922474202 1.1918703013207075 255 255 255
0.0337644969639902 -0.2197473257365605 1.0613265484044003 255 255 255
-0.0317812273682556 -0.1733161638420563 1.0447654014391541 255 255 255
0.0428900546425032 -0.1556363700657819 1.0320262805677614 255 255 255
0.0003905272973605 -0.1501492203080215 1.0328961377073871 255 255 255
-0.0541634907264550 -0.1464193677292670 1.0435664537787543 255 255 255
0.0674283798379802 -0.1422625103408997 1.0279493974933269 255 255 255
0.1304745849552268 -0.1424830239138632 1.0486820292712533 255 255 255
-0.0340149682637663 -0.1237407269270967 1.0501496688854006 255 255 255
0.0890662810745120 -0.1163348110610413 1.0412405725749880 255 255 255
-0.0730489438406415 -0.1076792671613515 1.0635772570753024 255 255 255
0.1457261421329323 -0.0995676466816233 1.0633820117803490 255 255 255
0.0505709781874826 -0.0830174692250479 1.0429925357243042 255 255 255
0.0780326174931362 -0.0809663866352632 1.0710987094968745 255 255 255
0.1069966277419643 -0.0643769470643920 1.0614861706494600 255 255 255
-0.0670692437709638 -0.0688217308663464 1.0878532759301194 255 255 255
-0.1795099996546829 -0.0416661549699508 1.1999960504876910 255 255 255
-0.0408953094268597 -0.0135759348518309 1.0625448314121118 255 255 255
-0.0410318993641995 0.0216219878857142 1.0565228759921512 255 255 255
-0.0762087373392987 0.0406786280165294 1.0642068417632997 255 255 255
0.3218987200781630 0.0623627147146824 1.4008991001577729 255 255 255
0.0347042196661202 0.0396790771563351 0.9626429106043671 255 255 255
-0.0494342818022677 0.0839773438865568 1.0557434129867898 255 255 255
0.0066178750540570 0.0885619083388254 1.0180167623831307 255 255 255
-0.0746141056087455 0.1110118980897703 1.0574244352455482 255 255 255
-0.0422452759164055 0.1216995903660360 1.0505821912484843 255 255 255
0.0093517532185958 0.1431808144777026 1.0123071695076846 255 255 255
0.0410986597772127 0.1478067411699756 1.0072677498260718 255 255 255
0.0553779848386510 0.1673432866522578 1.0493977215120553 255 255 255
0.0519513375245418 0.1928809650211197 1.0375635554301259 255 255 255
0.0156838195795997 0.1951471865679129 1.0472153079657609 255 255 255
0.0357681868829171 0.2270075790000505 1.0515779747719636 255 255 255
-0.2499087188840096 0.3185502675998927 1.4470313527064176 255 255 255
-0.1418136078395243 0.3044438601819542 1.3279699002109737 255 255 255
-0.0068240609200551 0.2533995789977697 1.1474707545731981 255 255 255
-0.2243747206396323 0.3447666377255951 1.4754511591798345 255 255 255
-0.3422987424601905 0.3601779247755823 1.4027153887078425 255 255 255
-0.0257600468552834 0.2747156734604765 1.0715822757410574 255 255 255
-0.2686298043928481 0.3995980648142994 1.4717275455562970 255 255 255
-0.2149399919354687 0.4103983229146674 1.4066938627754990 255 255 255
-0.2588896066874044 0.4228784110527620 1.3993239763486593 255 255 255
0.3963903263723665 0.3994493283258074 1.3362801456302629 255 255 255
0.1565296191393777 0.3986413376306850 1.3050060383040647 255 255 255
0.2064844313932299 0.4511715749064451 1.3822154818953147 255 255 255
0.0830887709965228 0.4234775902110218 1.2727017992868852 255 255 255
-0.4839189129749137 0.4873981134494527 1.4437034146382366 255 255 255
-0.4659887791784499 0.5013943288828727 1.4481111580701569 255 255 255
0.1781867238939953 0.4741872965669979 1.3474445715058503 255 255 255
0.4675027336518512 0.4975752546667094 1.4207167743212439 255 255 255
-0.4506593416692118 0.5231954921485553 1.4229613445314142 255 255 255
-0.2617308379331632 0.4962486718240535 1.3596881255399607 255 255 255
-0.1916556442521102 0.4818968530965937 1.3235901331733635 255 255 255
0.0577426332356349 0.4822078886740540 1.2896829460745518 255 255 255
0.1960931812752683 0.4797553684540182 1.2724417200060372 255 255 255
-0.0966700508348949 0.4881704616890226 1.3001251235507389 255 255 255
0.0030925689223387 0.4877115593960666 1.2874109513191778 255 255 255
0.0259958601956576 0.4983005021905125 1.3145034605732537 255 255 255
0.2126901852680246 0.4698503177445850 1.2411975077272113 255 255 255
0.1533040283517736 0.4906514898026944 1.2964692760818208 255 255 255
0.2156977474377105 0.4999012263255248 1.2215147012772953 255 255 255
-0.0668736541677120 0.5226439818807173 1.2788397366608177 255 255 255
0.0429652234632434 0.5220926111309021 1.2476772426259881 255 255 255
-0.2183434592509829 0.5400792156319885 1.2851193416841620 255 255 255
0.0709548038266997 0.5245687659164096 1.2415445169753196 255 255 255
-0.1661314692927576 0.5387795969431610 1.2609065809754920 255 255 255
-0.1004225460012348 0.5305945962853522 1.2555292199649954 255 255 255
-0.3782764419726982 0.5707801574092275 1.3244881785438269 255 255 255
0.0037541805356018 0.5069989105885514 1.1816325866344111 255 255 255
-0.1253526982410536 0.5284217109623623 1.2252125186297604 255 255 255
-0.0329413493248358 0.5226691355713277 1.2094263544415640 255 255 255
0.1482891798783138 0.5469960412153672 1.2599269243473636 255 255 255
0.0189748879957479 0.5440360945443631 1.2357949877717966 255 255 255
-0.4550575288574150 0.5985163748883281 1.3516781129289073 255 255 255
-0.2506075161821034 0.5729880636304396 1.2907016405993403 255 255 255
-0.0603326959456383 0.5432009330738339 1.2202484668248790 255 255 255
-0.0093813514799638 0.5454039272629357 1.2197284880732280 255 255 255
-0.2654250251269658 0.5587520198154557 1.2566748627084070 255 255 255
-0.4181388400293195 0.6102139079016995 1.3345079385424139 255 255 255
0.0709231605351767 0.5657591611451792 1.2360455070211387 255 255 255
0.1357516251509781 0.5742696876856870 1.2488058377695022 255 255 255
-0.1621370476107577 0.5788985944949026 1.2456479020117912 255 255 255
0.0026327545455192 0.5678974977934486 1.2283055223394523 255 255 255
-0.0905216480080644 0.5665852741820009 1.2053580235255783 255 255 255
-0.2507825980316237 0.5784267483861455 1.2263594069607577 255 255 255
-0.1964910434309831 0.5850124847980384 1.2256512239896908 255 255 255
-0.0489532338790525 0.5686169722390928 1.1996562801453123 255 255 255
-0.4033095768927826 0.6279409607446791 1.3180825584733633 255 255 255
-0.4529293301348089 0.6276139212942666 1.3070796583279543 255 255 255
-0.0241487033676307 0.5229740482047220 1.0847858817932503 255 255 255
-0.2601681534009441 0.5953454661513958 1.2148116000731786 255 255 255
0.0347210365072578 0.6265847479379338 1.2455327509604095 255 255 255
0.1596613966997604 -0.4753817909952409 1.1817809859655859 255 255 255
-0.0731021440043758 -0.3549276922812939 1.1262062816417289 255 255 255
-0.1906279645992481 -0.3720416177608639 1.1847686047264940 255 255 255
-0.1071755880129778 -0.2958962192468182 1.1448049745071063 255 255 255
-0.0003137674700052 -0.1532650422701636 1.0352854406246959 255 255 255
0.0645613729893860 -0.1446223127562727 1.0216048636550275 255 255 255
-0.0400203261903811 -0.1234100197442103 1.0507331058678562 255 255 255
0.1103636258033641 -0.1212857546940380 1.0453414267188570 255 255 255
0.0843190014593920 -0.0791498816128071 1.0602086534755453 255 255 255
-0.0445326604901583 -0.0046169181476937 1.0719606681330467 255 255 255
0.1228932955966706 -0.0012856320308413 1.0646187472284485 255 255 255
0.0020607469312070 0.0957119271894016 1.0056672241030864 255 255 255
-0.0111773782284540 0.1201707008899316 1.1077613504324271 255 255 255
0.0284666091116993 0.1300640431111682 1.0081046844806061 255 255 255
0.0371511988978365 0.2408019995835436 1.1135639420650776 255 255 255
-0.2287089131850926 0.3599693700784104 1.4961390745348326 255 255 255
-0.2682525251469972 0.3971842190068943 1.4680987500115039 255 255 255
-0.2611130263373940 0.4311585555609660 1.4123714424058327 255 255 255
0.1701311237986199 0.4696249371794539 1.3374988003179602 255 255 255
-0.0272818670397733 0.5030770398564448 1.2882089225799715 255 255 255
-0.2590526172755834 0.5092826819460738 1.2657833958082385 255 255 255
0.0776731649540614 0.5401244922374794 1.3222321831725099 255 255 255
0.2522208301139514 0.5279529809671537 1.2645033433984638 255 255 255
0.1652864637321754 0.5303386280010701 1.1714946676728792 255 255 255
0.1386782503473641 0.5699773394015071 1.2567154444871151 255 255 255
-0.2128972483980933 0.5300698412770826 1.2627388870302485 255 255 255
-0.0728788834102165 -0.3539953598698498 1.1146065528505920 255 255 255
0.0996823461499333 -0.3173068761056309 1.0937803466850808 255 255 255
0.0608964946546578 -0.2935821472442466 1.0873987643766190 255 255 255
-0.1018554817801386 -0.2991055862267481 1.1522658544662814 255 255 255
0.1410645993364956 -0.2735807043285481 1.1009942342931658 255 255 255
0.0004600084288072 -0.1549677660142344 1.0264249489989963 255 255 255
0.0613066028780368 -0.1490330924515688 1.0281364158875008 255 255 255
-0.0381172128929408 -0.1230508821903816 1.0474799433672437 255 255 255
0.0257489052754215 -0.0861722739949511 1.0558751541317104 255 255 255
0.0888828889234995 -0.0765909938533008 1.0768500763111473 255 255 255
-0.0481308090138946 0.0006567559241015 1.0700397845355281 255 255 255
-0.1630068493793692 0.3070752683644222 1.4065317601747567 255 255 255
-0.2292955621621364 0.3699044482845367 1.5125840579487686 255 255 255
-0.0458254055513334 0.2896718530237115 1.1485652130169457 255 255 255
0.2558525237686254 0.3708154671073968 1.4230367842686571 255 255 255
-0.2672906929536965 0.3893820668359442 1.4357038848336312 255 255 255
-0.0273867308358794 0.3799139639624579 1.2520870116747755 255 255 255
-0.2626540948121775 0.4386582384563280 1.4169324601166720 255 255 255
0.2238525083649048 0.4814563196084529 1.2664097404189552 255 255 255
-0.0445347855251585 -0.3086824545586043 1.1308978710550930 255 255 255
0.0666544854991658 -0.2867976325971859 1.0949515013707307 255 255 255
0.1346720624426088 -0.2850078503082914 1.1344836157377254 255 255 255
-0.1507522054673067 -0.2661385651002427 1.2245650050673378 255 255 255
-0.0422297026550289 -0.0743175251714770 1.0939467589560157 255 255 255
-0.0441640931871975 0.3822308034449527 1.2613430338937131 255 255 255
-0.0751629420819338 -0.5272659454404162 1.2209922193320248 255 255 255
0.0941407149642318 -0.4851238185012606 1.1326594123309632 255 255 255
-0.1264591094828919 -0.5202703156342980 1.2902762007726933 255 255 255
0.0100659370491802 -0.3889949591197630 1.0494150989759550 255 255 255
-0.0005172242448536 -0.3645898694686285 1.0341338382243781 255 255 255
-0.0868883130709464 -0.3625935697922787 1.0834439834485263 255 255 255
-0.1375436831377629 -0.3389966297524588 1.0881967932616070 255 255 255
0.2506248960412703 -0.3461954201154552 1.1161252902443659 255 255 255
0.2642469352973683 -0.3274348106369922 1.1396796133228537 255 255 255
-0.0724182895749427 -0.3023763525111106 1.1637337164977921 255 255 255
0.2057888114385150 -0.3093456957230726 1.1233343860398601 255 255 255
-0.0296143929013782 -0.2900645012969256 1.1102496742527461 255 255 255
-0.0168435164949180 -0.2771641393661118 1.0778316342825702 255 255 255
0.0016030457165949 -0.2729100978543301 1.0650300373335293 255 255 255
0.0128146211609100 -0.2673161332510133 1.0640519556564041 255 255 255
0.0845081408537651 -0.2578320907514417 1.0476099771119407 255 255 255
-0.1977444906192195 -0.2882724185458504 1.2618743214064339 255 255 255
-0.1733454582485405 -0.2752347172289225 1.1918068867439036 255 255 255
-0.0776879775066201 -0.2482794986111557 1.0879045000722869 255 255 255
-0.0582926074500321 -0.2466590602868249 1.0808139275864224 255 255 255
-0.1513229586866210 -0.2462552233255174 1.1162811371838868 255 255 255
0.0159773012566470 -0.2356922170644461 1.0564535081320490 255 255 255
-0.0976434679800129 -0.2388399767066014 1.1043891301736397 255 255 255
-0.1682125907777849 -0.2499537942855956 1.1823733029837069 255 255 255
-0.1905639698487096 -0.2428863243280812 1.2106171256285083 255 255 255
-0.0975214085402506 -0.2196217737189334 1.0924297066041735 255 255 255
-0.1648878265670563 -0.2079859458959324 1.1676004757364880 255 255 255
-0.0415988771499199 -0.1922590269451138 1.0544705803802832 255 255 255
-0.0197839538303775 -0.1895091114144159 1.0574853872490413 255 255 255
0.0387455830720109 -0.1858333703310781 1.0460838046831082 255 255 255
-0.1523463610674541 -0.1960893827592475 1.1588527801311721 255 255 255
-0.1962767761233060 -0.1967111471421515 1.2276816022499015 255 255 255
0.0535240751281976 -0.1738117768058473 1.0448706525667395 255 255 255
-0.1228857476544531 -0.1540044310988301 1.0841592831094971 255 255 255
0.0476220983047064 -0.1546522150991431 1.0394846489314178 255 255 255
-0.0516333943275073 -0.1436465843565021 1.0363146955130687 255 255 255
-0.2044445989773697 -0.1663700403200578 1.2541024507001304 255 255 255
-0.1221732964507277 -0.1394065973867357 1.0809881648441384 255 255 255
-0.1342624301316717 -0.1387459231554784 1.0891405404159822 255 255 255
-0.0693778195642693 -0.1328583091014698 1.0490683836649579 255 255 255
-0.1627186897440875 -0.1350031584347068 1.1563544080079693 255 255 255
-0.0413566120095492 -0.1258871530316959 1.0706202518536561 255 255 255
0.0257024683009752 -0.1198063236280488 1.0431208180383240 255 255 255
-0.1496442448009171 -0.1042054532617464 1.1188643088072214 255 255 255
-0.1298903785204649 -0.1029744273759872 1.0876634987548626 255 255 255
-0.0864779332667888 -0.0986221317334051 1.0875792344747375 255 255 255
-0.2405791442266140 -0.1146006591190623 1.3802209531658840 255 255 255
0.0637192660838006 -0.0964303427874428 1.0529708283078696 255 255 255
-0.1341802551140535 -0.0909848736200307 1.1105141337346804 255 255 255
0.0064337337578658 -0.0916719474625347 1.0657459085696097 255 255 255
-0.0332643672644157 -0.0897054833696702 1.0812846624469719 255 255 255
-0.2984704946667724 -0.1126689839679385 1.4515559003630321 255 255 255
-0.0252815611857553 -0.0869983610667869 1.0838425381274162 255 255 255
-0.0986984764161793 -0.0847680664768279 1.0915297150679244 255 255 255
0.0460690669770708 -0.0797398737039084 1.0347675227884039 255 255 255
-0.1379756439718834 -0.0697166859309069 1.1258783987904111 255 255 255
-0.1380599682775213 -0.0527826708619750 1.1806413973153134 255 255 255
0.1309622361526869 -0.0492690900437144 1.0929269328557740 255 255 255
-0.1241092988264682 -0.0444647073911390 1.1207826193118129 255 255 255
-0.3076510521623117 -0.0457432963978829 1.4598816364512464 255 255 255
-0.1885324300722618 -0.0425724400798143 1.2840232909210785 255 255 255
-0.2756381528701469 -0.0351966178693781 1.4517749348565636 255 255 255
-0.0927252668687765 -0.0327895622166279 1.0800626665730280 255 255 255
0.1245189198679685 -0.0316496077926924 1.0863560935101348 255 255 255
-0.2411546565997634 -0.0279534363369725 1.3582606076410315 255 255 255
-0.0057242661753414 -0.0069853177982585 1.0369603406934493 255 255 255
-0.2451411005913527 -0.0018767947188334 1.4702988195564342 255 255 255
-0.2007216380727119 0.0015236575803797 1.2395559258007665 255 255 255
-0.2570219543015371 0.0413755858762407 1.3992938428899830 255 255 255
-0.1208720780691601 0.0389026575595221 1.1105821717605904 255 255 255
0.0034121269041928 0.0328948412455705 0.9820035501010556 255 255 255
0.0141266939304138 0.0405948865456105 0.9595502730746985 255 255 255
-0.1340481999353846 0.0553193779729764 1.1103332093353202 255 255 255
-0.1244639455602940 0.0619128204547275 1.1045395143967500 255 255 255
-0.0392874148833764 0.0771506531860223 1.0568472587513595 255 255 255
-0.0160793381358702 0.0838780953366383 1.0296619965777671 255 255 255
-0.0137506270780486 0.0956422937177653 1.0176477803107842 255 255 255
-0.0274667535240946 0.1015970534146668 1.0346930922656128 255 255 255
-0.0390695223871646 0.1071807894747776 1.0370060695041181 255 255 255
-0.1164220146370672 0.1211393014970861 1.1065649490686500 255 255 255
-0.0849277225976362 0.1184448469422974 1.0679404197231401 255 255 255
-0.0987362141673556 0.1371529280962448 1.0769517131625170 255 255 255
-0.1149099707147156 0.1485589144680194 1.0991884852268898 255 255 255
-0.1880806191339514 0.2136591636919789 1.4925976404325711 255 255 255
-0.0894673309976573 0.1514723033213300 1.0831789952451665 255 255 255
0.0014739466697924 0.1570359659557035 1.0210328067527918 255 255 255
-0.1330235891559914 0.2278246277775749 1.2848599152748597 255 255 255
0.0378399872293875 0.1914625082409847 1.0456834399145829 255 255 255
-0.0750284942710920 0.2094737190357217 1.0852699093753735 255 255 255
-0.0847338051088677 0.2147267517752377 1.0972772541592015 255 255 255
-0.0376800334312694 0.2134578700502519 1.0595809082423797 255 255 255
-0.0080844647421584 0.2047709638393968 1.0458919733841125 255 255 255
0.0242394110381930 0.2213453868930676 1.0326495449062019 255 255 255
-0.0425179723834853 0.2330938142910291 1.0795351273580007 255 255 255
-0.0287749007008621 0.2273490364280163 1.0497959254236227 255 255 255
-0.1272088896088596 0.2743168123921101 1.2647464548834635 255 255 255
-0.0624588024136131 0.2623616223166633 1.1213398283908291 255 255 255
-0.0480022816447013 0.2544901763091861 1.0691041227420808 255 255 255
-0.0412787049715123 0.2530979147773075 1.0601469744557857 255 255 255
-0.1136096560465203 0.3075423074710157 1.2927706605707872 255 255 255
0.4712348355528669 0.4236829723908036 1.5508456981700802 255 255 255
0.4176233321708437 0.3727580171421206 1.3387652685617322 255 255 255
-0.3941993271794542 0.4154224988032814 1.5435688353863231 255 255 255
-0.0162204269432496 0.3525751054595968 1.2196034425235154 255 255 255
-0.4195002384056423 0.4250577948328890 1.5226205645090403 255 255 255
-0.0353537052555709 0.3593111133919023 1.2161752135507400 255 255 255
-0.0621900851773419 0.3728137447341544 1.2388793463442729 255 255 255
0.2766879080360183 0.4034698693353839 1.2618711356965437 255 255 255
0.6383074298407989 0.4975705038935072 1.4862860352540777 255 255 255
0.2964582860968611 0.4496991863932482 1.2804812682205493 255 255 255
-0.3635618356137542 0.4607053255609765 1.4123958964577084 255 255 255
-0.2249073035340789 0.4664403235106796 1.3799069022272172 255 255 255
0.5450970849032568 0.5327737688060012 1.4465379197044494 255 255 255
0.2411680876613874 0.4537139908254164 1.2455587786051197 255 255 255
-0.1728757601626602 0.4699698753397695 1.3634372328602187 255 255 255
0.4458983063811005 0.5106024655457795 1.3603554651215373 255 255 255
-0.4574470588513321 0.4764937781553829 1.4388134209561432 255 255 255
-0.4302752271647218 0.4850090993968069 1.4319487595836560 255 255 255
0.4971532004806941 0.5468095123639393 1.4316241824960299 255 255 255
-0.4414837389218614 0.4961827015701568 1.4366267294286699 255 255 255
-0.3811125529988963 0.4831498077409545 1.3874064846045633 255 255 255
-0.4158263641025231 0.4973291442722558 1.4261009838765704 255 255 255
-0.4295182446764463 0.4981073918232156 1.4195610531629621 255 255 255
-0.3726554867835121 0.4874895139482550 1.3772827452063490 255 255 255
0.3025664367437068 0.5140159545535017 1.3044871884926659 255 255 255
-0.4527721297322803 0.4946251262572442 1.3828856965090879 255 255 255
0.2098746725984647 0.4979321853395288 1.2947066381432402 255 255 255
0.5586818135792430 0.5668274082749846 1.3906392776569634 255 255 255
0.4219614512365769 0.5469310194137076 1.3525625997292055 255 255 255
-0.3895703941998280 0.5034333663965708 1.3773519140488817 255 255 255
0.1939553688825690 0.5015854907214018 1.2721747156587739 255 255 255
0.2985855859785947 0.5247541633416425 1.3014543253937627 255 255 255
0.3938063688637721 0.5447394225551390 1.3303532750987490 255 255 255
0.2073518067321146 0.5303713038367384 1.3101111263591541 255 255 255
-0.3949283447157235 0.5112393231427720 1.3750510751781757 255 255 255
-0.3779066529315920 0.5103411585648833 1.3637641258634319 255 255 255
0.1491890647220468 0.5254308817980033 1.3047300138499203 255 255 255
0.5528926499496060 0.5849535274898151 1.3846474769854102 255 255 255
0.0106012330127119 0.5014705094653141 1.2566204775409786 255 255 255
-0.3596030333065718 0.5129338857934265 1.3513159313926020 255 255 255
0.0475535858516376 0.5033283627597669 1.2517911314840180 255 255 255
0.3812072389205832 0.5724900877373928 1.3576964804927809 255 255 255
