ply
format ascii 1.0
element vertex 684
property double x
property double y
property double z
property uchar red
property uchar green
property uchar blue
end_header
-0.0651427699768872 0.0696722128568644 1.0872521959143659 255 255 255
0.2777534494736657 0.0961728639336017 1.3722576664800763 255 255 255
0.0352702087280352 0.0665409657839301 0.9943946576533448 255 255 255
-0.0414079268075963 0.1089069792099307 1.0784985790885573 255 255 255
0.0094259600194273 0.1124803146849417 1.0450049626251701 255 255 255
-0.0642620624090203 0.1331555422475098 1.0805818120771626 255 255 255
-0.0351411316863093 0.1429471588758874 1.0735371151546513 255 255 255
0.0117678452449991 0.1622603150386358 1.0397772371987140 255 255 255
0.0408205483083564 0.1665874226811219 1.0354710457972622 255 255 255
0.0533133558071439 0.1845739470976807 1.0725625060863408 255 255 255
0.0505818861063503 0.2080402138644545 1.0620492039914149 255 255 255
0.0172626419178225 0.2098297728786250 1.0701703752797169 255 255 255
0.0356084164422535 0.2391264217980919 1.0739682886798598 255 255 255
-0.2077166883572839 0.3127665746712259 1.3924614471931076 255 255 255
-0.1189867431300056 0.3039493624982214 1.3067561761673503 255 255 255
-0.1854403280105865 0.3353815122460899 1.4205512954646826 255 255 255
-0.2900715601061423 0.3512242784209364 1.3705434457727361 255 255 255
-0.0206739629140328 0.2813411270826303 1.0897317613385267 255 255 255
-0.2231369833337570 0.3803081038793884 1.4123027926721226 255 255 255
-0.1806455701228450 0.3923112936394493 1.3648659802131793 255 255 255
-0.2178897630393455 0.4026026590941911 1.3577985028516781 255 255 255
0.3406357209369679 0.3858547342418392 1.3043204805275090 255 255 255
0.1374125939331103 0.3858872833177762 1.2831863763886335 255 255 255
0.1769410014242571 0.4270502666987107 1.3385782884294057 255 255 255
0.0748625243946338 0.4091477745196094 1.2616120094163232 255 255 255
-0.4043943745746110 0.4545058709364863 1.3892446758326280 255 255 255
-0.3917305491182064 0.4672621158234034 1.3977706213636925 255 255 255
0.1531524001104340 0.4471117824291504 1.3088463535800248 255 255 255
0.3938840292412795 0.4648041768615014 1.3675569561359129 255 255 255
-0.3806654628201309 0.4869730603294988 1.3790235092505148 255 255 255
-0.2203077018625550 0.4645237637579607 1.3197403381895907 255 255 255
-0.1633316023457579 0.4578999728103320 1.3035609358247686 255 255 255
0.0523100783791569 0.4578657582720057 1.2687374666934224 255 255 255
0.1736074626266538 0.4604319845164804 1.2681888677241409 255 255 255
-0.0812165308389595 0.4624971183919386 1.2784344947085096 255 255 255
0.0050218731549281 0.4639418425524602 1.2715488518501170 255 255 255
0.0251424663344047 0.4712136767715416 1.2913847785258374 255 255 255
0.1900922059568017 0.4533068223597165 1.2425935369648713 255 255 255
0.1339697951334082 0.4632046452499782 1.2698374249137949 255 255 255
0.1935433387734240 0.4810623128575351 1.2276685115333847 255 255 255
-0.0560723308820891 0.4941105064862690 1.2632385094300957 255 255 255
0.0397971130418485 0.4947444115315604 1.2358757143074712 255 255 255
-0.1886707346000494 0.5087624653051923 1.2692481148533057 255 255 255
0.0646980663693263 0.4986785786557759 1.2351983393003274 255 255 255
-0.1422837338904582 0.5079662293090598 1.2463460781096170 255 255 255
-0.0855516896588253 0.5027213314105713 1.2460721991250674 255 255 255
-0.3279294766669646 0.5368811873470127 1.3140062612301771 255 255 255
-0.1081371097815467 0.5028408833419254 1.2223640227451633 255 255 255
-0.0267347387240859 0.4978750877214810 1.2067804346002484 255 255 255
0.1300053754261734 0.5143214496446095 1.2424019859404056 255 255 255
0.0182772497242488 0.5138081671325865 1.2253609524752247 255 255 255
-0.3850622530357438 0.5509107627927924 1.3147240551715638 255 255 255
-0.2162262720641235 0.5388216556963157 1.2788944773639968 255 255 255
-0.0511163404335681 0.5151766719314594 1.2156878687123980 255 255 255
-0.0063677820719885 0.5167708711122758 1.2142670661095225 255 255 255
-0.2305981841484609 0.5272267723205424 1.2484357442481586 255 255 255
-0.3567000670662680 0.5644885563108419 1.3065771570918459 255 255 255
0.0633590291021777 0.5322847868102275 1.2243178693321164 255 255 255
0.1188110608404051 0.5376386306377234 1.2320348853280334 255 255 255
-0.1399927272170173 0.5459603711736578 1.2403813400848049 255 255 255
0.0043919205472376 0.5358671901284900 1.2210007460583086 255 255 255
-0.0781986923185017 0.5361365270684472 1.2037306849257836 255 255 255
-0.2195357129983629 0.5471979283774744 1.2261854847164750 255 255 255
-0.1725355822132398 0.5505997060501954 1.2190473488749780 255 255 255
-0.0414919319984786 0.5382153759916146 1.1982278754743092 255 255 255
-0.3434644726968172 0.5784765725084801 1.2891439898197592 255 255 255
-0.3885130796487671 0.5811337345848265 1.2856426118300015 255 255 255
-0.2272435651244894 0.5600889668491735 1.2103098525573037 255 255 255
0.0318382698253969 0.5841789202808190 1.2328071144972439 255 255 255
0.1460052226173185 -0.3798457318804689 1.1840866883362462 255 255 255
-0.0599888192818100 -0.2824750251582577 1.1427776438372894 255 255 255
-0.1631173584624169 -0.2865616165592546 1.1833072316004438 255 255 255
-0.0904244871572218 -0.2279501253786712 1.1577398968428196 255 255 255
0.0038180249510510 -0.1059594290074030 1.0598977140613124 255 255 255
0.0626562414809000 -0.0988970079676414 1.0489429594508439 255 255 255
-0.0319619787502571 -0.0786500116875687 1.0747563879131525 255 255 255
0.1036951843821144 -0.0771492490316218 1.0715300014705100 255 255 255
0.0799945074564964 -0.0378034197730563 1.0829839494718327 255 255 255
-0.0364717801838604 0.0295801499847885 1.0926966538690004 255 255 255
0.1145401239424226 0.0320835807875371 1.0884719847778053 255 255 255
0.0051139832414173 0.1187035225244664 1.0333717658659007 255 255 255
-0.0065844134986640 0.1425409806064636 1.1233831551320737 255 255 255
0.0294368379964874 0.1505971162187619 1.0359466942605673 255 255 255
-0.1884162041362096 0.3476223568384256 1.4357423118446861 255 255 255
-0.2229680303228513 0.3784075168258980 1.4096516769774972 255 255 255
-0.2180413303597168 0.4070044340476037 1.3588925412933353 255 255 255
0.1493752226212633 0.4463393865259758 1.3116595046740860 255 255 255
-0.0215670512534166 0.4759994567289805 1.2688613965219131 255 255 255
-0.2247576951076146 0.4854137607905706 1.2606582057721969 255 255 255
0.0691259297860597 0.5078520720491329 1.3000480204086071 255 255 255
0.2232410369738864 0.5021614764106096 1.2597167791736414 255 255 255
0.1478873382832476 0.5061235988572449 1.1736317797216604 255 255 255
0.1215280451813037 0.5340044863021028 1.2390469919421181 255 255 255
-0.1843271220873557 0.5033043420558247 1.2564179835799465 255 255 255
-0.0605689691767618 -0.2794628917238151 1.1269864973498831 255 255 255
0.0937918122542242 -0.2493488716645740 1.1111186358597542 255 255 255
0.0590304045376477 -0.2281267466200115 1.1057355484591058 255 255 255
-0.0861217633196795 -0.2282317503481345 1.1610961194930089 255 255 255
0.1301572708287461 -0.2061511777807507 1.1126847008515139 255 255 255
0.0046929112530457 -0.1079761390091938 1.0523593244212381 255 255 255
0.0598244585130459 -0.1024911252538604 1.0539478724449225 255 255 255
-0.0306953248643372 -0.0781150419516085 1.0705923125550285 255 255 255
0.0270737928030585 -0.0440053439689752 1.0778152258322391 255 255 255
0.0837958846214955 -0.0344580957842369 1.0964462928682324 255 255 255
-0.0396331556587056 0.0341509506071742 1.0913690565012386 255 255 255
-0.1358122731080474 0.3042513953649676 1.3634351337256003 255 255 255
-0.1883618108838840 0.3555170283876584 1.4478917211660971 255 255 255
-0.0378886831671363 0.2935761026858800 1.1554990384805910 255 255 255
0.2182383047725082 0.3588812089333745 1.3746240512050285 255 255 255
-0.2235045910662296 0.3728962475962098 1.3855035704327310 255 255 255
-0.0214326107670136 0.3706826800929443 1.2406266321113040 255 255 255
-0.2186298044425256 0.4135824457001465 1.3648033207686294 255 255 255
0.1960742329441482 0.4586097274031165 1.2499896712633405 255 255 255
-0.0357456761044893 -0.2365081782124182 1.1408198135302221 255 255 255
0.0638480557501953 -0.2213722753282062 1.1121075539021887 255 255 255
0.1240371150120593 -0.2146123278124843 1.1417342541567890 255 255 255
-0.1277802123396947 -0.1932907919072261 1.2207043871619598 255 255 255
-0.0337706335547764 -0.0322974794794257 1.1127061156473157 255 255 255
-0.0360685951095168 0.3726147367656518 1.2489821743070066 255 255 255
-0.0579086469458330 -0.4282456664685916 1.2267686894554164 255 255 255
0.0905355508010268 -0.3946502983048298 1.1445913279413882 255 255 255
-0.1021220685841714 -0.4142697337209368 1.2823856431293497 255 255 255
0.0145987351890778 -0.3191724724416199 1.0728747167735759 255 255 255
0.0049543609476777 -0.2991340633912487 1.0596039410797673 255 255 255
-0.0720592548408225 -0.2952155289289788 1.1070077254926640 255 255 255
-0.1181076674322429 -0.2754950865596367 1.1134806447578316 255 255 255
0.2278129230293981 -0.2660618196788725 1.1252327720112927 255 255 255
0.2381729524153622 -0.2488250169348404 1.1447047877090306 255 255 255
-0.0211560791484978 -0.2249788643441706 1.1267419701092622 255 255 255
-0.0103592373901661 -0.2155720884180703 1.0975298034354950 255 255 255
0.0061743602266004 -0.2123574775157126 1.0860338883756990 255 255 255
0.0164452316179289 -0.2069826674263945 1.0852881416633020 255 255 255
0.0809787952659983 -0.1996840372610417 1.0717483252540922 255 255 255
-0.1662972684974429 -0.2168592584723989 1.2644381686575981 255 255 255
-0.1475101172213109 -0.2088548433791623 1.2018008500393798 255 255 255
-0.0646252395259302 -0.1901292883706720 1.1089207776133487 255 255 255
-0.0472711229200869 -0.1890426511674434 1.1025912783179950 255 255 255
-0.1301255399824414 -0.1889076474740604 1.1378751696671281 255 255 255
0.0189758250429467 -0.1789860026081808 1.0782248487909496 255 255 255
-0.0821739074740785 -0.1813538117461282 1.1248296426001363 255 255 255
-0.1429495063952627 -0.1874871783932567 1.1952846562098363 255 255 255
-0.1620265946424718 -0.1800606916996217 1.2207168000192534 255 255 255
-0.0824261913649477 -0.1648148577682972 1.1143236848656817 255 255 255
-0.1406196435151679 -0.1507976490245407 1.1823354088473841 255 255 255
-0.0328792793071699 -0.1410910700742059 1.0787245762055604 255 255 255
-0.0134769547164618 -0.1378417367706606 1.0799345400740459 255 255 255
0.0391922073204436 -0.1337914939168683 1.0684938228314804 255 255 255
-0.1298597655926386 -0.1400528893170661 1.1740455506434682 255 255 255
-0.1664455226297127 -0.1371181980070615 1.2352201966245651 255 255 255
0.0525514138177491 -0.1230386887811153 1.0672234128501823 255 255 255
-0.1058070466781570 -0.1062627859104568 1.1078354191429076 255 255 255
0.0470956277587049 -0.1062994082731185 1.0623711891226257 255 255 255
-0.0423628783433440 -0.0982069658629845 1.0628173056678913 255 255 255
-0.1729252571404714 -0.1085926373861795 1.2564462859235404 255 255 255
-0.1053169175420925 -0.0932226468679850 1.1048979165211299 255 255 255
-0.1160160276112093 -0.0924463605404103 1.1125011691507007 255 255 255
-0.0582335147504450 -0.0880401142799037 1.0747846750390839 255 255 255
-0.1393370542248019 -0.0859472407243466 1.1721685975617622 255 255 255
-0.0325637787433294 -0.0797740823497086 1.0927827149619269 255 255 255
0.0272062537906999 -0.0749293786304150 1.0662019352273548 255 255 255
-0.1289862238957342 -0.0600264344280855 1.1390854860897566 255 255 255
-0.1122154146802329 -0.0599353399593131 1.1106577594644553 255 255 255
-0.0731592359674426 -0.0551511182605624 1.1087588394264214 255 255 255
-0.1999675148112543 -0.0572066055108256 1.3575985485994881 255 255 255
0.0609486507281223 -0.0522928352969744 1.0732021337258819 255 255 255
-0.1153643519256510 -0.0482298110443425 1.1310346886508664 255 255 255
0.0096822216822375 -0.0483712940892326 1.0862520239280256 255 255 255
-0.0260765762082922 -0.0461769247418168 1.0996936549087146 255 255 255
-0.2463424780009647 -0.0528596199706544 1.4194235162702746 255 255 255
-0.0186043519705463 -0.0439360724903014 1.1031753854408071 255 255 255
-0.0841767509134771 -0.0427201349660832 1.1127072095154067 255 255 255
0.0456538561524612 -0.0391879444877047 1.0592494651664532 255 255 255
-0.1184587278075972 -0.0284235230996302 1.1442125751000216 255 255 255
-0.1171605227702774 -0.0106057076094412 1.1905900696597123 255 255 255
0.1203985706529805 -0.0074512397954750 1.1068861643162577 255 255 255
-0.1063031271005570 -0.0056771757169755 1.1391069992916207 255 255 255
-0.2536426469019714 0.0037752042042512 1.4316306461230455 255 255 255
-0.1582880589844569 0.0020106791582987 1.2789724294829885 255 255 255
-0.2267567264211435 0.0129881631629507 1.4192777261343170 255 255 255
-0.0791282983033980 0.0035808226616574 1.1026867953403494 255 255 255
0.1159742964690995 0.0061356776979814 1.1061990434476803 255 255 255
-0.2012874710842177 0.0168846045728155 1.3422698185711348 255 255 255
-0.0014446963808046 0.0266327818287002 1.0617675806517630 255 255 255
-0.2001438187465586 0.0423114756775749 1.4307222597979143 255 255 255
-0.1708924152856934 0.0384218343244961 1.2433137909638301 255 255 255
-0.2133003279872264 0.0774864467017885 1.3776950227888656 255 255 255
-0.1042866642182734 0.0688383380322207 1.1292118973929837 255 255 255
0.0061334988200723 0.0613245045669299 1.0120043960383363 255 255 255
0.0158439642620573 0.0679095652121195 0.9914695405525881 255 255 255
-0.1162169387972630 0.0834740586205235 1.1296532372539851 255 255 255
-0.1077559760445325 0.0893208033056178 1.1241845102481356 255 255 255
-0.0322182594902713 0.1028196192660307 1.0791686190945200 255 255 255
-0.0117135675855816 0.1085977337307306 1.0543114410387218 255 255 255
-0.0095994403267818 0.1189590737021116 1.0439405948825160 255 255 255
-0.0218089133140388 0.1245733870722492 1.0596919080573801 255 255 255
-0.0322845344033684 0.1296442078822807 1.0617990417139804 255 255 255
-0.1009419258738055 0.1427526161876798 1.1247774184208978 255 255 255
-0.0734403634599441 0.1399012262597491 1.0900687102860807 255 255 255
-0.0859158292310078 0.1568039711286452 1.0981345388216879 255 255 255
-0.1000331472135892 0.1672247599554775 1.1179071415645236 255 255 255
-0.1524958851415308 0.2255534879256728 1.4380921584196436 255 255 255
-0.0774505934950386 0.1698530308275653 1.1031446854245739 255 255 255
0.0044291046143408 0.1752269561705832 1.0469632744972477 255 255 255
-0.1115308031687056 0.2379728423454723 1.2737890321726819 255 255 255
0.0374747217210157 0.2067447084579450 1.0688448280702727 255 255 255
-0.0650014448825651 0.2221583346722567 1.1034753108848745 255 255 255
-0.0733528702820914 0.2268769652995528 1.1144624461111778 255 255 255
-0.0312501739717742 0.2261155978224858 1.0808620632231016 255 255 255
-0.0048186965330493 0.2184064764028242 1.0675117934193288 255 255 255
0.0241774177237818 0.2335803310444969 1.0552885908404150 255 255 255
-0.0368039034129773 0.2432705238981011 1.0960189500238180 255 255 255
-0.0237331980896703 0.2387260712179351 1.0714088889452658 255 255 255
-0.1074246644224211 0.2786416621372218 1.2563304189422331 255 255 255
-0.0534160039045190 0.2695869755410814 1.1335768858539463 255 255 255
-0.0412017709547577 0.2628576774015172 1.0881963167670108 255 255 255
-0.0349119489524736 0.2617756672451236 1.0807997014180546 255 255 255
-0.0953963742036938 0.3070440253102228 1.2773530201294501 255 255 255
0.3935150265127335 0.4009614344758226 1.4780277510983473 255 255 255
-0.3263399032407537 0.3976516068813510 1.4944812798842355 255 255 255
-0.0118697508237913 0.3477852702141191 1.2142048065687123 255 255 255
-0.3495718485159304 0.4069322488768482 1.4811365498295810 255 255 255
-0.0289852272435266 0.3532977126969291 1.2106550558822149 255 255 255
-0.0520183767483149 0.3649545909189420 1.2309418474417921 255 255 255
0.2385358882791118 0.3895868034238666 1.2385477340635656 255 255 255
0.5186535875892362 0.4577426784770299 1.3989076855320794 255 255 255
0.2554109584726715 0.4291386500908054 1.2553325034557232 255 255 255
-0.3081789050194685 0.4404491319603410 1.3912927760596583 255 255 255
-0.1901837867071041 0.4405923127801528 1.3431070607911921 255 255 255
0.4502678856802241 0.4900577485635168 1.3772199053127931 255 255 255
0.2099053457582216 0.4342791622121233 1.2288988674152370 255 255 255
-0.1451639258839538 0.4463744737469524 1.3367720507405618 255 255 255
0.3883692898573948 0.4836494115737278 1.3439063768813098 255 255 255
-0.3887302920974481 0.4550376366058531 1.4209077955391327 255 255 255
-0.3653549949225917 0.4616188825876298 1.4122690400290692 255 255 255
0.4148286355602797 0.5039425318848084 1.3709218343500316 255 255 255
-0.3748407817359219 0.4713269365814646 1.4170754158122478 255 255 255
-0.3251955856128845 0.4608417598784386 1.3724248234537380 255 255 255
-0.3529218173066925 0.4696225742728080 1.3976431258013131 255 255 255
-0.3660365800650297 0.4723973094689622 1.3998515582607070 255 255 255
-0.3183425875621303 0.4647329694612077 1.3633438123798818 255 255 255
0.2655812612619506 0.4881798566891185 1.2931205483393440 255 255 255
-0.3891561895048747 0.4713402653943310 1.3728860201790893 255 255 255
0.1815341339093141 0.4701622632497773 1.2680589476143977 255 255 255
0.4650882299385046 0.5205382598189903 1.3350035031990730 255 255 255
0.3647170878856869 0.5124001925187786 1.3250992902979069 255 255 255
-0.3333223695871788 0.4785958450685522 1.3635908018859710 255 255 255
0.1721291534308649 0.4779769114660230 1.2635169935804962 255 255 255
0.2622261134678934 0.4976514529898707 1.2907189881034411 255 255 255
0.3465275477582548 0.5179054446768350 1.3278455394154871 255 255 255
0.1765049201159669 0.4946449426349261 1.2751808857430191 255 255 255
-0.3382527019057293 0.4829069190368383 1.3543831034066285 255 255 255
-0.3243174546873694 0.4838604256495900 1.3491754050141260 255 255 255
0.1277076966219646 0.4913434864754726 1.2727559779004647 255 255 255
0.4556302814222640 0.5326355469134429 1.3219183607123013 255 255 255
0.0111764091326413 0.4761450649898742 1.2429226232779347 255 255 255
-0.3089903228950007 0.4870132627291999 1.3396728901733532 255 255 255
0.0423527263110364 0.4768452866838142 1.2359144713416825 255 255 255
0.3239067472789545 0.5300803929223531 1.3172697405563973 255 255 255
0.4661747912926384 0.5327933587967948 1.3060025260246069 255 255 255
0.1396792521573194 0.5037172663395266 1.2717812299118088 255 255 255
0.3468272175139191 0.5359577554292868 1.3149578452851658 255 255 255
-0.3349108182686537 0.4980510996948209 1.3414024101958337 255 255 255
0.4576663076554546 0.5488563321822786 1.3131094034503323 255 255 255
0.4007196277607926 0.5484807018391006 1.3063513266602456 255 255 255
0.0375438579066403 0.4919654173280301 1.2306139712965423 255 255 255
-0.3407578470424419 0.5050611634006076 1.3353266761937819 255 255 255
-0.3702706816116404 0.5158000218539743 1.3663145016850058 255 255 255
0.1794398406802768 0.5115354024289488 1.2154755534913040 255 255 255
0.2618936781744239 0.5278681476506362 1.2520385426861820 255 255 255
0.2127787882124115 0.5116294298579023 1.2324114028265323 255 255 255
-0.4020821231748964 0.5126739755749015 1.3376049462926951 255 255 255
-0.3665593314958281 0.5220380592561291 1.3505817668461813 255 255 255
0.0064543625482218 0.5017003512798217 1.2255728243768522 255 255 255
-0.3719630307574117 0.5383876774825425 1.3824779898749917 255 255 255
0.3403827094304007 0.5502766248274175 1.2630927443060860 255 255 255
-0.3868346393183145 0.5266005049864059 1.3467159151798407 255 255 255
0.4510082241918805 0.5801668268821956 1.2975731821821470 255 255 255
-0.3170401814633876 0.5325780603855751 1.3184870552584680 255 255 255
-0.2966628250324693 0.5334583175673518 1.3190817554240852 255 255 255
-0.2895528333563363 0.5329792526624786 1.3057048570538818 255 255 255
0.4080431973491345 0.5875540815556308 1.3023543414441308 255 255 255
-0.0421428160748077 0.5089759510214099 1.1766410658981028 255 255 255
-0.4007829162996434 0.5348677013416989 1.3097773682070499 255 255 255
0.4553242255275977 0.5953795842089861 1.2886646383716716 255 255 255
0.4148023847643117 0.6000542823875338 1.3056755105954512 255 255 255
-0.3413384724056122 0.5419535223857718 1.3095289633931120 255 255 255
0.3612283430819915 0.5875030174891118 1.2747795308506071 255 255 255
-0.3011203414008436 0.5480208835110283 1.2997681195782915 255 255 255
0.3908899822570535 0.5988954263623427 1.2781545446341867 255 255 255
-0.1797686858685530 0.5149973758313474 1.1762140582072045 255 255 255
0.0604281305107956 0.5561493641688053 1.2349028844776677 255 255 255
0.0992982899415917 0.5598904998097965 1.2388446227812244 255 255 255
-0.2733641555750778 0.5448443582353580 1.2706069858521265 255 255 255
0.4485463464994219 0.6154307048705674 1.2888612485924857 255 255 255
-0.1951002674869301 0.5238734606590000 1.1866745060658024 255 255 255
-0.4089251245139484 0.5524962979315634 1.3021695812952525 255 255 255
0.3724951429012283 0.6105485933957492 1.2797498360988449 255 255 255
-0.3808654334349921 0.5633684539746157 1.3145776326634862 255 255 255
-0.2982369190056142 0.5619457131817736 1.2901919362212217 255 255 255
-0.3132330102127119 0.5626012309520662 1.2911144560254988 255 255 255
-0.1666377257822837 0.5499343583706688 1.2224889983634613 255 255 255
0.2466452563632865 0.5902726996141238 1.2268262967116981 255 255 255
0.3576213208644312 0.6162644529058134 1.2642173411253801 255 255 255
-0.2367332437434460 0.5499288851163512 1.2228797742978594 255 255 255
-0.3513574915771135 0.5803177585322703 1.3126713222736579 255 255 255
-0.3373213094205522 0.5733793541905672 1.2912043090334528 255 255 255
-0.2971379848110371 0.5723999065402401 1.2836300518264203 255 255 255
-0.1317110592291211 0.5580744601717560 1.2091706114119123 255 255 255
0.3340624539652107 0.6215663580156754 1.2630307245153252 255 255 255
-0.3614221672537632 0.5869757051147623 1.3107469630182798 255 255 255
-0.3543296064952952 0.5826955044968845 1.2964698075809922 255 255 255
-0.2880179004532364 0.5776705486680013 1.2745514305007659 255 255 255
-0.1876186158280170 0.5691708326410110 1.2214153356840929 255 255 255
0.0949451543930051 0.5695145358278534 1.1810302212503856 255 255 255
-0.3723015161059416 0.5840669582037771 1.2972609395097126 255 255 255
0.2735355626187165 0.6203303441951474 1.2503649334806928 255 255 255
-0.1574887715219415 0.5693467817195699 1.2200226160104468 255 255 255
0.3306452937657063 0.6327950348904890 1.2526743524396140 255 255 255
0.3498998278311052 0.6353888979698460 1.2515241666797241 255 255 255
0.3671959953903678 0.6350436553259096 1.2484970249088609 255 255 255
-0.2571612662119563 0.5707122497322942 1.2168102129259823 255 255 255
-0.0314209168065792 0.5826287485976572 1.1962706104823797 255 255 255
-0.2015141962187896 0.5714562459608545 1.1986817915396708 255 255 255
-0.2316457247821598 0.5681886279250505 1.1939665520757790 255 255 255
-0.1642214436035588 0.5809773708558010 1.2078706348307890 255 255 255
0.1638931263897780 0.6141343684141696 1.2082671153521911 255 255 255
-0.0076891992607570 0.5850032253954757 1.1716635667272799 255 255 255
0.2782503831183430 0.6390416057058892 1.2326886998520095 255 255 255
-0.1703468721492965 0.5896458426310089 1.2027928539675738 255 255 255
0.1065332471652665 -0.4216616026160177 1.2200646947091922 255 255 255
0.1474009510675912 -0.3499960962586811 1.0965700418615441 255 255 255
-0.0056514283823894 -0.3162019948868685 1.0917541101870907 255 255 255
0.1876810560137160 -0.3217382135163462 1.0979958053653196 255 255 255
-0.1575614057191191 -0.3617368522288506 1.3544072485494818 255 255 255
-0.1628335582452368 -0.3422880403809083 1.3516092844981471 255 255 255
0.1962841947092021 -0.2915651729937858 1.1096538433216496 255 255 255
0.0024521243247399 -0.2912622746394553 1.1516404774606837 255 255 255
-0.1901222427580498 -0.3179671467797016 1.3526519015622001 255 255 255
-0.0117855140403739 -0.2639334071483462 1.1185872072244001 255 255 255
0.0534966484139071 -0.2582164593161632 1.1015915127099285 255 255 255
0.0034580871411958 -0.2546774824923873 1.1274545288478071 255 255 255
0.2278456635773113 -0.2642432262179880 1.1466068617205973 255 255 255
-0.0851639996420120 -0.2574934111425066 1.1672738824680242 255 255 255
-0.0575774823090871 -0.2524819297580603 1.1442645014880528 255 255 255
-0.1993142307948494 -0.2965176506766815 1.3917901336793090 255 255 255
0.0900223961486261 -0.2496416101777484 1.1119196299284473 255 255 255
-0.0904654009175509 -0.2382727923225943 1.1653566381806839 255 255 255
-0.2051373330414610 -0.2682221009516061 1.4141776485008264 255 255 255
-0.0583798648394036 -0.2231098648837131 1.1268868974217030 255 255 255
0.0446256429908901 -0.2195618003335580 1.0918413818917716 255 255 255
0.2346259450925962 -0.2377977637750679 1.1732102310215746 255 255 255
-0.1238112474281392 -0.2181091452016152 1.1910348544248646 255 255 255
0.0114708673993600 -0.1953078243424043 1.0858457725199937 255 255 255
0.2464411890395143 -0.1848505348997920 1.2143774670158356 255 255 255
0.2099795407795141 -0.1692226305017807 1.1916156122382207 255 255 255
-0.0858660126211836 -0.1015963259968531 1.0976271138284408 255 255 255
-0.1242174500369038 -0.0956639471421921 1.1554250203643441 255 255 255
-0.0726114911283293 -0.0831977705586032 1.0760023725935148 255 255 255
-0.0456517503618087 -0.0813882298814150 1.0703315774554791 255 255 255
-0.1233310394125602 -0.0697921104603766 1.1174736261638669 255 255 255
-0.2267713823759670 -0.0589672688915989 1.4242380568160014 255 255 255
-0.0025021557319510 -0.0447839934263180 1.0925309642441283 255 255 255
-0.1729581143446179 -0.0436914149418106 1.2655214391587666 255 255 255
-0.1243871539881689 -0.0435786585419208 1.1644746246978335 255 255 255
0.0719004871761217 -0.0355758265183964 1.0775940939185764 255 255 255
-0.0758120834805970 -0.0298128062421422 1.1102384107185173 255 255 255
-0.0584009678599319 -0.0264899369456168 1.1076689044627779 255 255 255
0.1093600668266019 -0.0260540181217321 1.1054621288208855 255 255 255
-0.2526170242564424 -0.0233251936299937 1.4384352318117013 255 255 255
-0.2709584427677508 -0.0048683757013276 1.4314880730913937 255 255 255
0.0145492431916049 0.0049533938062323 1.0349429939561252 255 255 255
-0.0309428671168694 0.0520995599663761 1.0840953631406005 255 255 255
-0.0152049695275059 0.0560613747398030 1.0563800555591787 255 255 255
-0.0102918842467041 0.0753031003103342 1.0536911225768082 255 255 255
-0.0613684359743063 0.0897609067704215 1.0932227540944701 255 255 255
-0.1041929944643462 0.1265180799214608 1.1384925431981754 255 255 255
0.0361705118675829 0.1297419965650104 1.0306857906318867 255 255 255
-0.1552873146813343 0.2606421271916616 1.4484243754162733 255 255 255
-0.1176536686103737 0.2275698536194022 1.2533206008458821 255 255 255
0.0008106802592285 0.2039037054113489 1.0699484366406051 255 255 255
-0.0915577691488813 0.2245787943930197 1.1548116190733486 255 255 255
-0.0480471814913089 0.2322830785459620 1.0894112958551201 255 255 255
-0.0192828437083321 0.2318301444511218 1.0653798808153321 255 255 255
-0.1160653520208290 0.3047269176642520 1.3248812087125337 255 255 255
-0.1404871267622725 0.3252794464076009 1.3266939470661683 255 255 255
-0.1902254373349295 0.3655304317236958 1.4096443149314550 255 255 255
-0.0342790577579669 0.3617325002339878 1.2368924351151562 255 255 255
-0.2233352541319871 0.4009687857141360 1.3800011824624494 255 255 255
0.2050013425904566 0.4220827225545264 1.3475774003225949 255 255 255
0.5077229222505434 0.4625214660416896 1.4069469458636559 255 255 255
-0.1146851182856163 0.4231551056464447 1.3070183590585189 255 255 255
0.1860218911000427 0.4604055369404389 1.3034373262015946 255 255 255
0.1310044935118841 0.4572817419307195 1.2803963886702230 255 255 255
0.4261758216950902 0.5121583936011505 1.3582998372880264 255 255 255
0.1121082552429794 0.4718957141730055 1.2829428415901427 255 255 255
0.2213606134946775 0.4566144210476817 1.2162694607546483 255 255 255
0.4356193425704835 0.5313284999559190 1.3408417243375805 255 255 255
-0.1654293007712841 0.4687256987115563 1.2612979755808931 255 255 255
0.0107640791924970 0.4808634363580626 1.2638263156006109 255 255 255
-0.0507437901225100 0.5014550712338364 1.2569645235315321 255 255 255
-0.4158622363305435 0.5128240592940786 1.3353322315759946 255 255 255
-0.0936591876900760 0.4887483166440918 1.2083482210669305 255 255 255
-0.1896882550243376 0.5114366278236353 1.2695439879124804 255 255 255
-0.0694357152948995 0.4944439917818756 1.2041743526702959 255 255 255
0.3806137173542141 0.5635658265751013 1.2917842379135358 255 255 255
-0.1041079573423563 0.5085985930471849 1.2420834805966512 255 255 255
0.2339387815137602 0.5374389567934863 1.2394637406468978 255 255 255
0.1119577907050504 0.5232824784441058 1.2360173670881265 255 255 255
-0.0819611949981713 0.5134109337576382 1.2352208696721603 255 255 255
-0.0318962135529806 0.5264967226900592 1.2552555010166686 255 255 255
0.0684342948255541 0.5391233344847639 1.2432580080316258 255 255 255
-0.3651564754868726 0.5460055645378856 1.3239071511974838 255 255 255
0.0054063006455360 0.5360199815977507 1.2210671380209976 255 255 255
-0.1204288311508013 0.5368029006788109 1.2320625125957356 255 255 255
-0.0370244466959750 0.5300129920785466 1.1981389486359824 255 255 255
-0.2093896466583981 0.5258023702957623 1.2114916002687059 255 255 255
-0.1007675146385273 0.5363275339891836 1.2044258800481420 255 255 255
-0.0814745515859285 0.5382749576251715 1.1969910633099146 255 255 255
-0.3818397345781208 0.5590675174894836 1.3041394489248879 255 255 255
0.0995761533966932 0.5652803229595393 1.2046383805358836 255 255 255
-0.2189397211212212 0.5491111208292769 1.2267320546588933 255 255 255
-0.0323908465903498 0.5701427150806764 1.1900577630700218 255 255 255
-0.0437350592987607 0.5739406995369368 1.1962487237344634 255 255 255
-0.1925639460368156 0.5688716650410685 1.2054493582749561 255 255 255
0.3047294155236970 0.6290378621924657 1.2430613106699411 255 255 255
0.4151401232458996 0.6411282548203898 1.2440992998788378 255 255 255
0.2699243530797618 0.6352421091354911 1.2502110530684867 255 255 255
0.2101240800417902 -0.2898246885937139 1.1050517484730271 255 255 255
-0.0775216236540941 -0.1149284945192540 1.0435812359068206 255 255 255
-0.1133020631336947 -0.0585469743329523 1.1091260522879605 255 255 255
-0.0285207871013221 0.0876590022329982 1.0720381111787698 255 255 255
-0.0322841501772319 0.1296092180890415 1.0611521296103574 255 255 255
-0.0405557467423092 0.2506318688730214 1.0853085371948221 255 255 255
0.1973027184551709 0.4354428100296070 1.3105708445948747 255 255 255
-0.3352816480768660 0.4541365897888979 1.3786391308257862 255 255 255
-0.1786383633547339 0.4730489258487234 1.2883964674429331 255 255 255
-0.1473344476714838 0.4708868276859728 1.2777085921241051 255 255 255
0.1146202198481226 0.4892374706069147 1.2755956412097662 255 255 255
0.4475480209505936 0.5450465561713347 1.3220011835632797 255 255 255
-0.3284112317101704 0.5074120841377583 1.3344291805094592 255 255 255
0.1854443431269670 0.5108929007570358 1.2256694049322154 255 255 255
0.3097327197390958 0.5707174492306925 1.3177625615091271 255 255 255
0.3291505648808926 0.5805570783833239 1.2833114195558428 255 255 255
-0.1712251906882357 0.5296065172267161 1.2029602717188563 255 255 255
-0.1640048539033845 0.5209333409841602 1.1975287817488269 255 255 255
-0.0235337982584384 0.5605859197596559 1.1978000915890867 255 255 255
0.0486473991367970 0.5852857833313940 1.2237512507242554 255 255 255
0.0949527578285252 0.5695312668080382 1.1811740861630047 255 255 255
0.0666668833448517 -0.4101929686508081 1.1431231072256747 255 255 255
0.1535670793953141 -0.3327932916035636 1.0953070238302085 255 255 255
0.1765645225671009 -0.3368225171715272 1.1039894460163782 255 255 255
-0.0401837348480321 -0.2994371132960579 1.0899007101154081 255 255 255
0.1189655678818292 -0.3124171054613446 1.1397295341336142 255 255 255
0.1955607952326491 -0.2994554795648154 1.0946199908650074 255 255 255
0.0348419788682073 -0.2722517464395798 1.0851472057947691 255 255 255
0.2144894620806990 -0.2783899927069494 1.1261228343919929 255 255 255
-0.0515183977446465 -0.2697649547343566 1.1453599050640277 255 255 255
-0.0118934460663109 -0.2681573992328578 1.1206727470182145 255 255 255
0.0694909584760355 -0.2662970343835869 1.1102643466659357 255 255 255
0.2294530742939157 -0.2658653639557432 1.1528365148336632 255 255 255
-0.0559505299113792 -0.2503974832046280 1.1433015467210270 255 255 255
0.0559253009489542 -0.2360985615295080 1.1005380578433124 255 255 255
-0.1435158550122936 -0.2481113093972010 1.2022077419496453 255 255 255
0.1087465345146630 -0.2334004544375381 1.1118915593794403 255 255 255
0.0465531614724131 -0.2213534836347212 1.0926007410424561 255 255 255
0.2258397718548711 -0.2360239249522019 1.1616624419914208 255 255 255
0.0248370943021986 -0.2141301030297871 1.0913057695665849 255 255 255
-0.1227296546824808 -0.2182923860950087 1.1886585014318281 255 255 255
0.2546836684871275 -0.2056440557777692 1.2165373964053532 255 255 255
-0.1469041686250426 -0.1931668955382005 1.2016375146846119 255 255 255
-0.0806003362325754 -0.1680936143701355 1.1334013346150311 255 255 255
-0.1073283061327226 -0.1593325355990509 1.1609250610259705 255 255 255
-0.0606561695851606 -0.1210650086099412 1.0735097682427912 255 255 255
-0.1650848402600942 -0.1226205776610225 1.2147579792250360 255 255 255
0.1193466603029211 -0.0968839108937960 1.0683983935614212 255 255 255
0.0363446746983792 -0.0826126931930552 1.0586785917408059 255 255 255
-0.0732295421628444 -0.0824494207142970 1.0764806276088765 255 255 255
-0.0434000142943781 -0.0790428510928523 1.0645373659162556 255 255 255
-0.0048932667394383 -0.0714658656299285 1.0634790398617688 255 255 255
-0.1608045729974400 -0.0761937188135609 1.2397688871467081 255 255 255
-0.0897391251843112 -0.0631048533269587 1.0929422485231828 255 255 255
-0.0034052159863377 -0.0430344817339715 1.0907031871792772 255 255 255
0.0796785941536013 -0.0335433403648934 1.0854131842000170 255 255 255
0.2013432033264116 -0.0353207097767731 1.1390339195554173 255 255 255
-0.2011020789434300 -0.0326569348925366 1.3838288832803041 255 255 255
0.1748894111137325 -0.0248894512502024 1.1283170605271573 255 255 255
0.0022687838268681 -0.0152614279216458 1.0882613416919837 255 255 255
-0.2229786014333294 -0.0134132576418084 1.4032324389758219 255 255 255
0.0885604498480677 0.0005754094634045 1.0779132606405262 255 255 255
-0.2482555216107089 0.0188220250876748 1.4176599226309632 255 255 255
-0.1745097404919077 0.0559467918019557 1.4157033155446033 255 255 255
-0.2293845631721097 0.0512355225143817 1.3894997241121068 255 255 255
-0.0755624239527838 0.0391746754095235 1.0889021183226726 255 255 255
-0.0143049317659006 0.0555035136396723 1.0586801053866814 255 255 255
-0.0232524517724291 0.0756543802015664 1.0633629283093045 255 255 255
-0.0521460696954020 0.0785586009198735 1.0772676588318806 255 255 255
0.0006635633092848 0.0910462232556653 1.0249756471616454 255 255 255
-0.0527427760780240 0.1688747946669433 1.0940742386594173 255 255 255
-0.1608237767024740 0.2407958419063007 1.4319134581674198 255 255 255
-0.1589623032515197 0.2645488046414049 1.4399874732541167 255 255 255
-0.2308867325555592 0.2889079307528257 1.4562859124160157 255 255 255
-0.0222756665354244 0.2338702503809247 1.0729739657384940 255 255 255
-0.1572183630353678 0.3862154719211860 1.3526929069524880 255 255 255
0.2071052503307745 0.4233476858237968 1.3520653587698408 255 255 255
-0.2924244045834513 0.3827854098745831 1.2734871674268320 255 255 255
-0.0454041914650528 0.3973719990884163 1.2488264920912944 255 255 255
0.1912185461331608 0.4445338446817737 1.3317209748332453 255 255 255
-0.1121893646181774 0.4184260392011812 1.2992105259299318 255 255 255
0.0455758603061043 0.4222447512009333 1.2588008650191775 255 255 255
0.1697295195459836 0.4491796867439354 1.2992364161861587 255 255 255
0.1909251930796249 0.4694504341727072 1.3163636811508392 255 255 255
-0.0985787204969988 0.4432095804566962 1.3078998068783911 255 255 255
0.4257085515934916 0.5092045130083018 1.3574084187735385 255 255 255
-0.3164518738123115 0.4832138842922140 1.3462676827208506 255 255 255
0.0091670228421816 0.4752069818517990 1.2525934444335431 255 255 255
-0.1596629005369188 0.4810295223098562 1.2937416862747158 255 255 255
0.1591081799562647 0.5001547867456825 1.2783419086320200 255 255 255
0.2057169688895075 0.5182253773399977 1.2193928049102805 255 255 255
-0.2599787888229121 0.5065296130125562 1.2595692462495025 255 255 255
-0.0919360094713119 0.5060857506500750 1.2113047872308349 255 255 255
0.1541984391454617 0.5241579481673286 1.2025993561155184 255 255 255
0.2111804988862301 0.5544971277974214 1.2389834039762737 255 255 255
-0.3466797232287391 0.5524089450885861 1.3051839848822264 255 255 255
0.2218554984575524 0.5690744717233854 1.2305256856997064 255 255 255
0.3296731347494627 0.6027502078662993 1.2823650511865812 255 255 255
0.1995656742708758 0.5834652972398612 1.2705933880962295 255 255 255
-0.0000155169976018 0.5445495691460558 1.1952586031952117 255 255 255
0.3195145193342430 0.6013495696947485 1.2426408121071628 255 255 255
0.0998658450575799 -0.3869325192353376 1.1115859848589129 255 255 255
0.2254834928712484 -0.2732762133685263 1.1505453279658691 255 255 255
-0.0835776145105862 -0.2583163127099706 1.1574289594095266 255 255 255
-0.0897281306748649 -0.2299766718678432 1.1636311115996905 255 255 255
0.2153680996241880 -0.2077824135750293 1.1840224538077591 255 255 255
-0.0458227506340005 -0.1037666629056212 1.0652061086941129 255 255 255
-0.0636070092958397 -0.0625348003615037 1.1204289894835777 255 255 255
-0.0142128517172535 -0.0339261914148975 1.1235475816722167 255 255 255
0.0865479275246205 -0.0353734961445283 1.0962643064972166 255 255 255
-0.1021348382418043 -0.0348772846756512 1.1182119793197731 255 255 255
0.1776279086199129 -0.0269683919279722 1.1357612490447460 255 255 255
0.0957754718531123 0.0031630925665531 1.0845037608420214 255 255 255
-0.0336058427937493 0.0504061722672306 1.0816129256601459 255 255 255
-0.0372583664894755 0.1053604563545337 1.0758247351981896 255 255 255
-0.0647173741761740 0.1420122391048226 1.0861087089168371 255 255 255
-0.0151051044418415 0.3808693035191660 1.2447722559373726 255 255 255
0.1769570865750840 0.4669278625202681 1.3092464355370137 255 255 255
0.1968370637707246 0.4576758180514857 1.2660798774468909 255 255 255
-0.1580416306331245 0.4599332495742212 1.3359522476878711 255 255 255
0.0186786113850169 0.4689598925793257 1.2695073902630698 255 255 255
0.1533124312742354 0.5210909778188189 1.2476245910833874 255 255 255
-0.0234288849474221 0.4966613623687768 1.2155017744398877 255 255 255
-0.1822649657657290 0.5101903347802587 1.2632275506741355 255 255 255
-0.1254510343332648 0.5151033119695330 1.2327579725620545 255 255 255
0.2405134021729654 -0.2347260661705632 1.1497165458474037 255 255 255
-0.0754045639825165 -0.0243414794993426 1.1170795691628836 255 255 255
-0.2473246750602136 0.3138868760170005 1.4478437932810539 255 255 255
0.0289678280907449 -0.2493316732866808 1.0953745619740138 255 255 255
-0.0333529828635336 -0.2511971451311217 1.1307020627438216 255 255 255
0.0581592451522993 -0.2264085722949311 1.1017737358269584 255 255 255
0.2185254607798873 -0.2163635704656403 1.1874598129517264 255 255 255
-0.1403615352088464 -0.1856368054816289 1.1880933372413378 255 255 255
-0.1699852147250122 -0.1300657794535813 1.2190655378996651 255 255 255
-0.0497071001823407 -0.1083646362498427 1.0647037652236715 255 255 255
-0.1565523358977831 -0.0770067681168743 1.2288201115336457 255 255 255
0.1674406724701670 -0.0773466480541342 1.1142391387040973 255 255 255
0.1430801490176583 -0.0302130518175696 1.1216918664144828 255 255 255
0.1699330965654805 -0.0299103908321270 1.1395101047933049 255 255 255
0.1055428188316665 -0.0192499452813589 1.0974901468478653 255 255 255
0.1109367710335208 0.0050956744140761 1.1125618680524247 255 255 255
-0.0585326886897031 0.1422578184627631 1.0989551252904612 255 255 255
0.0861164766510723 0.2444284372536866 1.1006086487271727 255 255 255
-0.1562471424751381 0.4528583714456323 1.3122529250943424 255 255 255
0.1440610327963550 0.4809436388549874 1.2718958419493283 255 255 255
-0.0290991797239341 -0.0643521503251436 1.0737140289757756 255 255 255
-0.0354025673823455 0.3830432390781738 1.2755238556537907 255 255 255
0.2158313092577102 -0.3361604189657248 1.1042562466015977 255 255 255
0.1083397488975219 -0.2828016799567953 1.0781633385860738 255 255 255
0.2125197613843512 -0.2914604009573207 1.1129557689542178 255 255 255
0.0103039711001585 -0.2652168325852634 1.0839882722433358 255 255 255
0.0227142173989108 -0.2817788747477176 1.1535499555488060 255 255 255
-0.0579730027282258 -0.2605061696164134 1.1257984952336364 255 255 255
0.2159124736203045 -0.2613336703657562 1.0829928173309051 255 255 255
0.1494165386728820 -0.2492068557886442 1.1477199917312655 255 255 255
0.1018558001836250 -0.2136469841727423 1.1319610626512959 255 255 255
0.1887710895992096 -0.2128168998836964 1.1713670165366683 255 255 255
-0.0034739009778163 -0.1291582679255880 1.0854973672126444 255 255 255
-0.1469337442562736 -0.1242641004293406 1.1860449982902865 255 255 255
-0.0559900359423778 -0.1088679836575571 1.0733313878348087 255 255 255
-0.0890382593026749 -0.1087920894250976 1.0998425748892164 255 255 255
-0.1550231413517893 -0.1073261977701177 1.2064885629330870 255 255 255
-0.1685673699539783 -0.0804560640067999 1.2444684107724833 255 255 255
-0.1201762459002866 -0.0704264477751973 1.1102754139901219 255 255 255
-0.1487031055871835 -0.0627101584086895 1.1870503083522335 255 255 255
-0.1612900979329630 -0.0605086008134907 1.2470644583063337 255 255 255
-0.1076132749922098 -0.0398775952937747 1.1310431612585865 255 255 255
-0.0821548308157730 -0.0314297848177882 1.1139793285959640 255 255 255
-0.0642838976028636 -0.0283320130745074 1.1051220260660408 255 255 255
-0.2374617655661858 -0.0259950971886086 1.4337604164715310 255 255 255
-0.0022242334446209 0.0048048647728899 1.0850773489902397 255 255 255
-0.1177169407910401 0.0101922191470406 1.1464900165643912 255 255 255
-0.2031958396292350 0.0398361425516629 1.3861625369581498 255 255 255
-0.0795003638164341 0.0486279618192447 1.1066268450735395 255 255 255
-0.0112126983894481 0.0735396681901379 1.0203916488174551 255 255 255
0.0104770172695804 0.0830282563181141 0.9906168862005985 255 255 255
-0.0029668824701875 0.0999807095814361 1.0677514814578644 255 255 255
-0.0385659816523013 0.0956368351693577 1.0360805487270035 255 255 255
0.0099383988461836 0.0998850448917495 1.0235926566208111 255 255 255
-0.0447929506205430 0.1241863898268320 1.0696686418251216 255 255 255
0.0102005672401597 0.1296849427193199 1.0393307905681759 255 255 255
-0.0804059185416881 0.1413345836541643 1.1028351163264576 255 255 255
0.0491015479020676 0.1428042696971397 1.0360365003918650 255 255 255
-0.1098339359736958 0.1502282443257252 1.1384893414908230 255 255 255
-0.0688211760656221 0.1478673393493256 1.0925741723354498 255 255 255
-0.0949652626045780 0.1546170779982750 1.1130181511180126 255 255 255
-0.1043540213136666 0.1584167040324553 1.1118361655706488 255 255 255
0.0233479137332787 0.1717288613632529 1.0456577017540198 255 255 255
-0.1120085492973246 0.2364656456941578 1.4096802834176763 255 255 255
0.0382247357745590 0.1902679860494826 1.0804964798634247 255 255 255
-0.0653348519172990 0.2026290684883554 1.1095940579019119 255 255 255
-0.1078000779657176 0.2276497198455157 1.2092412121258180 255 255 255
-0.0613635799401720 0.2132533787950492 1.1042243619906089 255 255 255
0.0066097470886404 0.2124270334031812 1.0679773855385928 255 255 255
-0.0847711656086152 0.2279709840039884 1.1377745076819545 255 255 255
-0.0781619507600433 0.2273573262240326 1.1285435635737151 255 255 255
-0.0954892908486496 0.2427848388483386 1.1994815814764666 255 255 255
-0.0941551409025571 0.2288182013497234 1.1426687202695078 255 255 255
-0.0783422970336975 0.2366329755987648 1.1306538431689857 255 255 255
-0.1909345845203901 0.3056005770932487 1.4883853385943746 255 255 255
-0.0722745387274929 0.2819319218192353 1.2556147381154101 255 255 255
-0.0553763940452477 0.2479390623361533 1.0976286135784059 255 255 255
-0.0660800980885034 0.2584039156753581 1.1328485597218390 255 255 255
-0.0422618471846936 0.2498903265799414 1.0839578245997312 255 255 255
-0.0874507886526499 0.2986059637962759 1.2685593749488562 255 255 255
-0.0797253160344956 0.3066205753980856 1.2700435839967925 255 255 255
-0.0626085185446132 0.3025680062023225 1.2365425367331342 255 255 255
-0.0648083078673343 0.3063001291391328 1.2553582580661258 255 255 255
-0.0683655270585022 0.3148290412341092 1.2488739429570184 255 255 255
-0.0634134799226702 0.3216938758168895 1.2454859036846759 255 255 255
-0.0654798504947137 0.3245353539887930 1.2571895126887671 255 255 255
-0.0571582755602321 0.3276838061105688 1.2368160475974153 255 255 255
-0.0569759348709725 0.3194015305988139 1.2038615700781443 255 255 255
-0.0387888919010513 0.3242909398734588 1.1800016637308806 255 255 255
-0.0455934375760575 0.3497426943694096 1.2444851307550617 255 255 255
0.4595034639537286 0.4586862505450430 1.4132399406528962 255 255 255
-0.0589963236185479 0.3597223706320481 1.2550947185016046 255 255 255
0.2147462307033710 0.4085617054199364 1.3009585038917781 255 255 255
0.2225102056738796 0.3904927572079103 1.2318125292876352 255 255 255
0.4488752914869387 0.4643587855680210 1.3754060916532249 255 255 255
0.2154009446903392 0.3988185619421599 1.2287841179933856 255 255 255
0.2186917221598221 0.4040567109673150 1.2182675480960612 255 255 255
0.4179286149189452 0.4757765653696269 1.3765881056083711 255 255 255
0.1977448986310058 0.4418436399521667 1.3244720396965897 255 255 255
0.2285685898424966 0.4178284950505169 1.2238520760309197 255 255 255
0.3855727204087921 0.4790763658480927 1.3601226213193931 255 255 255
0.2074465588951945 0.4160571206264430 1.2161245746397042 255 255 255
0.1339717997450109 0.4342925606325546 1.2881887428298480 255 255 255
0.1680478735234786 0.4492017392286080 1.3070157280187189 255 255 255
0.2102388767481776 0.4201484978594777 1.2010094595544105 255 255 255
0.1932613134796624 0.4336173397861536 1.2432588158238578 255 255 255
0.2083862099974104 0.4271182411446037 1.2169697160653079 255 255 255
0.3740457162109487 0.4937350793620725 1.3586328732866852 255 255 255
-0.2963537395174720 0.4367158162831057 1.4042183910953603 255 255 255
-0.3157613415695016 0.4379979277365846 1.3996138544106180 255 255 255
-0.0934141038194269 0.4449579901779794 1.2797671823057546 255 255 255
0.4433850685729900 0.5331418248618626 1.3314431151038668 255 255 255
-0.3474139101295518 0.4531813832030124 1.4145965657067574 255 255 255
-0.2987960436291033 0.4541465431251161 1.3817971374898554 255 255 255
-0.2607263583918276 0.4045060884347368 1.2091073453648480 255 255 255
0.4508497634876897 0.5460580581894263 1.3235758191762770 255 255 255
0.1459711177382128 0.4750932182881178 1.2482065172497594 255 255 255
0.4021148700615610 0.5443633765108729 1.3219975777728867 255 255 255
-0.3411829065873397 0.4630414002799201 1.3752628150372621 255 255 255
-0.1611528454948917 0.4605521892684776 1.2927641790404916 255 255 255
-0.3422415902110387 0.4788047812783825 1.3930659094404270 255 255 255
0.1665333066139783 0.5073934485306624 1.2580251839056713 255 255 255
0.3637977726516772 0.5578782173488709 1.2881076872541470 255 255 255
-0.3694497019222860 0.4874196554398443 1.3884348180942470 255 255 255
0.3533262339930220 0.5627364203691056 1.2978465244191848 255 255 255
-0.2865563140070195 0.4922383927461086 1.3381266305647721 255 255 255
-0.3250159561154099 0.4933763009874051 1.3483404509213768 255 255 255
-0.3138206689194273 0.4942257376747846 1.3462041107754814 255 255 255
-0.2991027312774909 0.4945611074183024 1.3386580936308599 255 255 255
0.1196656999937118 0.5219946599160089 1.2444400584630548 255 255 255
-0.3452435953272806 0.5018412918626451 1.3628327394909878 255 255 255
-0.3052161345956820 0.5016906880445227 1.3426028845231541 255 255 255
