ply
format ascii 1.0
comment PCL generated
element vertex 1510
property float x
property float y
property float z
element camera 0
property float view_px
property float view_py
property float view_pz
property float x_axisx
property float x_axisy
property float x_axisz
property float y_axisx
property float y_axisy
property float y_axisz
property float z_axisx
property float z_axisy
property float z_axisz
property float focal
property float scalex
property float scaley
property float centerx
property float centery
property int viewportx
property int viewporty
property float k1
property float k2
end_header
-2.8062601 -4.7754841 -2.2859199
-2.8062601 -4.7754841 4.6989632
1.4999537 -4.7754841 -2.2859199
1.4999537 -4.7754841 4.6989632
-2.8062601 -4.7415767 -2.2859199
-2.8062601 -4.7415767 4.6989632
1.4999537 -4.7415767 -2.2859199
1.4999537 -4.7415767 4.6989632
-2.8062601 -4.7076693 -2.2859199
-2.8062601 -4.7076693 4.6989632
1.4999537 -4.7076693 -2.2859199
1.4999537 -4.7076693 4.6989632
-2.8062601 -4.6737623 -2.2859199
-2.8062601 -4.6737623 4.6989632
1.4999537 -4.6737623 -2.2859199
1.4999537 -4.6737623 4.6989632
-2.8062601 -4.6398549 -2.2859199
-2.8062601 -4.6398549 4.6989632
1.4999537 -4.6398549 -2.2859199
1.4999537 -4.6398549 4.6989632
-2.8062601 -4.605948 -2.2859199
-2.8062601 -4.605948 4.6989632
1.4999537 -4.605948 -2.2859199
1.4999537 -4.605948 4.6989632
-2.8062601 -4.5720406 -2.2859199
-2.8062601 -4.5720406 4.6989632
1.4999537 -4.5720406 -2.2859199
1.4999537 -4.5720406 4.6989632
-2.8062601 -4.5381336 -2.2859199
-2.8062601 -4.5381336 4.6989632
1.4999537 -4.5381336 -2.2859199
1.4999537 -4.5381336 4.6989632
-2.8062601 -4.5042262 -2.2859199
-2.8062601 -4.5042262 4.6989632
1.4999537 -4.5042262 -2.2859199
1.4999537 -4.5042262 4.6989632
-2.8062601 -4.4703193 -2.2859199
-2.8062601 -4.4703193 4.6989632
1.4999537 -4.4703193 -2.2859199
1.4999537 -4.4703193 4.6989632
-2.8062601 -4.4364119 -2.2859199
-2.8062601 -4.4364119 4.6989632
1.4999537 -4.4364119 -2.2859199
1.4999537 -4.4364119 4.6989632
-2.8062601 -4.4025049 -2.2859199
-2.8062601 -4.4025049 4.6989632
1.4999537 -4.4025049 -2.2859199
1.4999537 -4.4025049 4.6989632
-2.8062601 -4.3685975 -2.2859199
-2.8062601 -4.3685975 4.6989632
1.4999537 -4.3685975 -2.2859199
1.4999537 -4.3685975 4.6989632
-2.8062601 -4.3346901 -2.2859199
-2.8062601 -4.3346901 4.6989632
1.4999537 -4.3346901 -2.2859199
1.4999537 -4.3346901 4.6989632
-2.8062601 -4.3007832 -2.2859199
-2.8062601 -4.3007832 4.6989632
1.4999537 -4.3007832 -2.2859199
1.4999537 -4.3007832 4.6989632
-2.8062601 -4.2668757 -2.2859199
-2.8062601 -4.2668757 4.6989632
1.4999537 -4.2668757 -2.2859199
1.4999537 -4.2668757 4.6989632
-2.8062601 -4.2329688 -2.2859199
-2.8062601 -4.2329688 4.6989632
1.4999537 -4.2329688 -2.2859199
1.4999537 -4.2329688 4.6989632
-2.8062601 -4.1990614 -2.2859199
-2.8062601 -4.1990614 4.6989632
1.4999537 -4.1990614 -2.2859199
1.4999537 -4.1990614 4.6989632
-2.8062601 -4.1651545 -2.2859199
-2.8062601 -4.1651545 4.6989632
1.4999537 -4.1651545 -2.2859199
1.4999537 -4.1651545 4.6989632
-2.8062601 -4.131247 -2.2859199
-2.8062601 -4.131247 4.6989632
1.4999537 -4.131247 -2.2859199
1.4999537 -4.131247 4.6989632
-2.8062601 -4.0973401 -2.2859199
-2.8062601 -4.0973401 4.6989632
1.4999537 -4.0973401 -2.2859199
1.4999537 -4.0973401 4.6989632
-2.8062601 -4.0634327 -2.2859199
-2.8062601 -4.0634327 4.6989632
1.4999537 -4.0634327 -2.2859199
1.4999537 -4.0634327 4.6989632
-2.8062601 -4.0295258 -2.2859199
-2.8062601 -4.0295258 4.6989632
1.4999537 -4.0295258 -2.2859199
1.4999537 -4.0295258 4.6989632
-2.8062601 -3.9956183 -2.2859199
-2.8062601 -3.9956183 4.6989632
1.4999537 -3.9956183 -2.2859199
1.4999537 -3.9956183 4.6989632
-2.8062601 -3.9617109 -2.2859199
-2.8062601 -3.9617109 4.6989632
1.4999537 -3.9617109 -2.2859199
1.4999537 -3.9617109 4.6989632
-2.8062601 -3.927804 -2.2859199
-2.8062601 -3.927804 4.6989632
1.4999537 -3.927804 -2.2859199
1.4999537 -3.927804 4.6989632
-2.8062601 -3.8938966 -2.2859199
-2.8062601 -3.8938966 4.6989632
1.4999537 -3.8938966 -2.2859199
1.4999537 -3.8938966 4.6989632
-2.8062601 -3.8599896 -2.2859199
-2.8062601 -3.8599896 4.6989632
1.4999537 -3.8599896 -2.2859199
1.4999537 -3.8599896 4.6989632
-2.8062601 -3.8260822 -2.2859199
-2.8062601 -3.8260822 4.6989632
1.4999537 -3.8260822 -2.2859199
1.4999537 -3.8260822 4.6989632
-2.8062601 -3.7921753 -2.2859199
-2.8062601 -3.7921753 4.6989632
1.4999537 -3.7921753 -2.2859199
1.4999537 -3.7921753 4.6989632
-2.8062601 -3.7582679 -2.2859199
-2.8062601 -3.7582679 4.6989632
1.4999537 -3.7582679 -2.2859199
1.4999537 -3.7582679 4.6989632
-2.8062601 -3.7243609 -2.2859199
-2.8062601 -3.7243609 4.6989632
1.4999537 -3.7243609 -2.2859199
1.4999537 -3.7243609 4.6989632
-2.8062601 -3.6904535 -2.2859199
-2.8062601 -3.6904535 4.6989632
1.4999537 -3.6904535 -2.2859199
1.4999537 -3.6904535 4.6989632
-2.8062601 -3.6565466 -2.2859199
-2.8062601 -3.6565466 4.6989632
1.4999537 -3.6565466 -2.2859199
1.4999537 -3.6565466 4.6989632
-2.8062601 -3.6226392 -2.2859199
-2.8062601 -3.6226392 4.6989632
1.4999537 -3.6226392 -2.2859199
1.4999537 -3.6226392 4.6989632
-2.8062601 -3.5887318 -2.2859199
-2.8062601 -3.5887318 4.6989632
1.4999537 -3.5887318 -2.2859199
1.4999537 -3.5887318 4.6989632
-2.8062601 -3.5548248 -2.2859199
-2.8062601 -3.5548248 4.6989632
1.4999537 -3.5548248 -2.2859199
1.4999537 -3.5548248 4.6989632
-2.8062601 -3.5209174 -2.2859199
-2.8062601 -3.5209174 4.6989632
1.4999537 -3.5209174 -2.2859199
1.4999537 -3.5209174 4.6989632
-2.8062601 -3.4870105 -2.2859199
-2.8062601 -3.4870105 4.6989632
1.4999537 -3.4870105 -2.2859199
1.4999537 -3.4870105 4.6989632
-2.8062601 -3.4531031 -2.2859199
-2.8062601 -3.4531031 4.6989632
1.4999537 -3.4531031 -2.2859199
1.4999537 -3.4531031 4.6989632
-2.8062601 -3.4191961 -2.2859199
-2.8062601 -3.4191961 4.6989632
1.4999537 -3.4191961 -2.2859199
1.4999537 -3.4191961 4.6989632
-2.8062601 -3.3852887 -2.2859199
-2.8062601 -3.3852887 4.6989632
1.4999537 -3.3852887 -2.2859199
1.4999537 -3.3852887 4.6989632
-2.8062601 -3.3513818 -2.2859199
-2.8062601 -3.3513818 4.6989632
1.4999537 -3.3513818 -2.2859199
1.4999537 -3.3513818 4.6989632
-2.8062601 -3.3174744 -2.2859199
-2.8062601 -3.3174744 4.6989632
1.4999537 -3.3174744 -2.2859199
1.4999537 -3.3174744 4.6989632
-2.8062601 -3.2835674 -2.2859199
-2.8062601 -3.2835674 4.6989632
1.4999537 -3.2835674 -2.2859199
1.4999537 -3.2835674 4.6989632
-2.8062601 -3.24966 -2.2859199
-2.8062601 -3.24966 4.6989632
1.4999537 -3.24966 -2.2859199
1.4999537 -3.24966 4.6989632
-2.8062601 -3.2157526 -2.2859199
-2.8062601 -3.2157526 4.6989632
1.4999537 -3.2157526 -2.2859199
1.4999537 -3.2157526 4.6989632
-2.8062601 -3.1818457 -2.2859199
-2.8062601 -3.1818457 4.6989632
1.4999537 -3.1818457 -2.2859199
1.4999537 -3.1818457 4.6989632
-2.8062601 -3.1479383 -2.2859199
-2.8062601 -3.1479383 4.6989632
1.4999537 -3.1479383 -2.2859199
1.4999537 -3.1479383 4.6989632
-2.8062601 -3.1140313 -2.2859199
-2.8062601 -3.1140313 4.6989632
1.4999537 -3.1140313 -2.2859199
1.4999537 -3.1140313 4.6989632
-2.8062601 -3.0801239 -2.2859199
-2.8062601 -3.0801239 4.6989632
1.4999537 -3.0801239 -2.2859199
1.4999537 -3.0801239 4.6989632
-2.8062601 -3.046217 -2.2859199
-2.8062601 -3.046217 4.6989632
1.4999537 -3.046217 -2.2859199
1.4999537 -3.046217 4.6989632
-2.8062601 -3.0123096 -2.2859199
-2.8062601 -3.0123096 4.6989632
1.4999537 -3.0123096 -2.2859199
1.4999537 -3.0123096 4.6989632
-2.8062601 -2.9784026 -2.2859199
-2.8062601 -2.9784026 4.6989632
1.4999537 -2.9784026 -2.2859199
1.4999537 -2.9784026 4.6989632
-2.8062601 -2.9444952 -2.2859199
-2.8062601 -2.9444952 4.6989632
1.4999537 -2.9444952 -2.2859199
1.4999537 -2.9444952 4.6989632
-2.8062601 -2.9105883 -2.2859199
-2.8062601 -2.9105883 4.6989632
1.4999537 -2.9105883 -2.2859199
1.4999537 -2.9105883 4.6989632
-2.8062601 -2.8766809 -2.2859199
-2.8062601 -2.8766809 4.6989632
1.4999537 -2.8766809 -2.2859199
1.4999537 -2.8766809 4.6989632
-2.8062601 -2.8427734 -2.2859199
-2.8062601 -2.8427734 4.6989632
1.4999537 -2.8427734 -2.2859199
1.4999537 -2.8427734 4.6989632
-2.8062601 -2.8088665 -2.2859199
-2.8062601 -2.8088665 4.6989632
1.4999537 -2.8088665 -2.2859199
1.4999537 -2.8088665 4.6989632
-2.8062601 -2.7749591 -2.2859199
-2.8062601 -2.7749591 4.6989632
1.4999537 -2.7749591 -2.2859199
1.4999537 -2.7749591 4.6989632
-2.8062601 -2.7410522 -2.2859199
-2.8062601 -2.7410522 4.6989632
1.4999537 -2.7410522 -2.2859199
1.4999537 -2.7410522 4.6989632
-2.8062601 -2.7071447 -2.2859199
-2.8062601 -2.7071447 4.6989632
1.4999537 -2.7071447 -2.2859199
1.4999537 -2.7071447 4.6989632
-2.8062601 -2.6732378 -2.2859199
-2.8062601 -2.6732378 4.6989632
1.4999537 -2.6732378 -2.2859199
1.4999537 -2.6732378 4.6989632
-2.8062601 -2.6393304 -2.2859199
-2.8062601 -2.6393304 4.6989632
1.4999537 -2.6393304 -2.2859199
1.4999537 -2.6393304 4.6989632
-2.8062601 -2.6054235 -2.2859199
-2.8062601 -2.6054235 4.6989632
1.4999537 -2.6054235 -2.2859199
1.4999537 -2.6054235 4.6989632
-2.8062601 -2.571516 -2.2859199
-2.8062601 -2.571516 4.6989632
1.4999537 -2.571516 -2.2859199
1.4999537 -2.571516 4.6989632
-2.8062601 -2.5376086 -2.2859199
-2.8062601 -2.5376086 4.6989632
1.4999537 -2.5376086 -2.2859199
1.4999537 -2.5376086 4.6989632
-2.8062601 -2.5037012 -2.2859199
-2.8062601 -2.5037012 4.6989632
1.4999537 -2.5037012 -2.2859199
1.4999537 -2.5037012 4.6989632
-2.8062601 -2.4697943 -2.2859199
-2.8062601 -2.4697943 4.6989632
1.4999537 -2.4697943 -2.2859199
1.4999537 -2.4697943 4.6989632
-2.8062601 -2.4358873 -2.2859199
-2.8062601 -2.4358873 4.6989632
1.4999537 -2.4358873 -2.2859199
1.4999537 -2.4358873 4.6989632
-2.8062601 -2.4019804 -2.2859199
-2.8062601 -2.4019804 4.6989632
1.4999537 -2.4019804 -2.2859199
1.4999537 -2.4019804 4.6989632
-2.8062601 -2.3680725 -2.2859199
-2.8062601 -2.3680725 4.6989632
1.4999537 -2.3680725 -2.2859199
1.4999537 -2.3680725 4.6989632
-2.8062601 -2.3341656 -2.2859199
-2.8062601 -2.3341656 4.6989632
1.4999537 -2.3341656 -2.2859199
1.4999537 -2.3341656 4.6989632
-2.8062601 -2.3002586 -2.2859199
-2.8062601 -2.3002586 4.6989632
1.4999537 -2.3002586 -2.2859199
1.4999537 -2.3002586 4.6989632
-2.8062601 -2.2663517 -2.2859199
-2.8062601 -2.2663517 4.6989632
1.4999537 -2.2663517 -2.2859199
1.4999537 -2.2663517 4.6989632
-2.8062601 -2.2324438 -2.2859199
-2.8062601 -2.2324438 4.6989632
1.4999537 -2.2324438 -2.2859199
1.4999537 -2.2324438 4.6989632
-2.8062601 -2.1985369 -2.2859199
-2.8062601 -2.1985369 4.6989632
1.4999537 -2.1985369 -2.2859199
1.4999537 -2.1985369 4.6989632
-2.8062601 -2.1646299 -2.2859199
-2.8062601 -2.1646299 4.6989632
1.4999537 -2.1646299 -2.2859199
1.4999537 -2.1646299 4.6989632
-2.8062601 -2.130722 -2.2859199
-2.8062601 -2.130722 4.6989632
1.4999537 -2.130722 -2.2859199
1.4999537 -2.130722 4.6989632
-2.8062601 -2.0968151 -2.2859199
-2.8062601 -2.0968151 4.6989632
1.4999537 -2.0968151 -2.2859199
1.4999537 -2.0968151 4.6989632
-2.8062601 -2.0629082 -2.2859199
-2.8062601 -2.0629082 4.6989632
1.4999537 -2.0629082 -2.2859199
1.4999537 -2.0629082 4.6989632
-2.8062601 -2.0290012 -2.2859199
-2.8062601 -2.0290012 4.6989632
1.4999537 -2.0290012 -2.2859199
1.4999537 -2.0290012 4.6989632
-2.8062601 -1.9950933 -2.2859199
-2.8062601 -1.9950933 4.6989632
1.4999537 -1.9950933 -2.2859199
1.4999537 -1.9950933 4.6989632
-2.8062601 -1.9611864 -2.2859199
-2.8062601 -1.9611864 4.6989632
1.4999537 -1.9611864 -2.2859199
1.4999537 -1.9611864 4.6989632
-2.8062601 -1.9272795 -2.2859199
-2.8062601 -1.9272795 4.6989632
1.4999537 -1.9272795 -2.2859199
1.4999537 -1.9272795 4.6989632
-2.8062601 -1.8933725 -2.2859199
-2.8062601 -1.8933725 4.6989632
1.4999537 -1.8933725 -2.2859199
1.4999537 -1.8933725 4.6989632
-2.8062601 -1.8594646 -2.2859199
-2.8062601 -1.8594646 4.6989632
1.4999537 -1.8594646 -2.2859199
1.4999537 -1.8594646 4.6989632
-2.8062601 -1.8255577 -2.2859199
-2.8062601 -1.8255577 4.6989632
1.4999537 -1.8255577 -2.2859199
1.4999537 -1.8255577 4.6989632
-2.8062601 -1.7916508 -2.2859199
-2.8062601 -1.7916508 4.6989632
1.4999537 -1.7916508 -2.2859199
1.4999537 -1.7916508 4.6989632
-2.8062601 -1.7577429 -2.2859199
-2.8062601 -1.7577429 4.6989632
1.4999537 -1.7577429 -2.2859199
1.4999537 -1.7577429 4.6989632
-2.8062601 -1.7238359 -2.2859199
-2.8062601 -1.7238359 4.6989632
1.4999537 -1.7238359 -2.2859199
1.4999537 -1.7238359 4.6989632
-2.8062601 -1.689929 -2.2859199
-2.8062601 -1.689929 4.6989632
1.4999537 -1.689929 -2.2859199
1.4999537 -1.689929 4.6989632
-2.8062601 -1.6560221 -2.2859199
-2.8062601 -1.6560221 4.6989632
1.4999537 -1.6560221 -2.2859199
1.4999537 -1.6560221 4.6989632
-2.8062601 -1.6221142 -2.2859199
-2.8062601 -1.6221142 4.6989632
1.4999537 -1.6221142 -2.2859199
1.4999537 -1.6221142 4.6989632
-2.8062601 -1.5882072 -2.2859199
-2.8062601 -1.5882072 4.6989632
1.4999537 -1.5882072 -2.2859199
1.4999537 -1.5882072 4.6989632
-2.8062601 -1.5543003 -2.2859199
-2.8062601 -1.5543003 4.6989632
1.4999537 -1.5543003 -2.2859199
1.4999537 -1.5543003 4.6989632
-2.8062601 -1.5203934 -2.2859199
-2.8062601 -1.5203934 4.6989632
1.4999537 -1.5203934 -2.2859199
1.4999537 -1.5203934 4.6989632
-2.8062601 -1.4864855 -2.2859199
-2.8062601 -1.4864855 4.6989632
1.4999537 -1.4864855 -2.2859199
1.4999537 -1.4864855 4.6989632
-2.8062601 -1.4525785 -2.2859199
-2.8062601 -1.4525785 4.6989632
1.4999537 -1.4525785 -2.2859199
1.4999537 -1.4525785 4.6989632
-2.8062601 -1.4186716 -2.2859199
-2.8062601 -1.4186716 4.6989632
1.4999537 -1.4186716 -2.2859199
1.4999537 -1.4186716 4.6989632
-2.8062601 -1.3847637 -2.2859199
-2.8062601 -1.3847637 4.6989632
1.4999537 -1.3847637 -2.2859199
1.4999537 -1.3847637 4.6989632
-2.8062601 -1.3508568 -2.2859199
-2.8062601 -1.3508568 4.6989632
1.4999537 -1.3508568 -2.2859199
1.4999537 -1.3508568 4.6989632
-2.8062601 -1.3169498 -2.2859199
-2.8062601 -1.3169498 4.6989632
1.4999537 -1.3169498 -2.2859199
1.4999537 -1.3169498 4.6989632
-2.8062601 -1.2830429 -2.2859199
-2.8062601 -1.2830429 4.6989632
1.4999537 -1.2830429 -2.2859199
1.4999537 -1.2830429 4.6989632
-2.8062601 -1.249135 -2.2859199
-2.8062601 -1.249135 4.6989632
1.4999537 -1.249135 -2.2859199
1.4999537 -1.249135 4.6989632
-2.8062601 -1.2152281 -2.2859199
-2.8062601 -1.2152281 4.6989632
1.4999537 -1.2152281 -2.2859199
1.4999537 -1.2152281 4.6989632
-2.8062601 -1.1813211 -2.2859199
-2.8062601 -1.1813211 4.6989632
1.4999537 -1.1813211 -2.2859199
1.4999537 -1.1813211 4.6989632
-2.8062601 -1.1474142 -2.2859199
-2.8062601 -1.1474142 4.6989632
1.4999537 -1.1474142 -2.2859199
1.4999537 -1.1474142 4.6989632
-2.8062601 -1.1135063 -2.2859199
-2.8062601 -1.1135063 4.6989632
1.4999537 -1.1135063 -2.2859199
1.4999537 -1.1135063 4.6989632
-2.8062601 -1.0795994 -2.2859199
-2.8062601 -1.0795994 4.6989632
1.4999537 -1.0795994 -2.2859199
1.4999537 -1.0795994 4.6989632
-2.8062601 -1.0456924 -2.2859199
-2.8062601 -1.0456924 4.6989632
1.4999537 -1.0456924 -2.2859199
1.4999537 -1.0456924 4.6989632
-2.8062601 -1.0117846 -2.2859199
-2.8062601 -1.0117846 4.6989632
1.4999537 -1.0117846 -2.2859199
1.4999537 -1.0117846 4.6989632
-2.8062601 -0.97787762 -2.2859199
-2.8062601 -0.97787762 4.6989632
1.4999537 -0.97787762 -2.2859199
1.4999537 -0.97787762 4.6989632
-2.8062601 -0.94397068 -2.2859199
-2.8062601 -0.94397068 4.6989632
1.4999537 -0.94397068 -2.2859199
1.4999537 -0.94397068 4.6989632
-2.8062601 -0.91006374 -2.2859199
-2.8062601 -0.91006374 4.6989632
1.4999537 -0.91006374 -2.2859199
1.4999537 -0.91006374 4.6989632
-2.8062601 -0.87615585 -2.2859199
-2.8062601 -0.87615585 4.6989632
1.4999537 -0.87615585 -2.2859199
1.4999537 -0.87615585 4.6989632
-2.8062601 -0.84224892 -2.2859199
-2.8062601 -0.84224892 4.6989632
1.4999537 -0.84224892 -2.2859199
1.4999537 -0.84224892 4.6989632
-2.8062601 -0.80834198 -2.2859199
-2.8062601 -0.80834198 4.6989632
1.4999537 -0.80834198 -2.2859199
1.4999537 -0.80834198 4.6989632
-2.8062601 -0.77443504 -2.2859199
-2.8062601 -0.77443504 4.6989632
1.4999537 -0.77443504 -2.2859199
1.4999537 -0.77443504 4.6989632
-2.8062601 -0.74052715 -2.2859199
-2.8062601 -0.74052715 4.6989632
1.4999537 -0.74052715 -2.2859199
1.4999537 -0.74052715 4.6989632
-2.8062601 -0.70662022 -2.2859199
-2.8062601 -0.70662022 4.6989632
1.4999537 -0.70662022 -2.2859199
1.4999537 -0.70662022 4.6989632
-2.8062601 -0.67271328 -2.2859199
-2.8062601 -0.67271328 4.6989632
1.4999537 -0.67271328 -2.2859199
1.4999537 -0.67271328 4.6989632
-2.8062601 -0.63880539 -2.2859199
-2.8062601 -0.63880539 4.6989632
1.4999537 -0.63880539 -2.2859199
1.4999537 -0.63880539 4.6989632
-2.8062601 -0.60489845 -2.2859199
-2.8062601 -0.60489845 4.6989632
1.4999537 -0.60489845 -2.2859199
1.4999537 -0.60489845 4.6989632
-2.8062601 -0.57099152 -2.2859199
-2.8062601 -0.57099152 4.6989632
1.4999537 -0.57099152 -2.2859199
1.4999537 -0.57099152 4.6989632
-2.8062601 -0.53708458 -2.2859199
-2.8062601 -0.53708458 4.6989632
1.4999537 -0.53708458 -2.2859199
1.4999537 -0.53708458 4.6989632
-2.8062601 -0.50317669 -2.2859199
-2.8062601 -0.50317669 4.6989632
1.4999537 -0.50317669 -2.2859199
1.4999537 -0.50317669 4.6989632
-2.8062601 -0.46926975 -2.2859199
-2.8062601 -0.46926975 4.6989632
1.4999537 -0.46926975 -2.2859199
1.4999537 -0.46926975 4.6989632
-2.8062601 -0.43536282 -2.2859199
-2.8062601 -0.43536282 4.6989632
1.4999537 -0.43536282 -2.2859199
1.4999537 -0.43536282 4.6989632
-2.8062601 -0.40145588 -2.2859199
-2.8062601 -0.40145588 4.6989632
1.4999537 -0.40145588 -2.2859199
1.4999537 -0.40145588 4.6989632
-2.8062601 -0.36754799 -2.2859199
-2.8062601 -0.36754799 4.6989632
1.4999537 -0.36754799 -2.2859199
1.4999537 -0.36754799 4.6989632
-2.8062601 -0.33364105 -2.2859199
-2.8062601 -0.33364105 4.6989632
1.4999537 -0.33364105 -2.2859199
1.4999537 -0.33364105 4.6989632
-2.8062601 -0.29973412 -2.2859199
-2.8062601 -0.29973412 4.6989632
1.4999537 -0.29973412 -2.2859199
1.4999537 -0.29973412 4.6989632
-2.8062601 -0.26582623 -2.2859199
-2.8062601 -0.26582623 4.6989632
1.4999537 -0.26582623 -2.2859199
1.4999537 -0.26582623 4.6989632
-2.8062601 -0.23191929 -2.2859199
-2.8062601 -0.23191929 4.6989632
1.4999537 -0.23191929 -2.2859199
1.4999537 -0.23191929 4.6989632
-2.8062601 -0.19801235 -2.2859199
-2.8062601 -0.19801235 4.6989632
1.4999537 -0.19801235 -2.2859199
1.4999537 -0.19801235 4.6989632
-2.8062601 -0.16410542 -2.2859199
-2.8062601 -0.16410542 4.6989632
1.4999537 -0.16410542 -2.2859199
1.4999537 -0.16410542 4.6989632
-2.8062601 -0.13019753 -2.2859199
-2.8062601 -0.13019753 4.6989632
1.4999537 -0.13019753 -2.2859199
1.4999537 -0.13019753 4.6989632
-2.8062601 -0.096290588 -2.2859199
-2.8062601 -0.096290588 4.6989632
1.4999537 -0.096290588 -2.2859199
1.4999537 -0.096290588 4.6989632
-2.8062601 -0.062383652 -2.2859199
-2.8062601 -0.062383652 4.6989632
1.4999537 -0.062383652 -2.2859199
1.4999537 -0.062383652 4.6989632
-2.8062601 -0.028476715 -2.2859199
-2.8062601 -0.028476715 4.6989632
1.4999537 -0.028476715 -2.2859199
1.4999537 -0.028476715 4.6989632
-2.8062601 0.0054311752 -2.2859199
-2.8062601 0.0054311752 4.6989632
1.4999537 0.0054311752 -2.2859199
1.4999537 0.0054311752 4.6989632
-2.8062601 0.039338112 -2.2859199
-2.8062601 0.039338112 4.6989632
1.4999537 0.039338112 -2.2859199
1.4999537 0.039338112 4.6989632
-2.8062601 0.073245049 -2.2859199
-2.8062601 0.073245049 4.6989632
1.4999537 0.073245049 -2.2859199
1.4999537 0.073245049 4.6989632
-2.8062601 0.10715294 -2.2859199
-2.8062601 0.10715294 4.6989632
1.4999537 0.10715294 -2.2859199
1.4999537 0.10715294 4.6989632
-2.8062601 0.14105988 -2.2859199
-2.8062601 0.14105988 4.6989632
1.4999537 0.14105988 -2.2859199
1.4999537 0.14105988 4.6989632
-2.8062601 0.17496681 -2.2859199
-2.8062601 0.17496681 4.6989632
1.4999537 0.17496681 -2.2859199
1.4999537 0.17496681 4.6989632
-2.8062601 0.20887375 -2.2859199
-2.8062601 0.20887375 4.6989632
1.4999537 0.20887375 -2.2859199
1.4999537 0.20887375 4.6989632
-2.8062601 0.24278164 -2.2859199
-2.8062601 0.24278164 4.6989632
1.4999537 0.24278164 -2.2859199
1.4999537 0.24278164 4.6989632
-2.8062601 0.27668858 -2.2859199
-2.8062601 0.27668858 4.6989632
1.4999537 0.27668858 -2.2859199
1.4999537 0.27668858 4.6989632
-2.8062601 0.31059551 -2.2859199
-2.8062601 0.31059551 4.6989632
1.4999537 0.31059551 -2.2859199
1.4999537 0.31059551 4.6989632
-2.8062601 0.3445034 -2.2859199
-2.8062601 0.3445034 4.6989632
1.4999537 0.3445034 -2.2859199
1.4999537 0.3445034 4.6989632
-2.8062601 0.37841034 -2.2859199
-2.8062601 0.37841034 4.6989632
1.4999537 0.37841034 -2.2859199
1.4999537 0.37841034 4.6989632
-2.8062601 0.41231728 -2.2859199
-2.8062601 0.41231728 4.6989632
1.4999537 0.41231728 -2.2859199
1.4999537 0.41231728 4.6989632
-2.8062601 0.44622421 -2.2859199
-2.8062601 0.44622421 4.6989632
1.4999537 0.44622421 -2.2859199
1.4999537 0.44622421 4.6989632
-2.8062601 0.4801321 -2.2859199
-2.8062601 0.4801321 4.6989632
1.4999537 0.4801321 -2.2859199
1.4999537 0.4801321 4.6989632
-2.8062601 0.51403904 -2.2859199
-2.8062601 0.51403904 4.6989632
1.4999537 0.51403904 -2.2859199
1.4999537 0.51403904 4.6989632
-2.8062601 0.54794598 -2.2859199
-2.8062601 0.54794598 4.6989632
1.4999537 0.54794598 -2.2859199
1.4999537 0.54794598 4.6989632
-2.8062601 0.58185291 -2.2859199
-2.8062601 0.58185291 4.6989632
1.4999537 0.58185291 -2.2859199
1.4999537 0.58185291 4.6989632
-2.8062601 0.6157608 -2.2859199
-2.8062601 0.6157608 4.6989632
1.4999537 0.6157608 -2.2859199
1.4999537 0.6157608 4.6989632
-2.8062601 0.64966774 -2.2859199
-2.8062601 0.64966774 4.6989632
1.4999537 0.64966774 -2.2859199
1.4999537 0.64966774 4.6989632
-2.8062601 0.68357468 -2.2859199
-2.8062601 0.68357468 4.6989632
1.4999537 0.68357468 -2.2859199
1.4999537 0.68357468 4.6989632
-2.8062601 0.71748257 -2.2859199
-2.8062601 0.71748257 4.6989632
1.4999537 0.71748257 -2.2859199
1.4999537 0.71748257 4.6989632
-2.8062601 0.7513895 -2.2859199
-2.8062601 0.7513895 4.6989632
1.4999537 0.7513895 -2.2859199
1.4999537 0.7513895 4.6989632
-2.8062601 0.78529644 -2.2859199
-2.8062601 0.78529644 4.6989632
1.4999537 0.78529644 -2.2859199
1.4999537 0.78529644 4.6989632
-2.8062601 0.81920338 -2.2859199
-2.8062601 0.81920338 4.6989632
1.4999537 0.81920338 -2.2859199
1.4999537 0.81920338 4.6989632
-2.8062601 0.85311127 -2.2859199
-2.8062601 0.85311127 4.6989632
1.4999537 0.85311127 -2.2859199
1.4999537 0.85311127 4.6989632
-2.8062601 0.8870182 -2.2859199
-2.8062601 0.8870182 4.6989632
1.4999537 0.8870182 -2.2859199
1.4999537 0.8870182 4.6989632
-2.8062601 0.92092514 -2.2859199
-2.8062601 0.92092514 4.6989632
1.4999537 0.92092514 -2.2859199
1.4999537 0.92092514 4.6989632
-2.8062601 0.95483208 -2.2859199
-2.8062601 0.95483208 4.6989632
1.4999537 0.95483208 -2.2859199
1.4999537 0.95483208 4.6989632
-2.8062601 0.98873997 -2.2859199
-2.8062601 0.98873997 4.6989632
1.4999537 0.98873997 -2.2859199
1.4999537 0.98873997 4.6989632
-2.8062601 1.0226469 -2.2859199
-2.8062601 1.0226469 4.6989632
1.4999537 1.0226469 -2.2859199
1.4999537 1.0226469 4.6989632
-2.8062601 1.0565538 -2.2859199
-2.8062601 1.0565538 4.6989632
1.4999537 1.0565538 -2.2859199
1.4999537 1.0565538 4.6989632
-2.8062601 1.0904617 -2.2859199
-2.8062601 1.0904617 4.6989632
1.4999537 1.0904617 -2.2859199
1.4999537 1.0904617 4.6989632
-2.8062601 1.1243687 -2.2859199
-2.8062601 1.1243687 4.6989632
1.4999537 1.1243687 -2.2859199
1.4999537 1.1243687 4.6989632
-2.8062601 1.1582756 -2.2859199
-2.8062601 1.1582756 4.6989632
1.4999537 1.1582756 -2.2859199
1.4999537 1.1582756 4.6989632
-2.8062601 1.1921825 -2.2859199
-2.8062601 1.1921825 4.6989632
1.4999537 1.1921825 -2.2859199
1.4999537 1.1921825 4.6989632
-2.8062601 1.2260904 -2.2859199
-2.8062601 1.2260904 4.6989632
1.4999537 1.2260904 -2.2859199
1.4999537 1.2260904 4.6989632
-2.8062601 1.2599974 -2.2859199
-2.8062601 1.2599974 4.6989632
1.4999537 1.2599974 -2.2859199
1.4999537 1.2599974 4.6989632
-2.8062601 1.2939043 -2.2859199
-2.8062601 1.2939043 4.6989632
1.4999537 1.2939043 -2.2859199
1.4999537 1.2939043 4.6989632
-2.8062601 1.3278112 -2.2859199
-2.8062601 1.3278112 4.6989632
1.4999537 1.3278112 -2.2859199
1.4999537 1.3278112 4.6989632
-2.8062601 1.3617191 -2.2859199
-2.8062601 1.3617191 4.6989632
1.4999537 1.3617191 -2.2859199
1.4999537 1.3617191 4.6989632
-2.8062601 1.3956261 -2.2859199
-2.8062601 1.3956261 4.6989632
1.4999537 1.3956261 -2.2859199
1.4999537 1.3956261 4.6989632
-2.8062601 1.429533 -2.2859199
-2.8062601 1.429533 4.6989632
1.4999537 1.429533 -2.2859199
1.4999537 1.429533 4.6989632
-2.8062601 1.4634409 -2.2859199
-2.8062601 1.4634409 4.6989632
1.4999537 1.4634409 -2.2859199
1.4999537 1.4634409 4.6989632
-2.8062601 1.4973478 -2.2859199
-2.8062601 1.4973478 4.6989632
1.4999537 1.4973478 -2.2859199
1.4999537 1.4973478 4.6989632
-2.8062601 1.5312548 -2.2859199
-2.8062601 1.5312548 4.6989632
1.4999537 1.5312548 -2.2859199
1.4999537 1.5312548 4.6989632
-2.8062601 1.5651617 -2.2859199
-2.8062601 1.5651617 4.6989632
1.4999537 1.5651617 -2.2859199
1.4999537 1.5651617 4.6989632
-2.8062601 1.5990696 -2.2859199
-2.8062601 1.5990696 4.6989632
1.4999537 1.5990696 -2.2859199
1.4999537 1.5990696 4.6989632
-2.8062601 1.6329765 -2.2859199
-2.8062601 1.6329765 4.6989632
1.4999537 1.6329765 -2.2859199
1.4999537 1.6329765 4.6989632
-2.8062601 1.6668835 -2.2859199
-2.8062601 1.6668835 4.6989632
1.4999537 1.6668835 -2.2859199
1.4999537 1.6668835 4.6989632
-2.8062601 1.7007904 -2.2859199
-2.8062601 1.7007904 4.6989632
1.4999537 1.7007904 -2.2859199
1.4999537 1.7007904 4.6989632
-2.8062601 1.7346983 -2.2859199
-2.8062601 1.7346983 4.6989632
1.4999537 1.7346983 -2.2859199
1.4999537 1.7346983 4.6989632
-2.8062601 1.7686052 -2.2859199
-2.8062601 1.7686052 4.6989632
1.4999537 1.7686052 -2.2859199
1.4999537 1.7686052 4.6989632
-2.8062601 1.8025122 -2.2859199
-2.8062601 1.8025122 4.6989632
1.4999537 1.8025122 -2.2859199
1.4999537 1.8025122 4.6989632
-2.8062601 1.8364201 -2.2859199
-2.8062601 1.8364201 4.6989632
1.4999537 1.8364201 -2.2859199
1.4999537 1.8364201 4.6989632
-2.8062601 1.870327 -2.2859199
-2.8062601 1.870327 4.6989632
1.4999537 1.870327 -2.2859199
1.4999537 1.870327 4.6989632
-2.8062601 1.9042339 -2.2859199
-2.8062601 1.9042339 4.6989632
1.4999537 1.9042339 -2.2859199
1.4999537 1.9042339 4.6989632
-2.8062601 1.9381409 -2.2859199
-2.8062601 1.9381409 4.6989632
1.4999537 1.9381409 -2.2859199
1.4999537 1.9381409 4.6989632
-2.8062601 1.9720488 -2.2859199
-2.8062601 1.9720488 4.6989632
1.4999537 1.9720488 -2.2859199
1.4999537 1.9720488 4.6989632
-2.8062601 2.0059557 -2.2859199
-2.8062601 2.0059557 4.6989632
1.4999537 2.0059557 -2.2859199
1.4999537 2.0059557 4.6989632
-2.8062601 2.0398626 -2.2859199
-2.8062601 2.0398626 4.6989632
1.4999537 2.0398626 -2.2859199
1.4999537 2.0398626 4.6989632
-2.8062601 2.0737696 -2.2859199
-2.8062601 2.0737696 4.6989632
1.4999537 2.0737696 -2.2859199
1.4999537 2.0737696 4.6989632
-2.8062601 2.1076775 -2.2859199
-2.8062601 2.1076775 4.6989632
1.4999537 2.1076775 -2.2859199
1.4999537 2.1076775 4.6989632
-2.8062601 2.1415844 -2.2859199
-2.8062601 2.1415844 4.6989632
1.4999537 2.1415844 -2.2859199
1.4999537 2.1415844 4.6989632
-2.8062601 2.1754913 -2.2859199
-2.8062601 2.1754913 4.6989632
1.4999537 2.1754913 -2.2859199
1.4999537 2.1754913 4.6989632
-2.8062601 2.2093992 -2.2859199
-2.8062601 2.2093992 4.6989632
1.4999537 2.2093992 -2.2859199
1.4999537 2.2093992 4.6989632
-2.8062601 2.2433062 -2.2859199
-2.8062601 2.2433062 4.6989632
1.4999537 2.2433062 -2.2859199
1.4999537 2.2433062 4.6989632
-2.8062601 2.2772131 -2.2859199
-2.8062601 2.2772131 4.6989632
1.4999537 2.2772131 -2.2859199
1.4999537 2.2772131 4.6989632
-2.8062601 2.31112 -2.2859199
-2.8062601 2.31112 4.6989632
1.4999537 2.31112 -2.2859199
1.4999537 2.31112 4.6989632
-2.8062601 2.3450279 -2.2859199
-2.8062601 2.3450279 4.6989632
1.4999537 2.3450279 -2.2859199
1.4999537 2.3450279 4.6989632
-2.8062601 -10.5058 -2.2859199
-2.8062601 2.3450279 -2.2859199
1.4999537 -10.5058 -2.2859199
1.4999537 2.3450279 -2.2859199
-2.8062601 -10.5058 -2.2520127
-2.8062601 2.3450279 -2.2520127
1.4999537 -10.5058 -2.2520127
1.4999537 2.3450279 -2.2520127
-2.8062601 -10.5058 -2.2181056
-2.8062601 2.3450279 -2.2181056
1.4999537 -10.5058 -2.2181056
1.4999537 2.3450279 -2.2181056
-2.8062601 -10.5058 -2.1841984
-2.8062601 2.3450279 -2.1841984
1.4999537 -10.5058 -2.1841984
1.4999537 2.3450279 -2.1841984
-2.8062601 -10.5058 -2.1502912
-2.8062601 2.3450279 -2.1502912
1.4999537 -10.5058 -2.1502912
1.4999537 2.3450279 -2.1502912
-2.8062601 -10.5058 -2.116384
-2.8062601 2.3450279 -2.116384
1.4999537 -10.5058 -2.116384
1.4999537 2.3450279 -2.116384
-2.8062601 -10.5058 -2.0824766
-2.8062601 2.3450279 -2.0824766
1.4999537 -10.5058 -2.0824766
1.4999537 2.3450279 -2.0824766
-2.8062601 -10.5058 -2.0485694
-2.8062601 2.3450279 -2.0485694
1.4999537 -10.5058 -2.0485694
1.4999537 2.3450279 -2.0485694
-2.8062601 -10.5058 -2.0146623
-2.8062601 2.3450279 -2.0146623
1.4999537 -10.5058 -2.0146623
1.4999537 2.3450279 -2.0146623
-2.8062601 -10.5058 -1.9807551
-2.8062601 2.3450279 -1.9807551
1.4999537 -10.5058 -1.9807551
1.4999537 2.3450279 -1.9807551
-2.8062601 -10.5058 -1.9468479
-2.8062601 2.3450279 -1.9468479
1.4999537 -10.5058 -1.9468479
1.4999537 2.3450279 -1.9468479
-2.8062601 -10.5058 -1.9129407
-2.8062601 2.3450279 -1.9129407
1.4999537 -10.5058 -1.9129407
1.4999537 2.3450279 -1.9129407
-2.8062601 -10.5058 -1.8790336
-2.8062601 2.3450279 -1.8790336
1.4999537 -10.5058 -1.8790336
1.4999537 2.3450279 -1.8790336
-2.8062601 -10.5058 -1.8451264
-2.8062601 2.3450279 -1.8451264
1.4999537 -10.5058 -1.8451264
1.4999537 2.3450279 -1.8451264
-2.8062601 -10.5058 -1.8112192
-2.8062601 2.3450279 -1.8112192
1.4999537 -10.5058 -1.8112192
1.4999537 2.3450279 -1.8112192
-2.8062601 -10.5058 -1.7773119
-2.8062601 2.3450279 -1.7773119
1.4999537 -10.5058 -1.7773119
1.4999537 2.3450279 -1.7773119
-2.8062601 -10.5058 -1.7434047
-2.8062601 2.3450279 -1.7434047
1.4999537 -10.5058 -1.7434047
1.4999537 2.3450279 -1.7434047
-2.8062601 -10.5058 -1.7094976
-2.8062601 2.3450279 -1.7094976
1.4999537 -10.5058 -1.7094976
1.4999537 2.3450279 -1.7094976
-2.8062601 -10.5058 -1.6755903
-2.8062601 2.3450279 -1.6755903
1.4999537 -10.5058 -1.6755903
1.4999537 2.3450279 -1.6755903
-2.8062601 -10.5058 -1.6416831
-2.8062601 2.3450279 -1.6416831
1.4999537 -10.5058 -1.6416831
1.4999537 2.3450279 -1.6416831
-2.8062601 -10.5058 -1.6077759
-2.8062601 2.3450279 -1.6077759
1.4999537 -10.5058 -1.6077759
1.4999537 2.3450279 -1.6077759
-2.8062601 -10.5058 -1.5738688
-2.8062601 2.3450279 -1.5738688
1.4999537 -10.5058 -1.5738688
1.4999537 2.3450279 -1.5738688
-2.8062601 -10.5058 -1.5399616
-2.8062601 2.3450279 -1.5399616
1.4999537 -10.5058 -1.5399616
1.4999537 2.3450279 -1.5399616
-2.8062601 -10.5058 -1.5060544
-2.8062601 2.3450279 -1.5060544
1.4999537 -10.5058 -1.5060544
1.4999537 2.3450279 -1.5060544
-2.8062601 -10.5058 -1.4721472
-2.8062601 2.3450279 -1.4721472
1.4999537 -10.5058 -1.4721472
1.4999537 2.3450279 -1.4721472
-2.8062601 -10.5058 -1.4382401
-2.8062601 2.3450279 -1.4382401
1.4999537 -10.5058 -1.4382401
1.4999537 2.3450279 -1.4382401
-2.8062601 -10.5058 -1.4043328
-2.8062601 2.3450279 -1.4043328
1.4999537 -10.5058 -1.4043328
1.4999537 2.3450279 -1.4043328
-2.8062601 -10.5058 -1.3704256
-2.8062601 2.3450279 -1.3704256
1.4999537 -10.5058 -1.3704256
1.4999537 2.3450279 -1.3704256
-2.8062601 -10.5058 -1.3365184
-2.8062601 2.3450279 -1.3365184
1.4999537 -10.5058 -1.3365184
1.4999537 2.3450279 -1.3365184
-2.8062601 -10.5058 -1.3026111
-2.8062601 2.3450279 -1.3026111
1.4999537 -10.5058 -1.3026111
1.4999537 2.3450279 -1.3026111
-2.8062601 -10.5058 -1.2687039
-2.8062601 2.3450279 -1.2687039
1.4999537 -10.5058 -1.2687039
1.4999537 2.3450279 -1.2687039
-2.8062601 -10.5058 -1.2347968
-2.8062601 2.3450279 -1.2347968
1.4999537 -10.5058 -1.2347968
1.4999537 2.3450279 -1.2347968
-2.8062601 -10.5058 -1.2008896
-2.8062601 2.3450279 -1.2008896
1.4999537 -10.5058 -1.2008896
1.4999537 2.3450279 -1.2008896
-2.8062601 -10.5058 -1.1669824
-2.8062601 2.3450279 -1.1669824
1.4999537 -10.5058 -1.1669824
1.4999537 2.3450279 -1.1669824
-2.8062601 -10.5058 -1.1330752
-2.8062601 2.3450279 -1.1330752
1.4999537 -10.5058 -1.1330752
1.4999537 2.3450279 -1.1330752
-2.8062601 -10.5058 -1.0991679
-2.8062601 2.3450279 -1.0991679
1.4999537 -10.5058 -1.0991679
1.4999537 2.3450279 -1.0991679
-2.8062601 -10.5058 -1.0652608
-2.8062601 2.3450279 -1.0652608
1.4999537 -10.5058 -1.0652608
1.4999537 2.3450279 -1.0652608
-2.8062601 -10.5058 -1.0313536
-2.8062601 2.3450279 -1.0313536
1.4999537 -10.5058 -1.0313536
1.4999537 2.3450279 -1.0313536
-2.8062601 -10.5058 -0.99744642
-2.8062601 2.3450279 -0.99744642
1.4999537 -10.5058 -0.99744642
1.4999537 2.3450279 -0.99744642
-2.8062601 -10.5058 -0.96353924
-2.8062601 2.3450279 -0.96353924
1.4999537 -10.5058 -0.96353924
1.4999537 2.3450279 -0.96353924
-2.8062601 -10.5058 -0.92963195
-2.8062601 2.3450279 -0.92963195
1.4999537 -10.5058 -0.92963195
1.4999537 2.3450279 -0.92963195
-2.8062601 -10.5058 -0.89572477
-2.8062601 2.3450279 -0.89572477
1.4999537 -10.5058 -0.89572477
1.4999537 2.3450279 -0.89572477
-2.8062601 -10.5058 -0.8618176
-2.8062601 2.3450279 -0.8618176
1.4999537 -10.5058 -0.8618176
1.4999537 2.3450279 -0.8618176
-2.8062601 -10.5058 -0.82791042
-2.8062601 2.3450279 -0.82791042
1.4999537 -10.5058 -0.82791042
1.4999537 2.3450279 -0.82791042
-2.8062601 -10.5058 -0.79400325
-2.8062601 2.3450279 -0.79400325
1.4999537 -10.5058 -0.79400325
1.4999537 2.3450279 -0.79400325
-2.8062601 -10.5058 -0.76009607
-2.8062601 2.3450279 -0.76009607
1.4999537 -10.5058 -0.76009607
1.4999537 2.3450279 -0.76009607
-2.8062601 -10.5058 -0.72618878
-2.8062601 2.3450279 -0.72618878
1.4999537 -10.5058 -0.72618878
1.4999537 2.3450279 -0.72618878
-2.8062601 -10.5058 -0.6922816
-2.8062601 2.3450279 -0.6922816
1.4999537 -10.5058 -0.6922816
1.4999537 2.3450279 -0.6922816
-2.8062601 -10.5058 -0.65837443
-2.8062601 2.3450279 -0.65837443
1.4999537 -10.5058 -0.65837443
1.4999537 2.3450279 -0.65837443
-2.8062601 -10.5058 -0.62446725
-2.8062601 2.3450279 -0.62446725
1.4999537 -10.5058 -0.62446725
1.4999537 2.3450279 -0.62446725
-2.8062601 -10.5058 -0.59056008
-2.8062601 2.3450279 -0.59056008
1.4999537 -10.5058 -0.59056008
1.4999537 2.3450279 -0.59056008
-2.8062601 -10.5058 -0.55665278
-2.8062601 2.3450279 -0.55665278
1.4999537 -10.5058 -0.55665278
1.4999537 2.3450279 -0.55665278
-2.8062601 -10.5058 -0.52274561
-2.8062601 2.3450279 -0.52274561
1.4999537 -10.5058 -0.52274561
1.4999537 2.3450279 -0.52274561
-2.8062601 -10.5058 -0.48883843
-2.8062601 2.3450279 -0.48883843
1.4999537 -10.5058 -0.48883843
1.4999537 2.3450279 -0.48883843
-2.8062601 -10.5058 -0.45493126
-2.8062601 2.3450279 -0.45493126
1.4999537 -10.5058 -0.45493126
1.4999537 2.3450279 -0.45493126
-2.8062601 -10.5058 -0.42102408
-2.8062601 2.3450279 -0.42102408
1.4999537 -10.5058 -0.42102408
1.4999537 2.3450279 -0.42102408
-2.8062601 -10.5058 -0.38711691
-2.8062601 2.3450279 -0.38711691
1.4999537 -10.5058 -0.38711691
1.4999537 2.3450279 -0.38711691
-2.8062601 -10.5058 -0.35320961
-2.8062601 2.3450279 -0.35320961
1.4999537 -10.5058 -0.35320961
1.4999537 2.3450279 -0.35320961
-2.8062601 -10.5058 -0.31930244
-2.8062601 2.3450279 -0.31930244
1.4999537 -10.5058 -0.31930244
1.4999537 2.3450279 -0.31930244
-2.8062601 -10.5058 -0.28539515
-2.8062601 2.3450279 -0.28539515
1.4999537 -10.5058 -0.28539515
1.4999537 2.3450279 -0.28539515
-2.8062601 -10.5058 -0.25148797
-2.8062601 2.3450279 -0.25148797
1.4999537 -10.5058 -0.25148797
1.4999537 2.3450279 -0.25148797
-2.8062601 -10.5058 -0.2175808
-2.8062601 2.3450279 -0.2175808
1.4999537 -10.5058 -0.2175808
1.4999537 2.3450279 -0.2175808
-2.8062601 -10.5058 -0.18367362
-2.8062601 2.3450279 -0.18367362
1.4999537 -10.5058 -0.18367362
1.4999537 2.3450279 -0.18367362
-2.8062601 -10.5058 -0.14976645
-2.8062601 2.3450279 -0.14976645
1.4999537 -10.5058 -0.14976645
1.4999537 2.3450279 -0.14976645
-2.8062601 -10.5058 -0.11585927
-2.8062601 2.3450279 -0.11585927
1.4999537 -10.5058 -0.11585927
1.4999537 2.3450279 -0.11585927
-2.8062601 -10.5058 -0.081952095
-2.8062601 2.3450279 -0.081952095
1.4999537 -10.5058 -0.081952095
1.4999537 2.3450279 -0.081952095
-2.8062601 -10.5058 -0.04804492
-2.8062601 2.3450279 -0.04804492
1.4999537 -10.5058 -0.04804492
1.4999537 2.3450279 -0.04804492
-2.8062601 -10.5058 -0.014137745
-2.8062601 2.3450279 -0.014137745
1.4999537 -10.5058 -0.014137745
1.4999537 2.3450279 -0.014137745
-2.8062601 -10.5058 0.01976943
-2.8062601 2.3450279 0.01976943
1.4999537 -10.5058 0.01976943
1.4999537 2.3450279 0.01976943
-2.8062601 -10.5058 0.053676605
-2.8062601 2.3450279 0.053676605
1.4999537 -10.5058 0.053676605
1.4999537 2.3450279 0.053676605
-2.8062601 -10.5058 0.087584019
-2.8062601 2.3450279 0.087584019
1.4999537 -10.5058 0.087584019
1.4999537 2.3450279 0.087584019
-2.8062601 -10.5058 0.12149119
-2.8062601 2.3450279 0.12149119
1.4999537 -10.5058 0.12149119
1.4999537 2.3450279 0.12149119
-2.8062601 -10.5058 0.15539837
-2.8062601 2.3450279 0.15539837
1.4999537 -10.5058 0.15539837
1.4999537 2.3450279 0.15539837
-2.8062601 -10.5058 0.18930554
-2.8062601 2.3450279 0.18930554
1.4999537 -10.5058 0.18930554
1.4999537 2.3450279 0.18930554
-2.8062601 -10.5058 0.22321272
-2.8062601 2.3450279 0.22321272
1.4999537 -10.5058 0.22321272
1.4999537 2.3450279 0.22321272
-2.8062601 -10.5058 0.25711989
-2.8062601 2.3450279 0.25711989
1.4999537 -10.5058 0.25711989
1.4999537 2.3450279 0.25711989
-2.8062601 -10.5058 0.29102707
-2.8062601 2.3450279 0.29102707
1.4999537 -10.5058 0.29102707
1.4999537 2.3450279 0.29102707
-2.8062601 -10.5058 0.32493424
-2.8062601 2.3450279 0.32493424
1.4999537 -10.5058 0.32493424
1.4999537 2.3450279 0.32493424
-2.8062601 -10.5058 0.35884142
-2.8062601 2.3450279 0.35884142
1.4999537 -10.5058 0.35884142
1.4999537 2.3450279 0.35884142
-2.8062601 -10.5058 0.39274859
-2.8062601 2.3450279 0.39274859
1.4999537 -10.5058 0.39274859
1.4999537 2.3450279 0.39274859
-2.8062601 -10.5058 0.42665601
-2.8062601 2.3450279 0.42665601
1.4999537 -10.5058 0.42665601
1.4999537 2.3450279 0.42665601
-2.8062601 -10.5058 0.46056318
-2.8062601 2.3450279 0.46056318
1.4999537 -10.5058 0.46056318
1.4999537 2.3450279 0.46056318
-2.8062601 -10.5058 0.49447036
-2.8062601 2.3450279 0.49447036
1.4999537 -10.5058 0.49447036
1.4999537 2.3450279 0.49447036
-2.8062601 -10.5058 0.52837753
-2.8062601 2.3450279 0.52837753
1.4999537 -10.5058 0.52837753
1.4999537 2.3450279 0.52837753
-2.8062601 -10.5058 0.56228471
-2.8062601 2.3450279 0.56228471
1.4999537 -10.5058 0.56228471
1.4999537 2.3450279 0.56228471
-2.8062601 -10.5058 0.59619188
-2.8062601 2.3450279 0.59619188
1.4999537 -10.5058 0.59619188
1.4999537 2.3450279 0.59619188
-2.8062601 -10.5058 0.63009906
-2.8062601 2.3450279 0.63009906
1.4999537 -10.5058 0.63009906
1.4999537 2.3450279 0.63009906
-2.8062601 -10.5058 0.66400623
-2.8062601 2.3450279 0.66400623
1.4999537 -10.5058 0.66400623
1.4999537 2.3450279 0.66400623
-2.8062601 -10.5058 0.69791341
-2.8062601 2.3450279 0.69791341
1.4999537 -10.5058 0.69791341
1.4999537 2.3450279 0.69791341
-2.8062601 -10.5058 0.73182058
-2.8062601 2.3450279 0.73182058
1.4999537 -10.5058 0.73182058
1.4999537 2.3450279 0.73182058
-2.8062601 -10.5058 0.76572776
-2.8062601 2.3450279 0.76572776
1.4999537 -10.5058 0.76572776
1.4999537 2.3450279 0.76572776
-2.8062601 -10.5058 0.79963517
-2.8062601 2.3450279 0.79963517
1.4999537 -10.5058 0.79963517
1.4999537 2.3450279 0.79963517
-2.8062601 -10.5058 0.83354235
-2.8062601 2.3450279 0.83354235
1.4999537 -10.5058 0.83354235
1.4999537 2.3450279 0.83354235
-2.8062601 -10.5058 0.86744952
-2.8062601 2.3450279 0.86744952
1.4999537 -10.5058 0.86744952
1.4999537 2.3450279 0.86744952
-2.8062601 -10.5058 0.9013567
-2.8062601 2.3450279 0.9013567
1.4999537 -10.5058 0.9013567
1.4999537 2.3450279 0.9013567
-2.8062601 -10.5058 0.93526387
-2.8062601 2.3450279 0.93526387
1.4999537 -10.5058 0.93526387
1.4999537 2.3450279 0.93526387
-2.8062601 -10.5058 0.96917105
-2.8062601 2.3450279 0.96917105
1.4999537 -10.5058 0.96917105
1.4999537 2.3450279 0.96917105
-2.8062601 -10.5058 1.0030782
-2.8062601 2.3450279 1.0030782
1.4999537 -10.5058 1.0030782
1.4999537 2.3450279 1.0030782
-2.8062601 -10.5058 1.0369854
-2.8062601 2.3450279 1.0369854
1.4999537 -10.5058 1.0369854
1.4999537 2.3450279 1.0369854
-2.8062601 -10.5058 1.0708926
-2.8062601 2.3450279 1.0708926
1.4999537 -10.5058 1.0708926
1.4999537 2.3450279 1.0708926
-2.8062601 -10.5058 1.1047997
-2.8062601 2.3450279 1.1047997
1.4999537 -10.5058 1.1047997
1.4999537 2.3450279 1.1047997
-2.8062601 -10.5058 1.1387069
-2.8062601 2.3450279 1.1387069
1.4999537 -10.5058 1.1387069
1.4999537 2.3450279 1.1387069
-2.8062601 -10.5058 1.1726143
-2.8062601 2.3450279 1.1726143
1.4999537 -10.5058 1.1726143
1.4999537 2.3450279 1.1726143
-2.8062601 -10.5058 1.2065215
-2.8062601 2.3450279 1.2065215
1.4999537 -10.5058 1.2065215
1.4999537 2.3450279 1.2065215
-2.8062601 -10.5058 1.2404287
-2.8062601 2.3450279 1.2404287
1.4999537 -10.5058 1.2404287
1.4999537 2.3450279 1.2404287
-2.8062601 -10.5058 1.2743359
-2.8062601 2.3450279 1.2743359
1.4999537 -10.5058 1.2743359
1.4999537 2.3450279 1.2743359
-2.8062601 -10.5058 1.308243
-2.8062601 2.3450279 1.308243
1.4999537 -10.5058 1.308243
1.4999537 2.3450279 1.308243
-2.8062601 -10.5058 1.3421502
-2.8062601 2.3450279 1.3421502
1.4999537 -10.5058 1.3421502
1.4999537 2.3450279 1.3421502
-2.8062601 -10.5058 1.3760574
-2.8062601 2.3450279 1.3760574
1.4999537 -10.5058 1.3760574
1.4999537 2.3450279 1.3760574
-2.8062601 -10.5058 1.4099646
-2.8062601 2.3450279 1.4099646
1.4999537 -10.5058 1.4099646
1.4999537 2.3450279 1.4099646
-2.8062601 -10.5058 1.4438717
-2.8062601 2.3450279 1.4438717
1.4999537 -10.5058 1.4438717
1.4999537 2.3450279 1.4438717
-2.8062601 -10.5058 1.4777789
-2.8062601 2.3450279 1.4777789
1.4999537 -10.5058 1.4777789
1.4999537 2.3450279 1.4777789
-2.8062601 -10.5058 1.5116861
-2.8062601 2.3450279 1.5116861
1.4999537 -10.5058 1.5116861
1.4999537 2.3450279 1.5116861
-2.8062601 -10.5058 1.5455935
-2.8062601 2.3450279 1.5455935
1.4999537 -10.5058 1.5455935
1.4999537 2.3450279 1.5455935
-2.8062601 -10.5058 1.5795007
-2.8062601 2.3450279 1.5795007
1.4999537 -10.5058 1.5795007
1.4999537 2.3450279 1.5795007
-2.8062601 -10.5058 1.6134079
-2.8062601 2.3450279 1.6134079
1.4999537 -10.5058 1.6134079
1.4999537 2.3450279 1.6134079
-2.8062601 -10.5058 1.647315
-2.8062601 2.3450279 1.647315
1.4999537 -10.5058 1.647315
1.4999537 2.3450279 1.647315
-2.8062601 -10.5058 1.6812222
-2.8062601 2.3450279 1.6812222
1.4999537 -10.5058 1.6812222
1.4999537 2.3450279 1.6812222
-2.8062601 -10.5058 1.7151296
-2.8062601 2.3450279 1.7151296
1.4999537 -10.5058 1.7151296
1.4999537 2.3450279 1.7151296
-2.8062601 -10.5058 1.7490366
-2.8062601 2.3450279 1.7490366
1.4999537 -10.5058 1.7490366
1.4999537 2.3450279 1.7490366
-2.8062601 -10.5058 1.782944
-2.8062601 2.3450279 1.782944
1.4999537 -10.5058 1.782944
1.4999537 2.3450279 1.782944
-2.8062601 -10.5058 1.8168509
-2.8062601 2.3450279 1.8168509
1.4999537 -10.5058 1.8168509
1.4999537 2.3450279 1.8168509
-2.8062601 -10.5058 1.8507583
-2.8062601 2.3450279 1.8507583
1.4999537 -10.5058 1.8507583
1.4999537 2.3450279 1.8507583
-2.8062601 -10.5058 1.8846653
-2.8062601 2.3450279 1.8846653
1.4999537 -10.5058 1.8846653
1.4999537 2.3450279 1.8846653
-2.8062601 -10.5058 1.9185727
-2.8062601 2.3450279 1.9185727
1.4999537 -10.5058 1.9185727
1.4999537 2.3450279 1.9185727
-2.8062601 -10.5058 1.9524796
-2.8062601 2.3450279 1.9524796
1.4999537 -10.5058 1.9524796
1.4999537 2.3450279 1.9524796
-2.8062601 -10.5058 1.986387
-2.8062601 2.3450279 1.986387
1.4999537 -10.5058 1.986387
1.4999537 2.3450279 1.986387
-2.8062601 -10.5058 2.020294
-2.8062601 2.3450279 2.020294
1.4999537 -10.5058 2.020294
1.4999537 2.3450279 2.020294
-2.8062601 -10.5058 2.0542014
-2.8062601 2.3450279 2.0542014
1.4999537 -10.5058 2.0542014
1.4999537 2.3450279 2.0542014
-2.8062601 -10.5058 2.0881088
-2.8062601 2.3450279 2.0881088
1.4999537 -10.5058 2.0881088
1.4999537 2.3450279 2.0881088
-2.8062601 -10.5058 2.1220157
-2.8062601 2.3450279 2.1220157
1.4999537 -10.5058 2.1220157
1.4999537 2.3450279 2.1220157
-2.8062601 -10.5058 2.1559231
-2.8062601 2.3450279 2.1559231
1.4999537 -10.5058 2.1559231
1.4999537 2.3450279 2.1559231
-2.8062601 -10.5058 2.1898301
-2.8062601 2.3450279 2.1898301
1.4999537 -10.5058 2.1898301
1.4999537 2.3450279 2.1898301
-2.8062601 -10.5058 2.2237375
-2.8062601 2.3450279 2.2237375
1.4999537 -10.5058 2.2237375
1.4999537 2.3450279 2.2237375
-2.8062601 -10.5058 2.2576444
-2.8062601 2.3450279 2.2576444
1.4999537 -10.5058 2.2576444
1.4999537 2.3450279 2.2576444
-2.8062601 -10.5058 2.2915518
-2.8062601 2.3450279 2.2915518
1.4999537 -10.5058 2.2915518
1.4999537 2.3450279 2.2915518
-2.8062601 -10.5058 2.3254588
-2.8062601 2.3450279 2.3254588
1.4999537 -10.5058 2.3254588
1.4999537 2.3450279 2.3254588
-2.8062601 -10.5058 2.3593662
-2.8062601 2.3450279 2.3593662
1.4999537 -10.5058 2.3593662
1.4999537 2.3450279 2.3593662
-2.8062601 -10.5058 2.3932731
-2.8062601 2.3450279 2.3932731
1.4999537 -10.5058 2.3932731
1.4999537 2.3450279 2.3932731
-2.8062601 -10.5058 2.4271805
-2.8062601 2.3450279 2.4271805
1.4999537 -10.5058 2.4271805
1.4999537 2.3450279 2.4271805
-2.8062601 -10.5058 2.4610879
-2.8062601 2.3450279 2.4610879
1.4999537 -10.5058 2.4610879
1.4999537 2.3450279 2.4610879
-2.8062601 -10.5058 2.4949949
-2.8062601 2.3450279 2.4949949
1.4999537 -10.5058 2.4949949
1.4999537 2.3450279 2.4949949
-2.8062601 -10.5058 2.5289023
-2.8062601 2.3450279 2.5289023
1.4999537 -10.5058 2.5289023
1.4999537 2.3450279 2.5289023
-2.8062601 -10.5058 2.5628092
-2.8062601 2.3450279 2.5628092
1.4999537 -10.5058 2.5628092
1.4999537 2.3450279 2.5628092
-2.8062601 -10.5058 2.5967166
-2.8062601 2.3450279 2.5967166
1.4999537 -10.5058 2.5967166
1.4999537 2.3450279 2.5967166
-2.8062601 -10.5058 2.6306236
-2.8062601 2.3450279 2.6306236
1.4999537 -10.5058 2.6306236
1.4999537 2.3450279 2.6306236
-2.8062601 -10.5058 2.664531
-2.8062601 2.3450279 2.664531
1.4999537 -10.5058 2.664531
1.4999537 2.3450279 2.664531
-2.8062601 -10.5058 2.6984379
-2.8062601 2.3450279 2.6984379
1.4999537 -10.5058 2.6984379
1.4999537 2.3450279 2.6984379
-2.8062601 -10.5058 2.7323453
-2.8062601 2.3450279 2.7323453
1.4999537 -10.5058 2.7323453
1.4999537 2.3450279 2.7323453
-2.8062601 -10.5058 2.7662523
-2.8062601 2.3450279 2.7662523
1.4999537 -10.5058 2.7662523
1.4999537 2.3450279 2.7662523
-2.8062601 -10.5058 2.8001597
-2.8062601 2.3450279 2.8001597
1.4999537 -10.5058 2.8001597
1.4999537 2.3450279 2.8001597
-2.8062601 -10.5058 2.8340671
-2.8062601 2.3450279 2.8340671
1.4999537 -10.5058 2.8340671
1.4999537 2.3450279 2.8340671
-2.8062601 -10.5058 2.867974
-2.8062601 2.3450279 2.867974
1.4999537 -10.5058 2.867974
1.4999537 2.3450279 2.867974
-2.8062601 -10.5058 2.9018815
-2.8062601 2.3450279 2.9018815
1.4999537 -10.5058 2.9018815
1.4999537 2.3450279 2.9018815
-2.8062601 -10.5058 2.9357884
-2.8062601 2.3450279 2.9357884
1.4999537 -10.5058 2.9357884
1.4999537 2.3450279 2.9357884
-2.8062601 -10.5058 2.9696958
-2.8062601 2.3450279 2.9696958
1.4999537 -10.5058 2.9696958
1.4999537 2.3450279 2.9696958
-2.8062601 -10.5058 3.0036027
-2.8062601 2.3450279 3.0036027
1.4999537 -10.5058 3.0036027
1.4999537 2.3450279 3.0036027
-2.8062601 -10.5058 3.0375102
-2.8062601 2.3450279 3.0375102
1.4999537 -10.5058 3.0375102
1.4999537 2.3450279 3.0375102
-2.8062601 -10.5058 3.0714171
-2.8062601 2.3450279 3.0714171
1.4999537 -10.5058 3.0714171
1.4999537 2.3450279 3.0714171
-2.8062601 -10.5058 3.1053245
-2.8062601 2.3450279 3.1053245
1.4999537 -10.5058 3.1053245
1.4999537 2.3450279 3.1053245
-2.8062601 -10.5058 3.1392319
-2.8062601 2.3450279 3.1392319
1.4999537 -10.5058 3.1392319
1.4999537 2.3450279 3.1392319
-2.8062601 -10.5058 3.1731389
-2.8062601 2.3450279 3.1731389
1.4999537 -10.5058 3.1731389
1.4999537 2.3450279 3.1731389
-2.8062601 -10.5058 3.2070463
-2.8062601 2.3450279 3.2070463
1.4999537 -10.5058 3.2070463
1.4999537 2.3450279 3.2070463
-2.8062601 -10.5058 3.2409532
-2.8062601 2.3450279 3.2409532
1.4999537 -10.5058 3.2409532
1.4999537 2.3450279 3.2409532
-2.8062601 -10.5058 3.2748606
-2.8062601 2.3450279 3.2748606
1.4999537 -10.5058 3.2748606
1.4999537 2.3450279 3.2748606
-2.8062601 -10.5058 3.3087676
-2.8062601 2.3450279 3.3087676
1.4999537 -10.5058 3.3087676
1.4999537 2.3450279 3.3087676
-2.8062601 -10.5058 3.342675
-2.8062601 2.3450279 3.342675
