ply
format ascii 1.0
comment PCL generated
element vertex 1449
property float x
property float y
property float z
element camera 0
property float view_px
property float view_py
property float view_pz
property float x_axisx
property float x_axisy
property float x_axisz
property float y_axisx
property float y_axisy
property float y_axisz
property float z_axisx
property float z_axisy
property float z_axisz
property float focal
property float scalex
property float scaley
property float centerx
property float centery
property int viewportx
property int viewporty
property float k1
property float k2
end_header
-0.84118402 -0.40140435 0.91666502
-0.84118402 -0.40140435 2.0901506
0.73675525 -0.40140435 0.91666502
0.73675525 -0.40140435 2.0901506
-0.84118402 -0.39570782 0.91666502
-0.84118402 -0.39570782 2.0901506
0.73675525 -0.39570782 0.91666502
0.73675525 -0.39570782 2.0901506
-0.84118402 -0.39001128 0.91666502
-0.84118402 -0.39001128 2.0901506
0.73675525 -0.39001128 0.91666502
0.73675525 -0.39001128 2.0901506
-0.84118402 -0.38431475 0.91666502
-0.84118402 -0.38431475 2.0901506
0.73675525 -0.38431475 0.91666502
0.73675525 -0.38431475 2.0901506
-0.84118402 -0.37861821 0.91666502
-0.84118402 -0.37861821 2.0901506
0.73675525 -0.37861821 0.91666502
0.73675525 -0.37861821 2.0901506
-0.84118402 -0.37292168 0.91666502
-0.84118402 -0.37292168 2.0901506
0.73675525 -0.37292168 0.91666502
0.73675525 -0.37292168 2.0901506
-0.84118402 -0.36722514 0.91666502
-0.84118402 -0.36722514 2.0901506
0.73675525 -0.36722514 0.91666502
0.73675525 -0.36722514 2.0901506
-0.84118402 -0.36152861 0.91666502
-0.84118402 -0.36152861 2.0901506
0.73675525 -0.36152861 0.91666502
0.73675525 -0.36152861 2.0901506
-0.84118402 -0.3558321 0.91666502
-0.84118402 -0.3558321 2.0901506
0.73675525 -0.3558321 0.91666502
0.73675525 -0.3558321 2.0901506
-0.84118402 -0.35013556 0.91666502
-0.84118402 -0.35013556 2.0901506
0.73675525 -0.35013556 0.91666502
0.73675525 -0.35013556 2.0901506
-0.84118402 -0.34443903 0.91666502
-0.84118402 -0.34443903 2.0901506
0.73675525 -0.34443903 0.91666502
0.73675525 -0.34443903 2.0901506
-0.84118402 -0.33874249 0.91666502
-0.84118402 -0.33874249 2.0901506
0.73675525 -0.33874249 0.91666502
0.73675525 -0.33874249 2.0901506
-0.84118402 -0.33304596 0.91666502
-0.84118402 -0.33304596 2.0901506
0.73675525 -0.33304596 0.91666502
0.73675525 -0.33304596 2.0901506
-0.84118402 -0.32734942 0.91666502
-0.84118402 -0.32734942 2.0901506
0.73675525 -0.32734942 0.91666502
0.73675525 -0.32734942 2.0901506
-0.84118402 -0.32165289 0.91666502
-0.84118402 -0.32165289 2.0901506
0.73675525 -0.32165289 0.91666502
0.73675525 -0.32165289 2.0901506
-0.84118402 -0.31595635 0.91666502
-0.84118402 -0.31595635 2.0901506
0.73675525 -0.31595635 0.91666502
0.73675525 -0.31595635 2.0901506
-0.84118402 -0.31025982 0.91666502
-0.84118402 -0.31025982 2.0901506
0.73675525 -0.31025982 0.91666502
0.73675525 -0.31025982 2.0901506
-0.84118402 -0.30456328 0.91666502
-0.84118402 -0.30456328 2.0901506
0.73675525 -0.30456328 0.91666502
0.73675525 -0.30456328 2.0901506
-0.84118402 -0.29886675 0.91666502
-0.84118402 -0.29886675 2.0901506
0.73675525 -0.29886675 0.91666502
0.73675525 -0.29886675 2.0901506
-0.84118402 -0.29317021 0.91666502
-0.84118402 -0.29317021 2.0901506
0.73675525 -0.29317021 0.91666502
0.73675525 -0.29317021 2.0901506
-0.84118402 -0.28747368 0.91666502
-0.84118402 -0.28747368 2.0901506
0.73675525 -0.28747368 0.91666502
0.73675525 -0.28747368 2.0901506
-0.84118402 -0.28177717 0.91666502
-0.84118402 -0.28177717 2.0901506
0.73675525 -0.28177717 0.91666502
0.73675525 -0.28177717 2.0901506
-0.84118402 -0.27608064 0.91666502
-0.84118402 -0.27608064 2.0901506
0.73675525 -0.27608064 0.91666502
0.73675525 -0.27608064 2.0901506
-0.84118402 -0.2703841 0.91666502
-0.84118402 -0.2703841 2.0901506
0.73675525 -0.2703841 0.91666502
0.73675525 -0.2703841 2.0901506
-0.84118402 -0.26468757 0.91666502
-0.84118402 -0.26468757 2.0901506
0.73675525 -0.26468757 0.91666502
0.73675525 -0.26468757 2.0901506
-0.84118402 -0.25899106 0.91666502
-0.84118402 -0.25899106 2.0901506
0.73675525 -0.25899106 0.91666502
0.73675525 -0.25899106 2.0901506
-0.84118402 -0.25329453 0.91666502
-0.84118402 -0.25329453 2.0901506
0.73675525 -0.25329453 0.91666502
0.73675525 -0.25329453 2.0901506
-0.84118402 -0.24759798 0.91666502
-0.84118402 -0.24759798 2.0901506
0.73675525 -0.24759798 0.91666502
0.73675525 -0.24759798 2.0901506
-0.84118402 -0.24190144 0.91666502
-0.84118402 -0.24190144 2.0901506
0.73675525 -0.24190144 0.91666502
0.73675525 -0.24190144 2.0901506
-0.84118402 -0.23620491 0.91666502
-0.84118402 -0.23620491 2.0901506
0.73675525 -0.23620491 0.91666502
0.73675525 -0.23620491 2.0901506
-0.84118402 -0.23050839 0.91666502
-0.84118402 -0.23050839 2.0901506
0.73675525 -0.23050839 0.91666502
0.73675525 -0.23050839 2.0901506
-0.84118402 -0.22481185 0.91666502
-0.84118402 -0.22481185 2.0901506
0.73675525 -0.22481185 0.91666502
0.73675525 -0.22481185 2.0901506
-0.84118402 -0.21911532 0.91666502
-0.84118402 -0.21911532 2.0901506
0.73675525 -0.21911532 0.91666502
0.73675525 -0.21911532 2.0901506
-0.84118402 -0.21341878 0.91666502
-0.84118402 -0.21341878 2.0901506
0.73675525 -0.21341878 0.91666502
0.73675525 -0.21341878 2.0901506
-0.84118402 -0.20772226 0.91666502
-0.84118402 -0.20772226 2.0901506
0.73675525 -0.20772226 0.91666502
0.73675525 -0.20772226 2.0901506
-0.84118402 -0.20202573 0.91666502
-0.84118402 -0.20202573 2.0901506
0.73675525 -0.20202573 0.91666502
0.73675525 -0.20202573 2.0901506
-0.84118402 -0.19632919 0.91666502
-0.84118402 -0.19632919 2.0901506
0.73675525 -0.19632919 0.91666502
0.73675525 -0.19632919 2.0901506
-0.84118402 -0.19063266 0.91666502
-0.84118402 -0.19063266 2.0901506
0.73675525 -0.19063266 0.91666502
0.73675525 -0.19063266 2.0901506
-0.84118402 -0.18493612 0.91666502
-0.84118402 -0.18493612 2.0901506
0.73675525 -0.18493612 0.91666502
0.73675525 -0.18493612 2.0901506
-0.84118402 -0.1792396 0.91666502
-0.84118402 -0.1792396 2.0901506
0.73675525 -0.1792396 0.91666502
0.73675525 -0.1792396 2.0901506
-0.84118402 -0.17354307 0.91666502
-0.84118402 -0.17354307 2.0901506
0.73675525 -0.17354307 0.91666502
0.73675525 -0.17354307 2.0901506
-0.84118402 -0.16784653 0.91666502
-0.84118402 -0.16784653 2.0901506
0.73675525 -0.16784653 0.91666502
0.73675525 -0.16784653 2.0901506
-0.84118402 -0.16215 0.91666502
-0.84118402 -0.16215 2.0901506
0.73675525 -0.16215 0.91666502
0.73675525 -0.16215 2.0901506
-0.84118402 -0.15645346 0.91666502
-0.84118402 -0.15645346 2.0901506
0.73675525 -0.15645346 0.91666502
0.73675525 -0.15645346 2.0901506
-0.84118402 -0.15075693 0.91666502
-0.84118402 -0.15075693 2.0901506
0.73675525 -0.15075693 0.91666502
0.73675525 -0.15075693 2.0901506
-0.84118402 -0.14506039 0.91666502
-0.84118402 -0.14506039 2.0901506
0.73675525 -0.14506039 0.91666502
0.73675525 -0.14506039 2.0901506
-0.84118402 -0.13936388 0.91666502
-0.84118402 -0.13936388 2.0901506
0.73675525 -0.13936388 0.91666502
0.73675525 -0.13936388 2.0901506
-0.84118402 -0.13366735 0.91666502
-0.84118402 -0.13366735 2.0901506
0.73675525 -0.13366735 0.91666502
0.73675525 -0.13366735 2.0901506
-0.84118402 -0.12797081 0.91666502
-0.84118402 -0.12797081 2.0901506
0.73675525 -0.12797081 0.91666502
0.73675525 -0.12797081 2.0901506
-0.84118402 -0.12227428 0.91666502
-0.84118402 -0.12227428 2.0901506
0.73675525 -0.12227428 0.91666502
0.73675525 -0.12227428 2.0901506
-0.84118402 -0.11657774 0.91666502
-0.84118402 -0.11657774 2.0901506
0.73675525 -0.11657774 0.91666502
0.73675525 -0.11657774 2.0901506
-0.84118402 -0.11088121 0.91666502
-0.84118402 -0.11088121 2.0901506
0.73675525 -0.11088121 0.91666502
0.73675525 -0.11088121 2.0901506
-0.84118402 -0.10518467 0.91666502
-0.84118402 -0.10518467 2.0901506
0.73675525 -0.10518467 0.91666502
0.73675525 -0.10518467 2.0901506
-0.84118402 -0.099488139 0.91666502
-0.84118402 -0.099488139 2.0901506
0.73675525 -0.099488139 0.91666502
0.73675525 -0.099488139 2.0901506
-0.84118402 -0.093791604 0.91666502
-0.84118402 -0.093791604 2.0901506
0.73675525 -0.093791604 0.91666502
0.73675525 -0.093791604 2.0901506
-0.84118402 -0.088095099 0.91666502
-0.84118402 -0.088095099 2.0901506
0.73675525 -0.088095099 0.91666502
0.73675525 -0.088095099 2.0901506
-0.84118402 -0.082398564 0.91666502
-0.84118402 -0.082398564 2.0901506
0.73675525 -0.082398564 0.91666502
0.73675525 -0.082398564 2.0901506
-0.84118402 -0.076702029 0.91666502
-0.84118402 -0.076702029 2.0901506
0.73675525 -0.076702029 0.91666502
0.73675525 -0.076702029 2.0901506
-0.84118402 -0.071005493 0.91666502
-0.84118402 -0.071005493 2.0901506
0.73675525 -0.071005493 0.91666502
0.73675525 -0.071005493 2.0901506
-0.84118402 -0.065308958 0.91666502
-0.84118402 -0.065308958 2.0901506
0.73675525 -0.065308958 0.91666502
0.73675525 -0.065308958 2.0901506
-0.84118402 -0.059612423 0.91666502
-0.84118402 -0.059612423 2.0901506
0.73675525 -0.059612423 0.91666502
0.73675525 -0.059612423 2.0901506
-0.84118402 -0.053915888 0.91666502
-0.84118402 -0.053915888 2.0901506
0.73675525 -0.053915888 0.91666502
0.73675525 -0.053915888 2.0901506
-0.84118402 -0.048219353 0.91666502
-0.84118402 -0.048219353 2.0901506
0.73675525 -0.048219353 0.91666502
0.73675525 -0.048219353 2.0901506
-0.84118402 -0.042522818 0.91666502
-0.84118402 -0.042522818 2.0901506
0.73675525 -0.042522818 0.91666502
0.73675525 -0.042522818 2.0901506
-0.84118402 -0.036826313 0.91666502
-0.84118402 -0.036826313 2.0901506
0.73675525 -0.036826313 0.91666502
0.73675525 -0.036826313 2.0901506
-0.84118402 -0.031129777 0.91666502
-0.84118402 -0.031129777 2.0901506
0.73675525 -0.031129777 0.91666502
0.73675525 -0.031129777 2.0901506
-0.84118402 -0.025433242 0.91666502
-0.84118402 -0.025433242 2.0901506
0.73675525 -0.025433242 0.91666502
0.73675525 -0.025433242 2.0901506
-0.84118402 -0.019736707 0.91666502
-0.84118402 -0.019736707 2.0901506
0.73675525 -0.019736707 0.91666502
0.73675525 -0.019736707 2.0901506
-0.84118402 -0.014040172 0.91666502
-0.84118402 -0.014040172 2.0901506
0.73675525 -0.014040172 0.91666502
0.73675525 -0.014040172 2.0901506
-0.84118402 -0.008343637 0.91666502
-0.84118402 -0.008343637 2.0901506
0.73675525 -0.008343637 0.91666502
0.73675525 -0.008343637 2.0901506
-0.84118402 -0.0026471019 0.91666502
-0.84118402 -0.0026471019 2.0901506
0.73675525 -0.0026471019 0.91666502
0.73675525 -0.0026471019 2.0901506
-0.84118402 0.0030494332 0.91666502
-0.84118402 0.0030494332 2.0901506
0.73675525 0.0030494332 0.91666502
0.73675525 0.0030494332 2.0901506
-0.84118402 0.0087459683 0.91666502
-0.84118402 0.0087459683 2.0901506
0.73675525 0.0087459683 0.91666502
0.73675525 0.0087459683 2.0901506
-0.84118402 0.014442474 0.91666502
-0.84118402 0.014442474 2.0901506
0.73675525 0.014442474 0.91666502
0.73675525 0.014442474 2.0901506
-0.84118402 0.020139009 0.91666502
-0.84118402 0.020139009 2.0901506
0.73675525 0.020139009 0.91666502
0.73675525 0.020139009 2.0901506
-0.84118402 0.025835544 0.91666502
-0.84118402 0.025835544 2.0901506
0.73675525 0.025835544 0.91666502
0.73675525 0.025835544 2.0901506
-0.84118402 0.031532079 0.91666502
-0.84118402 0.031532079 2.0901506
0.73675525 0.031532079 0.91666502
0.73675525 0.031532079 2.0901506
-0.84118402 0.037228614 0.91666502
-0.84118402 0.037228614 2.0901506
0.73675525 0.037228614 0.91666502
0.73675525 0.037228614 2.0901506
-0.84118402 0.042925149 0.91666502
-0.84118402 0.042925149 2.0901506
0.73675525 0.042925149 0.91666502
0.73675525 0.042925149 2.0901506
-0.84118402 0.048621684 0.91666502
-0.84118402 0.048621684 2.0901506
0.73675525 0.048621684 0.91666502
0.73675525 0.048621684 2.0901506
-0.84118402 0.054318219 0.91666502
-0.84118402 0.054318219 2.0901506
0.73675525 0.054318219 0.91666502
0.73675525 0.054318219 2.0901506
-0.84118402 0.060014755 0.91666502
-0.84118402 0.060014755 2.0901506
0.73675525 0.060014755 0.91666502
0.73675525 0.060014755 2.0901506
-0.84118402 0.06571126 0.91666502
-0.84118402 0.06571126 2.0901506
0.73675525 0.06571126 0.91666502
0.73675525 0.06571126 2.0901506
-0.84118402 0.071407795 0.91666502
-0.84118402 0.071407795 2.0901506
0.73675525 0.071407795 0.91666502
0.73675525 0.071407795 2.0901506
-0.84118402 0.07710433 0.91666502
-0.84118402 0.07710433 2.0901506
0.73675525 0.07710433 0.91666502
0.73675525 0.07710433 2.0901506
-0.84118402 0.082800865 0.91666502
-0.84118402 0.082800865 2.0901506
0.73675525 0.082800865 0.91666502
0.73675525 0.082800865 2.0901506
-0.84118402 0.0884974 0.91666502
-0.84118402 0.0884974 2.0901506
0.73675525 0.0884974 0.91666502
0.73675525 0.0884974 2.0901506
-0.84118402 0.094193935 0.91666502
-0.84118402 0.094193935 2.0901506
0.73675525 0.094193935 0.91666502
0.73675525 0.094193935 2.0901506
-0.84118402 0.099890471 0.91666502
-0.84118402 0.099890471 2.0901506
0.73675525 0.099890471 0.91666502
0.73675525 0.099890471 2.0901506
-0.84118402 0.10558701 0.91666502
-0.84118402 0.10558701 2.0901506
0.73675525 0.10558701 0.91666502
0.73675525 0.10558701 2.0901506
-0.84118402 0.11128354 0.91666502
-0.84118402 0.11128354 2.0901506
0.73675525 0.11128354 0.91666502
0.73675525 0.11128354 2.0901506
-0.84118402 0.11698008 0.91666502
-0.84118402 0.11698008 2.0901506
0.73675525 0.11698008 0.91666502
0.73675525 0.11698008 2.0901506
-0.84118402 0.12267661 0.91666502
-0.84118402 0.12267661 2.0901506
0.73675525 0.12267661 0.91666502
0.73675525 0.12267661 2.0901506
-0.84118402 0.12837315 0.91666502
-0.84118402 0.12837315 2.0901506
0.73675525 0.12837315 0.91666502
0.73675525 0.12837315 2.0901506
-0.84118402 0.13406968 0.91666502
-0.84118402 0.13406968 2.0901506
0.73675525 0.13406968 0.91666502
0.73675525 0.13406968 2.0901506
-0.84118402 0.13976622 0.91666502
-0.84118402 0.13976622 2.0901506
0.73675525 0.13976622 0.91666502
0.73675525 0.13976622 2.0901506
-0.84118402 0.14546269 0.91666502
-0.84118402 0.14546269 2.0901506
0.73675525 0.14546269 0.91666502
0.73675525 0.14546269 2.0901506
-0.84118402 0.15115923 0.91666502
-0.84118402 0.15115923 2.0901506
0.73675525 0.15115923 0.91666502
0.73675525 0.15115923 2.0901506
-0.84118402 0.15685576 0.91666502
-0.84118402 0.15685576 2.0901506
0.73675525 0.15685576 0.91666502
0.73675525 0.15685576 2.0901506
-0.84118402 0.1625523 0.91666502
-0.84118402 0.1625523 2.0901506
0.73675525 0.1625523 0.91666502
0.73675525 0.1625523 2.0901506
-0.84118402 0.16824883 0.91666502
-0.84118402 0.16824883 2.0901506
0.73675525 0.16824883 0.91666502
0.73675525 0.16824883 2.0901506
-0.84118402 0.17394537 0.91666502
-0.84118402 0.17394537 2.0901506
0.73675525 0.17394537 0.91666502
0.73675525 0.17394537 2.0901506
-0.84118402 0.1796419 0.91666502
-0.84118402 0.1796419 2.0901506
0.73675525 0.1796419 0.91666502
0.73675525 0.1796419 2.0901506
-0.84118402 0.18533844 0.91666502
-0.84118402 0.18533844 2.0901506
0.73675525 0.18533844 0.91666502
0.73675525 0.18533844 2.0901506
-0.84118402 0.19103497 0.91666502
-0.84118402 0.19103497 2.0901506
0.73675525 0.19103497 0.91666502
0.73675525 0.19103497 2.0901506
-0.84118402 0.19673151 0.91666502
-0.84118402 0.19673151 2.0901506
0.73675525 0.19673151 0.91666502
0.73675525 0.19673151 2.0901506
-0.84118402 0.20242804 0.91666502
-0.84118402 0.20242804 2.0901506
0.73675525 0.20242804 0.91666502
0.73675525 0.20242804 2.0901506
-0.84118402 0.20812458 0.91666502
-0.84118402 0.20812458 2.0901506
0.73675525 0.20812458 0.91666502
0.73675525 0.20812458 2.0901506
-0.84118402 0.21382111 0.91666502
-0.84118402 0.21382111 2.0901506
0.73675525 0.21382111 0.91666502
0.73675525 0.21382111 2.0901506
-0.84118402 0.21951765 0.91666502
-0.84118402 0.21951765 2.0901506
0.73675525 0.21951765 0.91666502
0.73675525 0.21951765 2.0901506
-0.84118402 0.22521418 0.91666502
-0.84118402 0.22521418 2.0901506
0.73675525 0.22521418 0.91666502
0.73675525 0.22521418 2.0901506
-0.84118402 0.23091072 0.91666502
-0.84118402 0.23091072 2.0901506
0.73675525 0.23091072 0.91666502
0.73675525 0.23091072 2.0901506
-0.84118402 0.23660725 0.91666502
-0.84118402 0.23660725 2.0901506
0.73675525 0.23660725 0.91666502
0.73675525 0.23660725 2.0901506
-0.84118402 0.24230379 0.91666502
-0.84118402 0.24230379 2.0901506
0.73675525 0.24230379 0.91666502
0.73675525 0.24230379 2.0901506
-0.84118402 0.24800026 0.91666502
-0.84118402 0.24800026 2.0901506
0.73675525 0.24800026 0.91666502
0.73675525 0.24800026 2.0901506
-0.84118402 0.2536968 0.91666502
-0.84118402 0.2536968 2.0901506
0.73675525 0.2536968 0.91666502
0.73675525 0.2536968 2.0901506
-0.84118402 0.25939333 0.91666502
-0.84118402 0.25939333 2.0901506
0.73675525 0.25939333 0.91666502
0.73675525 0.25939333 2.0901506
-0.84118402 0.26508987 0.91666502
-0.84118402 0.26508987 2.0901506
0.73675525 0.26508987 0.91666502
0.73675525 0.26508987 2.0901506
-0.84118402 0.2707864 0.91666502
-0.84118402 0.2707864 2.0901506
0.73675525 0.2707864 0.91666502
0.73675525 0.2707864 2.0901506
-0.84118402 0.27648294 0.91666502
-0.84118402 0.27648294 2.0901506
0.73675525 0.27648294 0.91666502
0.73675525 0.27648294 2.0901506
-0.84118402 0.28217947 0.91666502
-0.84118402 0.28217947 2.0901506
0.73675525 0.28217947 0.91666502
0.73675525 0.28217947 2.0901506
-0.84118402 0.28787601 0.91666502
-0.84118402 0.28787601 2.0901506
0.73675525 0.28787601 0.91666502
0.73675525 0.28787601 2.0901506
-0.84118402 0.29357255 0.91666502
-0.84118402 0.29357255 2.0901506
0.73675525 0.29357255 0.91666502
0.73675525 0.29357255 2.0901506
-0.84118402 0.29926908 0.91666502
-0.84118402 0.29926908 2.0901506
0.73675525 0.29926908 0.91666502
0.73675525 0.29926908 2.0901506
-0.84118402 0.30496562 0.91666502
-0.84118402 0.30496562 2.0901506
0.73675525 0.30496562 0.91666502
0.73675525 0.30496562 2.0901506
-0.84118402 0.31066215 0.91666502
-0.84118402 0.31066215 2.0901506
0.73675525 0.31066215 0.91666502
0.73675525 0.31066215 2.0901506
-0.84118402 0.31635869 0.91666502
-0.84118402 0.31635869 2.0901506
0.73675525 0.31635869 0.91666502
0.73675525 0.31635869 2.0901506
-0.84118402 0.32205522 0.91666502
-0.84118402 0.32205522 2.0901506
0.73675525 0.32205522 0.91666502
0.73675525 0.32205522 2.0901506
-0.84118402 0.32775176 0.91666502
-0.84118402 0.32775176 2.0901506
0.73675525 0.32775176 0.91666502
0.73675525 0.32775176 2.0901506
-0.84118402 0.33344829 0.91666502
-0.84118402 0.33344829 2.0901506
0.73675525 0.33344829 0.91666502
0.73675525 0.33344829 2.0901506
-0.84118402 0.33914483 0.91666502
-0.84118402 0.33914483 2.0901506
0.73675525 0.33914483 0.91666502
0.73675525 0.33914483 2.0901506
-0.84118402 0.34484136 0.91666502
-0.84118402 0.34484136 2.0901506
0.73675525 0.34484136 0.91666502
0.73675525 0.34484136 2.0901506
-0.84118402 0.3505379 0.91666502
-0.84118402 0.3505379 2.0901506
0.73675525 0.3505379 0.91666502
0.73675525 0.3505379 2.0901506
-0.84118402 0.35623437 0.91666502
-0.84118402 0.35623437 2.0901506
0.73675525 0.35623437 0.91666502
0.73675525 0.35623437 2.0901506
-0.84118402 0.36193091 0.91666502
-0.84118402 0.36193091 2.0901506
0.73675525 0.36193091 0.91666502
0.73675525 0.36193091 2.0901506
-0.84118402 0.36762744 0.91666502
-0.84118402 0.36762744 2.0901506
0.73675525 0.36762744 0.91666502
0.73675525 0.36762744 2.0901506
-0.84118402 0.37332398 0.91666502
-0.84118402 0.37332398 2.0901506
0.73675525 0.37332398 0.91666502
0.73675525 0.37332398 2.0901506
-0.84118402 0.37902051 0.91666502
-0.84118402 0.37902051 2.0901506
0.73675525 0.37902051 0.91666502
0.73675525 0.37902051 2.0901506
-0.84118402 0.38471705 0.91666502
-0.84118402 0.38471705 2.0901506
0.73675525 0.38471705 0.91666502
0.73675525 0.38471705 2.0901506
-0.84118402 0.39041358 0.91666502
-0.84118402 0.39041358 2.0901506
0.73675525 0.39041358 0.91666502
0.73675525 0.39041358 2.0901506
-0.84118402 0.39611012 0.91666502
-0.84118402 0.39611012 2.0901506
0.73675525 0.39611012 0.91666502
0.73675525 0.39611012 2.0901506
-0.84118402 0.40180665 0.91666502
-0.84118402 0.40180665 2.0901506
0.73675525 0.40180665 0.91666502
0.73675525 0.40180665 2.0901506
-0.84118402 0.40750319 0.91666502
-0.84118402 0.40750319 2.0901506
0.73675525 0.40750319 0.91666502
0.73675525 0.40750319 2.0901506
-0.84118402 0.41319972 0.91666502
-0.84118402 0.41319972 2.0901506
0.73675525 0.41319972 0.91666502
0.73675525 0.41319972 2.0901506
-0.84118402 0.41889626 0.91666502
-0.84118402 0.41889626 2.0901506
0.73675525 0.41889626 0.91666502
0.73675525 0.41889626 2.0901506
-0.84118402 0.42459279 0.91666502
-0.84118402 0.42459279 2.0901506
0.73675525 0.42459279 0.91666502
0.73675525 0.42459279 2.0901506
-0.84118402 0.43028933 0.91666502
-0.84118402 0.43028933 2.0901506
0.73675525 0.43028933 0.91666502
0.73675525 0.43028933 2.0901506
-0.84118402 0.43598586 0.91666502
-0.84118402 0.43598586 2.0901506
0.73675525 0.43598586 0.91666502
0.73675525 0.43598586 2.0901506
-0.84118402 0.4416824 0.91666502
-0.84118402 0.4416824 2.0901506
0.73675525 0.4416824 0.91666502
0.73675525 0.4416824 2.0901506
-0.84118402 0.44737893 0.91666502
-0.84118402 0.44737893 2.0901506
0.73675525 0.44737893 0.91666502
0.73675525 0.44737893 2.0901506
-0.84118402 0.45307547 0.91666502
-0.84118402 0.45307547 2.0901506
0.73675525 0.45307547 0.91666502
0.73675525 0.45307547 2.0901506
-0.84118402 0.45877194 0.91666502
-0.84118402 0.45877194 2.0901506
0.73675525 0.45877194 0.91666502
0.73675525 0.45877194 2.0901506
-0.84118402 0.46446848 0.91666502
-0.84118402 0.46446848 2.0901506
0.73675525 0.46446848 0.91666502
0.73675525 0.46446848 2.0901506
-0.84118402 0.47016501 0.91666502
-0.84118402 0.47016501 2.0901506
0.73675525 0.47016501 0.91666502
0.73675525 0.47016501 2.0901506
-0.84118402 0.47586155 0.91666502
-0.84118402 0.47586155 2.0901506
0.73675525 0.47586155 0.91666502
0.73675525 0.47586155 2.0901506
-0.84118402 0.48155808 0.91666502
-0.84118402 0.48155808 2.0901506
0.73675525 0.48155808 0.91666502
0.73675525 0.48155808 2.0901506
-0.84118402 0.48725462 0.91666502
-0.84118402 0.48725462 2.0901506
0.73675525 0.48725462 0.91666502
0.73675525 0.48725462 2.0901506
-0.84118402 0.49295115 0.91666502
-0.84118402 0.49295115 2.0901506
0.73675525 0.49295115 0.91666502
0.73675525 0.49295115 2.0901506
-0.84118402 0.49864769 0.91666502
-0.84118402 0.49864769 2.0901506
0.73675525 0.49864769 0.91666502
0.73675525 0.49864769 2.0901506
-0.84118402 0.50434422 0.91666502
-0.84118402 0.50434422 2.0901506
0.73675525 0.50434422 0.91666502
0.73675525 0.50434422 2.0901506
-0.84118402 0.51004076 0.91666502
-0.84118402 0.51004076 2.0901506
0.73675525 0.51004076 0.91666502
0.73675525 0.51004076 2.0901506
-0.84118402 0.5157373 0.91666502
-0.84118402 0.5157373 2.0901506
0.73675525 0.5157373 0.91666502
0.73675525 0.5157373 2.0901506
-0.84118402 0.52143383 0.91666502
-0.84118402 0.52143383 2.0901506
0.73675525 0.52143383 0.91666502
0.73675525 0.52143383 2.0901506
-0.84118402 0.52713037 0.91666502
-0.84118402 0.52713037 2.0901506
0.73675525 0.52713037 0.91666502
0.73675525 0.52713037 2.0901506
-0.84118402 0.5328269 0.91666502
-0.84118402 0.5328269 2.0901506
0.73675525 0.5328269 0.91666502
0.73675525 0.5328269 2.0901506
-0.84118402 0.53852344 0.91666502
-0.84118402 0.53852344 2.0901506
0.73675525 0.53852344 0.91666502
0.73675525 0.53852344 2.0901506
-0.84118402 0.54421997 0.91666502
-0.84118402 0.54421997 2.0901506
0.73675525 0.54421997 0.91666502
0.73675525 0.54421997 2.0901506
-0.84118402 0.54991651 0.91666502
-0.84118402 0.54991651 2.0901506
0.73675525 0.54991651 0.91666502
0.73675525 0.54991651 2.0901506
-0.84118402 0.55561304 0.91666502
-0.84118402 0.55561304 2.0901506
0.73675525 0.55561304 0.91666502
0.73675525 0.55561304 2.0901506
-0.84118402 0.56130952 0.91666502
-0.84118402 0.56130952 2.0901506
0.73675525 0.56130952 0.91666502
0.73675525 0.56130952 2.0901506
-0.84118402 -0.429887 0.91666502
-0.84118402 0.56130952 0.91666502
0.73675525 -0.429887 0.91666502
0.73675525 0.56130952 0.91666502
-0.84118402 -0.429887 0.92236155
-0.84118402 0.56130952 0.92236155
0.73675525 -0.429887 0.92236155
0.73675525 0.56130952 0.92236155
-0.84118402 -0.429887 0.92805809
-0.84118402 0.56130952 0.92805809
0.73675525 -0.429887 0.92805809
0.73675525 0.56130952 0.92805809
-0.84118402 -0.429887 0.93375462
-0.84118402 0.56130952 0.93375462
0.73675525 -0.429887 0.93375462
0.73675525 0.56130952 0.93375462
-0.84118402 -0.429887 0.93945116
-0.84118402 0.56130952 0.93945116
0.73675525 -0.429887 0.93945116
0.73675525 0.56130952 0.93945116
-0.84118402 -0.429887 0.94514769
-0.84118402 0.56130952 0.94514769
0.73675525 -0.429887 0.94514769
0.73675525 0.56130952 0.94514769
-0.84118402 -0.429887 0.95084423
-0.84118402 0.56130952 0.95084423
0.73675525 -0.429887 0.95084423
0.73675525 0.56130952 0.95084423
-0.84118402 -0.429887 0.95654076
-0.84118402 0.56130952 0.95654076
0.73675525 -0.429887 0.95654076
0.73675525 0.56130952 0.95654076
-0.84118402 -0.429887 0.9622373
-0.84118402 0.56130952 0.9622373
0.73675525 -0.429887 0.9622373
0.73675525 0.56130952 0.9622373
-0.84118402 -0.429887 0.96793377
-0.84118402 0.56130952 0.96793377
0.73675525 -0.429887 0.96793377
0.73675525 0.56130952 0.96793377
-0.84118402 -0.429887 0.97363031
-0.84118402 0.56130952 0.97363031
0.73675525 -0.429887 0.97363031
0.73675525 0.56130952 0.97363031
-0.84118402 -0.429887 0.97932684
-0.84118402 0.56130952 0.97932684
0.73675525 -0.429887 0.97932684
0.73675525 0.56130952 0.97932684
-0.84118402 -0.429887 0.98502338
-0.84118402 0.56130952 0.98502338
0.73675525 -0.429887 0.98502338
0.73675525 0.56130952 0.98502338
-0.84118402 -0.429887 0.99071991
-0.84118402 0.56130952 0.99071991
0.73675525 -0.429887 0.99071991
0.73675525 0.56130952 0.99071991
-0.84118402 -0.429887 0.99641645
-0.84118402 0.56130952 0.99641645
0.73675525 -0.429887 0.99641645
0.73675525 0.56130952 0.99641645
-0.84118402 -0.429887 1.002113
-0.84118402 0.56130952 1.002113
0.73675525 -0.429887 1.002113
0.73675525 0.56130952 1.002113
-0.84118402 -0.429887 1.0078095
-0.84118402 0.56130952 1.0078095
0.73675525 -0.429887 1.0078095
0.73675525 0.56130952 1.0078095
-0.84118402 -0.429887 1.0135061
-0.84118402 0.56130952 1.0135061
0.73675525 -0.429887 1.0135061
0.73675525 0.56130952 1.0135061
-0.84118402 -0.429887 1.0192026
-0.84118402 0.56130952 1.0192026
0.73675525 -0.429887 1.0192026
0.73675525 0.56130952 1.0192026
-0.84118402 -0.429887 1.0248991
-0.84118402 0.56130952 1.0248991
0.73675525 -0.429887 1.0248991
0.73675525 0.56130952 1.0248991
-0.84118402 -0.429887 1.0305957
-0.84118402 0.56130952 1.0305957
0.73675525 -0.429887 1.0305957
0.73675525 0.56130952 1.0305957
-0.84118402 -0.429887 1.0362922
-0.84118402 0.56130952 1.0362922
0.73675525 -0.429887 1.0362922
0.73675525 0.56130952 1.0362922
-0.84118402 -0.429887 1.0419887
-0.84118402 0.56130952 1.0419887
0.73675525 -0.429887 1.0419887
0.73675525 0.56130952 1.0419887
-0.84118402 -0.429887 1.0476853
-0.84118402 0.56130952 1.0476853
0.73675525 -0.429887 1.0476853
0.73675525 0.56130952 1.0476853
-0.84118402 -0.429887 1.0533818
-0.84118402 0.56130952 1.0533818
0.73675525 -0.429887 1.0533818
0.73675525 0.56130952 1.0533818
-0.84118402 -0.429887 1.0590783
-0.84118402 0.56130952 1.0590783
0.73675525 -0.429887 1.0590783
0.73675525 0.56130952 1.0590783
-0.84118402 -0.429887 1.0647749
-0.84118402 0.56130952 1.0647749
0.73675525 -0.429887 1.0647749
0.73675525 0.56130952 1.0647749
-0.84118402 -0.429887 1.0704714
-0.84118402 0.56130952 1.0704714
0.73675525 -0.429887 1.0704714
0.73675525 0.56130952 1.0704714
-0.84118402 -0.429887 1.0761679
-0.84118402 0.56130952 1.0761679
0.73675525 -0.429887 1.0761679
0.73675525 0.56130952 1.0761679
-0.84118402 -0.429887 1.0818645
-0.84118402 0.56130952 1.0818645
0.73675525 -0.429887 1.0818645
0.73675525 0.56130952 1.0818645
-0.84118402 -0.429887 1.087561
-0.84118402 0.56130952 1.087561
0.73675525 -0.429887 1.087561
0.73675525 0.56130952 1.087561
-0.84118402 -0.429887 1.0932575
-0.84118402 0.56130952 1.0932575
0.73675525 -0.429887 1.0932575
0.73675525 0.56130952 1.0932575
-0.84118402 -0.429887 1.0989541
-0.84118402 0.56130952 1.0989541
0.73675525 -0.429887 1.0989541
0.73675525 0.56130952 1.0989541
-0.84118402 -0.429887 1.1046506
-0.84118402 0.56130952 1.1046506
0.73675525 -0.429887 1.1046506
0.73675525 0.56130952 1.1046506
-0.84118402 -0.429887 1.1103472
-0.84118402 0.56130952 1.1103472
0.73675525 -0.429887 1.1103472
0.73675525 0.56130952 1.1103472
-0.84118402 -0.429887 1.1160436
-0.84118402 0.56130952 1.1160436
0.73675525 -0.429887 1.1160436
0.73675525 0.56130952 1.1160436
-0.84118402 -0.429887 1.1217401
-0.84118402 0.56130952 1.1217401
0.73675525 -0.429887 1.1217401
0.73675525 0.56130952 1.1217401
-0.84118402 -0.429887 1.1274366
-0.84118402 0.56130952 1.1274366
0.73675525 -0.429887 1.1274366
0.73675525 0.56130952 1.1274366
-0.84118402 -0.429887 1.1331332
-0.84118402 0.56130952 1.1331332
0.73675525 -0.429887 1.1331332
0.73675525 0.56130952 1.1331332
-0.84118402 -0.429887 1.1388297
-0.84118402 0.56130952 1.1388297
0.73675525 -0.429887 1.1388297
0.73675525 0.56130952 1.1388297
-0.84118402 -0.429887 1.1445262
-0.84118402 0.56130952 1.1445262
0.73675525 -0.429887 1.1445262
0.73675525 0.56130952 1.1445262
-0.84118402 -0.429887 1.1502228
-0.84118402 0.56130952 1.1502228
0.73675525 -0.429887 1.1502228
0.73675525 0.56130952 1.1502228
-0.84118402 -0.429887 1.1559193
-0.84118402 0.56130952 1.1559193
0.73675525 -0.429887 1.1559193
0.73675525 0.56130952 1.1559193
-0.84118402 -0.429887 1.1616158
-0.84118402 0.56130952 1.1616158
0.73675525 -0.429887 1.1616158
0.73675525 0.56130952 1.1616158
-0.84118402 -0.429887 1.1673124
-0.84118402 0.56130952 1.1673124
0.73675525 -0.429887 1.1673124
0.73675525 0.56130952 1.1673124
-0.84118402 -0.429887 1.1730089
-0.84118402 0.56130952 1.1730089
0.73675525 -0.429887 1.1730089
0.73675525 0.56130952 1.1730089
-0.84118402 -0.429887 1.1787055
-0.84118402 0.56130952 1.1787055
0.73675525 -0.429887 1.1787055
0.73675525 0.56130952 1.1787055
-0.84118402 -0.429887 1.184402
-0.84118402 0.56130952 1.184402
0.73675525 -0.429887 1.184402
0.73675525 0.56130952 1.184402
-0.84118402 -0.429887 1.1900985
-0.84118402 0.56130952 1.1900985
0.73675525 -0.429887 1.1900985
0.73675525 0.56130952 1.1900985
-0.84118402 -0.429887 1.1957951
-0.84118402 0.56130952 1.1957951
0.73675525 -0.429887 1.1957951
0.73675525 0.56130952 1.1957951
-0.84118402 -0.429887 1.2014916
-0.84118402 0.56130952 1.2014916
0.73675525 -0.429887 1.2014916
0.73675525 0.56130952 1.2014916
-0.84118402 -0.429887 1.2071881
-0.84118402 0.56130952 1.2071881
0.73675525 -0.429887 1.2071881
0.73675525 0.56130952 1.2071881
-0.84118402 -0.429887 1.2128847
-0.84118402 0.56130952 1.2128847
0.73675525 -0.429887 1.2128847
0.73675525 0.56130952 1.2128847
-0.84118402 -0.429887 1.2185812
-0.84118402 0.56130952 1.2185812
0.73675525 -0.429887 1.2185812
0.73675525 0.56130952 1.2185812
-0.84118402 -0.429887 1.2242777
-0.84118402 0.56130952 1.2242777
0.73675525 -0.429887 1.2242777
0.73675525 0.56130952 1.2242777
-0.84118402 -0.429887 1.2299743
-0.84118402 0.56130952 1.2299743
0.73675525 -0.429887 1.2299743
0.73675525 0.56130952 1.2299743
-0.84118402 -0.429887 1.2356708
-0.84118402 0.56130952 1.2356708
0.73675525 -0.429887 1.2356708
0.73675525 0.56130952 1.2356708
-0.84118402 -0.429887 1.2413673
-0.84118402 0.56130952 1.2413673
0.73675525 -0.429887 1.2413673
0.73675525 0.56130952 1.2413673
-0.84118402 -0.429887 1.2470639
-0.84118402 0.56130952 1.2470639
0.73675525 -0.429887 1.2470639
0.73675525 0.56130952 1.2470639
-0.84118402 -0.429887 1.2527604
-0.84118402 0.56130952 1.2527604
0.73675525 -0.429887 1.2527604
0.73675525 0.56130952 1.2527604
-0.84118402 -0.429887 1.2584569
-0.84118402 0.56130952 1.2584569
0.73675525 -0.429887 1.2584569
0.73675525 0.56130952 1.2584569
-0.84118402 -0.429887 1.2641535
-0.84118402 0.56130952 1.2641535
0.73675525 -0.429887 1.2641535
0.73675525 0.56130952 1.2641535
-0.84118402 -0.429887 1.26985
-0.84118402 0.56130952 1.26985
0.73675525 -0.429887 1.26985
0.73675525 0.56130952 1.26985
-0.84118402 -0.429887 1.2755466
-0.84118402 0.56130952 1.2755466
0.73675525 -0.429887 1.2755466
0.73675525 0.56130952 1.2755466
-0.84118402 -0.429887 1.2812431
-0.84118402 0.56130952 1.2812431
0.73675525 -0.429887 1.2812431
0.73675525 0.56130952 1.2812431
-0.84118402 -0.429887 1.2869396
-0.84118402 0.56130952 1.2869396
0.73675525 -0.429887 1.2869396
0.73675525 0.56130952 1.2869396
-0.84118402 -0.429887 1.2926362
-0.84118402 0.56130952 1.2926362
0.73675525 -0.429887 1.2926362
0.73675525 0.56130952 1.2926362
-0.84118402 -0.429887 1.2983327
-0.84118402 0.56130952 1.2983327
0.73675525 -0.429887 1.2983327
0.73675525 0.56130952 1.2983327
-0.84118402 -0.429887 1.3040292
-0.84118402 0.56130952 1.3040292
0.73675525 -0.429887 1.3040292
0.73675525 0.56130952 1.3040292
-0.84118402 -0.429887 1.3097258
-0.84118402 0.56130952 1.3097258
0.73675525 -0.429887 1.3097258
0.73675525 0.56130952 1.3097258
-0.84118402 -0.429887 1.3154223
-0.84118402 0.56130952 1.3154223
0.73675525 -0.429887 1.3154223
0.73675525 0.56130952 1.3154223
-0.84118402 -0.429887 1.3211188
-0.84118402 0.56130952 1.3211188
0.73675525 -0.429887 1.3211188
0.73675525 0.56130952 1.3211188
-0.84118402 -0.429887 1.3268154
-0.84118402 0.56130952 1.3268154
0.73675525 -0.429887 1.3268154
0.73675525 0.56130952 1.3268154
-0.84118402 -0.429887 1.3325119
-0.84118402 0.56130952 1.3325119
0.73675525 -0.429887 1.3325119
0.73675525 0.56130952 1.3325119
-0.84118402 -0.429887 1.3382084
-0.84118402 0.56130952 1.3382084
0.73675525 -0.429887 1.3382084
0.73675525 0.56130952 1.3382084
-0.84118402 -0.429887 1.343905
-0.84118402 0.56130952 1.343905
0.73675525 -0.429887 1.343905
0.73675525 0.56130952 1.343905
-0.84118402 -0.429887 1.3496015
-0.84118402 0.56130952 1.3496015
0.73675525 -0.429887 1.3496015
0.73675525 0.56130952 1.3496015
-0.84118402 -0.429887 1.355298
-0.84118402 0.56130952 1.355298
0.73675525 -0.429887 1.355298
0.73675525 0.56130952 1.355298
-0.84118402 -0.429887 1.3609945
-0.84118402 0.56130952 1.3609945
0.73675525 -0.429887 1.3609945
0.73675525 0.56130952 1.3609945
-0.84118402 -0.429887 1.366691
-0.84118402 0.56130952 1.366691
0.73675525 -0.429887 1.366691
0.73675525 0.56130952 1.366691
-0.84118402 -0.429887 1.3723875
-0.84118402 0.56130952 1.3723875
0.73675525 -0.429887 1.3723875
0.73675525 0.56130952 1.3723875
-0.84118402 -0.429887 1.3780841
-0.84118402 0.56130952 1.3780841
0.73675525 -0.429887 1.3780841
0.73675525 0.56130952 1.3780841
-0.84118402 -0.429887 1.3837806
-0.84118402 0.56130952 1.3837806
0.73675525 -0.429887 1.3837806
0.73675525 0.56130952 1.3837806
-0.84118402 -0.429887 1.3894771
-0.84118402 0.56130952 1.3894771
0.73675525 -0.429887 1.3894771
0.73675525 0.56130952 1.3894771
-0.84118402 -0.429887 1.3951737
-0.84118402 0.56130952 1.3951737
0.73675525 -0.429887 1.3951737
0.73675525 0.56130952 1.3951737
-0.84118402 -0.429887 1.4008702
-0.84118402 0.56130952 1.4008702
0.73675525 -0.429887 1.4008702
0.73675525 0.56130952 1.4008702
-0.84118402 -0.429887 1.4065667
-0.84118402 0.56130952 1.4065667
0.73675525 -0.429887 1.4065667
0.73675525 0.56130952 1.4065667
-0.84118402 -0.429887 1.4122633
-0.84118402 0.56130952 1.4122633
0.73675525 -0.429887 1.4122633
0.73675525 0.56130952 1.4122633
-0.84118402 -0.429887 1.4179598
-0.84118402 0.56130952 1.4179598
0.73675525 -0.429887 1.4179598
0.73675525 0.56130952 1.4179598
-0.84118402 -0.429887 1.4236563
-0.84118402 0.56130952 1.4236563
0.73675525 -0.429887 1.4236563
0.73675525 0.56130952 1.4236563
-0.84118402 -0.429887 1.4293529
-0.84118402 0.56130952 1.4293529
0.73675525 -0.429887 1.4293529
0.73675525 0.56130952 1.4293529
-0.84118402 -0.429887 1.4350494
-0.84118402 0.56130952 1.4350494
0.73675525 -0.429887 1.4350494
0.73675525 0.56130952 1.4350494
-0.84118402 -0.429887 1.4407459
-0.84118402 0.56130952 1.4407459
0.73675525 -0.429887 1.4407459
0.73675525 0.56130952 1.4407459
-0.84118402 -0.429887 1.4464425
-0.84118402 0.56130952 1.4464425
0.73675525 -0.429887 1.4464425
0.73675525 0.56130952 1.4464425
-0.84118402 -0.429887 1.452139
-0.84118402 0.56130952 1.452139
0.73675525 -0.429887 1.452139
0.73675525 0.56130952 1.452139
-0.84118402 -0.429887 1.4578356
-0.84118402 0.56130952 1.4578356
0.73675525 -0.429887 1.4578356
0.73675525 0.56130952 1.4578356
-0.84118402 -0.429887 1.4635321
-0.84118402 0.56130952 1.4635321
0.73675525 -0.429887 1.4635321
0.73675525 0.56130952 1.4635321
-0.84118402 -0.429887 1.4692286
-0.84118402 0.56130952 1.4692286
0.73675525 -0.429887 1.4692286
0.73675525 0.56130952 1.4692286
-0.84118402 -0.429887 1.4749252
-0.84118402 0.56130952 1.4749252
0.73675525 -0.429887 1.4749252
0.73675525 0.56130952 1.4749252
-0.84118402 -0.429887 1.4806217
-0.84118402 0.56130952 1.4806217
0.73675525 -0.429887 1.4806217
0.73675525 0.56130952 1.4806217
-0.84118402 -0.429887 1.4863182
-0.84118402 0.56130952 1.4863182
0.73675525 -0.429887 1.4863182
0.73675525 0.56130952 1.4863182
-0.84118402 -0.429887 1.4920146
-0.84118402 0.56130952 1.4920146
0.73675525 -0.429887 1.4920146
0.73675525 0.56130952 1.4920146
-0.84118402 -0.429887 1.4977112
-0.84118402 0.56130952 1.4977112
0.73675525 -0.429887 1.4977112
0.73675525 0.56130952 1.4977112
-0.84118402 -0.429887 1.5034077
-0.84118402 0.56130952 1.5034077
0.73675525 -0.429887 1.5034077
0.73675525 0.56130952 1.5034077
-0.84118402 -0.429887 1.5091043
-0.84118402 0.56130952 1.5091043
0.73675525 -0.429887 1.5091043
0.73675525 0.56130952 1.5091043
-0.84118402 -0.429887 1.5148008
-0.84118402 0.56130952 1.5148008
0.73675525 -0.429887 1.5148008
0.73675525 0.56130952 1.5148008
-0.84118402 -0.429887 1.5204973
-0.84118402 0.56130952 1.5204973
0.73675525 -0.429887 1.5204973
0.73675525 0.56130952 1.5204973
-0.84118402 -0.429887 1.5261939
-0.84118402 0.56130952 1.5261939
0.73675525 -0.429887 1.5261939
0.73675525 0.56130952 1.5261939
-0.84118402 -0.429887 1.5318904
-0.84118402 0.56130952 1.5318904
0.73675525 -0.429887 1.5318904
0.73675525 0.56130952 1.5318904
-0.84118402 -0.429887 1.5375869
-0.84118402 0.56130952 1.5375869
0.73675525 -0.429887 1.5375869
0.73675525 0.56130952 1.5375869
-0.84118402 -0.429887 1.5432835
-0.84118402 0.56130952 1.5432835
0.73675525 -0.429887 1.5432835
0.73675525 0.56130952 1.5432835
-0.84118402 -0.429887 1.54898
-0.84118402 0.56130952 1.54898
0.73675525 -0.429887 1.54898
0.73675525 0.56130952 1.54898
-0.84118402 -0.429887 1.5546765
-0.84118402 0.56130952 1.5546765
0.73675525 -0.429887 1.5546765
0.73675525 0.56130952 1.5546765
-0.84118402 -0.429887 1.5603731
-0.84118402 0.56130952 1.5603731
0.73675525 -0.429887 1.5603731
0.73675525 0.56130952 1.5603731
-0.84118402 -0.429887 1.5660696
-0.84118402 0.56130952 1.5660696
0.73675525 -0.429887 1.5660696
0.73675525 0.56130952 1.5660696
-0.84118402 -0.429887 1.5717661
-0.84118402 0.56130952 1.5717661
0.73675525 -0.429887 1.5717661
0.73675525 0.56130952 1.5717661
-0.84118402 -0.429887 1.5774627
-0.84118402 0.56130952 1.5774627
0.73675525 -0.429887 1.5774627
0.73675525 0.56130952 1.5774627
-0.84118402 -0.429887 1.5831592
-0.84118402 0.56130952 1.5831592
0.73675525 -0.429887 1.5831592
0.73675525 0.56130952 1.5831592
-0.84118402 -0.429887 1.5888557
-0.84118402 0.56130952 1.5888557
0.73675525 -0.429887 1.5888557
0.73675525 0.56130952 1.5888557
-0.84118402 -0.429887 1.5945523
-0.84118402 0.56130952 1.5945523
0.73675525 -0.429887 1.5945523
0.73675525 0.56130952 1.5945523
-0.84118402 -0.429887 1.6002488
-0.84118402 0.56130952 1.6002488
0.73675525 -0.429887 1.6002488
0.73675525 0.56130952 1.6002488
-0.84118402 -0.429887 1.6059453
-0.84118402 0.56130952 1.6059453
0.73675525 -0.429887 1.6059453
0.73675525 0.56130952 1.6059453
-0.84118402 -0.429887 1.6116419
-0.84118402 0.56130952 1.6116419
0.73675525 -0.429887 1.6116419
0.73675525 0.56130952 1.6116419
-0.84118402 -0.429887 1.6173384
-0.84118402 0.56130952 1.6173384
0.73675525 -0.429887 1.6173384
0.73675525 0.56130952 1.6173384
-0.84118402 -0.429887 1.623035
-0.84118402 0.56130952 1.623035
0.73675525 -0.429887 1.623035
0.73675525 0.56130952 1.623035
-0.84118402 -0.429887 1.6287315
-0.84118402 0.56130952 1.6287315
0.73675525 -0.429887 1.6287315
0.73675525 0.56130952 1.6287315
-0.84118402 -0.429887 1.634428
-0.84118402 0.56130952 1.634428
0.73675525 -0.429887 1.634428
0.73675525 0.56130952 1.634428
-0.84118402 -0.429887 1.6401246
-0.84118402 0.56130952 1.6401246
0.73675525 -0.429887 1.6401246
0.73675525 0.56130952 1.6401246
-0.84118402 -0.429887 1.6458211
-0.84118402 0.56130952 1.6458211
0.73675525 -0.429887 1.6458211
0.73675525 0.56130952 1.6458211
-0.84118402 -0.429887 1.6515176
-0.84118402 0.56130952 1.6515176
0.73675525 -0.429887 1.6515176
0.73675525 0.56130952 1.6515176
-0.84118402 -0.429887 1.6572142
-0.84118402 0.56130952 1.6572142
0.73675525 -0.429887 1.6572142
0.73675525 0.56130952 1.6572142
-0.84118402 -0.429887 1.6629107
-0.84118402 0.56130952 1.6629107
0.73675525 -0.429887 1.6629107
0.73675525 0.56130952 1.6629107
-0.84118402 -0.429887 1.6686072
-0.84118402 0.56130952 1.6686072
0.73675525 -0.429887 1.6686072
0.73675525 0.56130952 1.6686072
-0.84118402 -0.429887 1.6743038
-0.84118402 0.56130952 1.6743038
0.73675525 -0.429887 1.6743038
0.73675525 0.56130952 1.6743038
-0.84118402 -0.429887 1.6800003
-0.84118402 0.56130952 1.6800003
0.73675525 -0.429887 1.6800003
0.73675525 0.56130952 1.6800003
-0.84118402 -0.429887 1.6856968
-0.84118402 0.56130952 1.6856968
0.73675525 -0.429887 1.6856968
0.73675525 0.56130952 1.6856968
-0.84118402 -0.429887 1.6913934
-0.84118402 0.56130952 1.6913934
0.73675525 -0.429887 1.6913934
0.73675525 0.56130952 1.6913934
-0.84118402 -0.429887 1.6970899
-0.84118402 0.56130952 1.6970899
0.73675525 -0.429887 1.6970899
0.73675525 0.56130952 1.6970899
-0.84118402 -0.429887 1.7027864
-0.84118402 0.56130952 1.7027864
0.73675525 -0.429887 1.7027864
0.73675525 0.56130952 1.7027864
-0.84118402 -0.429887 1.708483
-0.84118402 0.56130952 1.708483
0.73675525 -0.429887 1.708483
0.73675525 0.56130952 1.708483
-0.84118402 -0.429887 1.7141795
-0.84118402 0.56130952 1.7141795
0.73675525 -0.429887 1.7141795
0.73675525 0.56130952 1.7141795
-0.84118402 -0.429887 1.7198761
-0.84118402 0.56130952 1.7198761
0.73675525 -0.429887 1.7198761
0.73675525 0.56130952 1.7198761
-0.84118402 -0.429887 1.7255726
-0.84118402 0.56130952 1.7255726
0.73675525 -0.429887 1.7255726
0.73675525 0.56130952 1.7255726
-0.84118402 -0.429887 1.7312691
-0.84118402 0.56130952 1.7312691
0.73675525 -0.429887 1.7312691
0.73675525 0.56130952 1.7312691
-0.84118402 -0.429887 1.7369657
-0.84118402 0.56130952 1.7369657
0.73675525 -0.429887 1.7369657
0.73675525 0.56130952 1.7369657
-0.84118402 -0.429887 1.7426622
-0.84118402 0.56130952 1.7426622
0.73675525 -0.429887 1.7426622
0.73675525 0.56130952 1.7426622
-0.84118402 -0.429887 1.7483587
-0.84118402 0.56130952 1.7483587
0.73675525 -0.429887 1.7483587
0.73675525 0.56130952 1.7483587
-0.84118402 -0.429887 1.7540553
-0.84118402 0.56130952 1.7540553
0.73675525 -0.429887 1.7540553
0.73675525 0.56130952 1.7540553
-0.84118402 -0.429887 1.7597518
-0.84118402 0.56130952 1.7597518
0.73675525 -0.429887 1.7597518
0.73675525 0.56130952 1.7597518
-0.84118402 -0.429887 1.7654483
-0.84118402 0.56130952 1.7654483
0.73675525 -0.429887 1.7654483
0.73675525 0.56130952 1.7654483
-0.84118402 -0.429887 1.7711449
-0.84118402 0.56130952 1.7711449
0.73675525 -0.429887 1.7711449
0.73675525 0.56130952 1.7711449
-0.84118402 -0.429887 1.7768414
-0.84118402 0.56130952 1.7768414
0.73675525 -0.429887 1.7768414
0.73675525 0.56130952 1.7768414
-0.84118402 -0.429887 1.7825379
-0.84118402 0.56130952 1.7825379
0.73675525 -0.429887 1.7825379
0.73675525 0.56130952 1.7825379
-0.84118402 -0.429887 1.7882345
-0.84118402 0.56130952 1.7882345
0.73675525 -0.429887 1.7882345
0.73675525 0.56130952 1.7882345
-0.84118402 -0.429887 1.793931
-0.84118402 0.56130952 1.793931
0.73675525 -0.429887 1.793931
0.73675525 0.56130952 1.793931
-0.84118402 -0.429887 1.7996275
-0.84118402 0.56130952 1.7996275
0.73675525 -0.429887 1.7996275
0.73675525 0.56130952 1.7996275
-0.84118402 -0.429887 1.805324
-0.84118402 0.56130952 1.805324
0.73675525 -0.429887 1.805324
0.73675525 0.56130952 1.805324
-0.84118402 -0.429887 1.8110205
-0.84118402 0.56130952 1.8110205
0.73675525 -0.429887 1.8110205
0.73675525 0.56130952 1.8110205
-0.84118402 -0.429887 1.816717
-0.84118402 0.56130952 1.816717
0.73675525 -0.429887 1.816717
0.73675525 0.56130952 1.816717
-0.84118402 -0.429887 1.8224136
-0.84118402 0.56130952 1.8224136
0.73675525 -0.429887 1.8224136
0.73675525 0.56130952 1.8224136
-0.84118402 -0.429887 1.8281101
-0.84118402 0.56130952 1.8281101
0.73675525 -0.429887 1.8281101
0.73675525 0.56130952 1.8281101
-0.84118402 -0.429887 1.8338066
-0.84118402 0.56130952 1.8338066
0.73675525 -0.429887 1.8338066
0.73675525 0.56130952 1.8338066
-0.84118402 -0.429887 1.8395032
-0.84118402 0.56130952 1.8395032
0.73675525 -0.429887 1.8395032
0.73675525 0.56130952 1.8395032
-0.84118402 -0.429887 1.8451997
-0.84118402 0.56130952 1.8451997
0.73675525 -0.429887 1.8451997
0.73675525 0.56130952 1.8451997
-0.84118402 -0.429887 1.8508962
-0.84118402 0.56130952 1.8508962
0.73675525 -0.429887 1.8508962
0.73675525 0.56130952 1.8508962
-0.84118402 -0.429887 1.8565928
-0.84118402 0.56130952 1.8565928
0.73675525 -0.429887 1.8565928
0.73675525 0.56130952 1.8565928
-0.84118402 -0.429887 1.8622893
-0.84118402 0.56130952 1.8622893
0.73675525 -0.429887 1.8622893
0.73675525 0.56130952 1.8622893
-0.84118402 -0.429887 1.8679858
-0.84118402 0.56130952 1.8679858
0.73675525 -0.429887 1.8679858
0.73675525 0.56130952 1.8679858
-0.84118402 -0.429887 1.8736824
-0.84118402 0.56130952 1.8736824
0.73675525 -0.429887 1.8736824
0.73675525 0.56130952 1.8736824
-0.84118402 -0.429887 1.8793789
-0.84118402 0.56130952 1.8793789
0.73675525 -0.429887 1.8793789
0.73675525 0.56130952 1.8793789
-0.84118402 -0.429887 1.8850754
-0.84118402 0.56130952 1.8850754
0.73675525 -0.429887 1.8850754
0.73675525 0.56130952 1.8850754
-0.84118402 -0.429887 1.890772
-0.84118402 0.56130952 1.890772
0.73675525 -0.429887 1.890772
0.73675525 0.56130952 1.890772
-0.84118402 -0.429887 1.8964685
-0.84118402 0.56130952 1.8964685
0.73675525 -0.429887 1.8964685
0.73675525 0.56130952 1.8964685
-0.84118402 -0.429887 1.9021651
-0.84118402 0.56130952 1.9021651
0.73675525 -0.429887 1.9021651
0.73675525 0.56130952 1.9021651
-0.84118402 -0.429887 1.9078615
-0.84118402 0.56130952 1.9078615
0.73675525 -0.429887 1.9078615
0.73675525 0.56130952 1.9078615
-0.84118402 -0.429887 1.913558
-0.84118402 0.56130952 1.913558
0.73675525 -0.429887 1.913558
0.73675525 0.56130952 1.913558
-0.84118402 -0.429887 1.9192545
-0.84118402 0.56130952 1.9192545
0.73675525 -0.429887 1.9192545
0.73675525 0.56130952 1.9192545
-0.84118402 -0.429887 1.9249511
-0.84118402 0.56130952 1.9249511
0.73675525 -0.429887 1.9249511
0.73675525 0.56130952 1.9249511
-0.84118402 -0.429887 1.9306476
-0.84118402 0.56130952 1.9306476
0.73675525 -0.429887 1.9306476
0.73675525 0.56130952 1.9306476
-0.84118402 -0.429887 1.9363441
-0.84118402 0.56130952 1.9363441
0.73675525 -0.429887 1.9363441
0.73675525 0.56130952 1.9363441
-0.84118402 -0.429887 1.9420407
-0.84118402 0.56130952 1.9420407
0.73675525 -0.429887 1.9420407
0.73675525 0.56130952 1.9420407
-0.84118402 -0.429887 1.9477372
-0.84118402 0.56130952 1.9477372
0.73675525 -0.429887 1.9477372
0.73675525 0.56130952 1.9477372
-0.84118402 -0.429887 1.9534338
-0.84118402 0.56130952 1.9534338
0.73675525 -0.429887 1.9534338
0.73675525 0.56130952 1.9534338
-0.84118402 -0.429887 1.9591303
-0.84118402 0.56130952 1.9591303
0.73675525 -0.429887 1.9591303
0.73675525 0.56130952 1.9591303
-0.84118402 -0.429887 1.9648268
-0.84118402 0.56130952 1.9648268
0.73675525 -0.429887 1.9648268
0.73675525 0.56130952 1.9648268
-0.84118402 -0.429887 1.9705234
-0.84118402 0.56130952 1.9705234
0.73675525 -0.429887 1.9705234
0.73675525 0.56130952 1.9705234
-0.84118402 -0.429887 1.9762199
-0.84118402 0.56130952 1.9762199
0.73675525 -0.429887 1.9762199
0.73675525 0.56130952 1.9762199
-0.84118402 -0.429887 1.9819164
-0.84118402 0.56130952 1.9819164
0.73675525 -0.429887 1.9819164
0.73675525 0.56130952 1.9819164
-0.84118402 -0.429887 1.987613
-0.84118402 0.56130952 1.987613
0.73675525 -0.429887 1.987613
0.73675525 0.56130952 1.987613
-0.84118402 -0.429887 1.9933095
-0.84118402 0.56130952 1.9933095
0.73675525 -0.429887 1.9933095
0.73675525 0.56130952 1.9933095
-0.84118402 -0.429887 1.999006
-0.84118402 0.56130952 1.999006
0.73675525 -0.429887 1.999006
0.73675525 0.56130952 1.999006
-0.84118402 -0.429887 2.0047026
-0.84118402 0.56130952 2.0047026
0.73675525 -0.429887 2.0047026
0.73675525 0.56130952 2.0047026
-0.84118402 -0.429887 2.0103991
